# .PCD v0.7 - Point Cloud Data file format
VERSION 0.7
FIELDS x y z
SIZE 4 4 4
TYPE F F F
COUNT 1 1 1
WIDTH 1529
HEIGHT 1
VIEWPOINT 0 0 0 1 0 0 0
POINTS 1529
DATA ascii
8.2638092 -30.321892 -29.978001
10.988701 -44.505001 -41.699627
13.178648 -38.373745 -32.86964
4.5133305 -41.399879 -29.383524
10.988699 -43.081257 -35.812256
8.3181906 -25.698343 -29.978001
8.9870291 -38.217102 -29.70385
19.118967 -39.995605 -34.472565
10.738253 -41.952545 -37.108269
19.297577 -39.995602 -35.635628
8.4181242 -27.238323 -29.978001
10.916941 -46.140472 -43.761581
14.605453 -35.748425 -29.978003
15.884911 -29.301901 -30.205097
17.456209 -34.585712 -29.996498
14.022573 -41.102158 -29.370726
13.912998 -38.0639 -32.546814
12.211537 -45.790401 -43.736572
15.421268 -38.053539 -29.90851
15.763355 -41.9272 -37.387447
10.959861 -30.454782 -29.978001
15.615047 -46.666664 -29.368584
17.080601 -32.83102 -29.996502
19.749136 -38.0639 -30.460281
20.841932 -43.858795 -40.730614
15.749277 -41.9272 -38.175739
16.579872 -36.106491 -30.137337
10.9887 -43.458393 -36.886105
12.320117 -39.651257 -29.373018
12.963296 -43.858799 -39.481304
17.402575 -43.858799 -42.821655
4.5636187 -47.203407 -29.383457
9.2570887 -37.334251 -29.990227
4.9867163 -38.557938 -29.382889
8.2106667 -42.04459 -29.378548
14.891399 -45.790405 -46.056175
10.9887 -44.524609 -30.769379
20.436913 -41.9272 -37.342003
12.400231 -39.630688 -32.6828
16.44981 -43.858799 -40.779888
13.904156 -46.580513 -29.370888
7.8480864 -26.096413 -30.184402
14.88518 -38.173603 -32.995159
10.9887 -45.494255 -40.484966
12.371905 -40.490597 -36.0756
19.400398 -38.0639 -30.730412
18.752743 -45.790405 -45.171646
18.957075 -40.126698 -29.364086
6.7737322 -25.970406 -29.9296
11.130302 -43.858803 -41.401585
11.41711 -40.11837 -36.387867
8.0592537 -38.134636 -29.815552
12.56226 -42.155487 -39.780476
5.4962354 -32.852852 -29.977999
4.693862 -42.21981 -29.383282
5.031466 -33.059006 -29.978001
21.311062 -38.983025 -32.6828
10.364593 -30.376612 -29.978001
19.708502 -38.632439 -29.363075
14.100271 -43.86245 -29.370625
10.9887 -40.966152 -32.747066
11.188736 -39.995605 -34.624279
8.1612988 -28.22192 -30.018297
19.105694 -38.986191 -32.6828
10.9887 -39.344391 -32.134445
6.8135448 -25.292358 -29.929602
15.427402 -30.798782 -29.978001
16.214142 -41.9272 -37.469837
12.344078 -40.021648 -36.332237
9.3675575 -26.553766 -29.978001
16.415565 -38.0639 -31.267618
19.240046 -29.612896 -29.9965
3.0185995 -44.541931 -29.385536
11.033337 -45.775177 -29.374752
15.647699 -38.604916 -32.6828
19.040188 -45.80162 -46.36451
11.822806 -36.842323 -29.978001
11.486884 -41.501637 -36.0756
10.9887 -46.082497 -38.453003
6.0316429 -30.030428 -29.9296
19.945011 -39.119827 -29.362759
20.171604 -48.375782 -29.362452
6.6103806 -36.18816 -29.985846
10.988699 -44.278282 -41.685234
13.986774 -39.995602 -34.828552
20.481054 -46.688644 -46.254002
10.745204 -46.069164 -46.001354
13.893551 -36.067493 -29.977999
6.8010406 -42.361389 -29.380447
12.840713 -41.9272 -36.164223
19.554394 -41.9272 -37.3605
7.2442694 -28.664928 -30.147596
10.9887 -40.961639 -33.639515
13.756029 -41.930779 -39.503727
6.1282806 -33.8526 -29.978001
19.723366 -38.063896 -31.107109
9.8011618 -47.82037 -29.376408
9.7188931 -37.719139 -29.993015
19.348869 -40.248413 -29.36356
13.450628 -45.410782 -29.371498
21.379847 -32.670788 -29.9965
17.204243 -27.399578 -29.9965
19.380646 -44.177086 -29.363518
20.693554 -40.614819 -36.0756
19.232561 -31.054161 -29.996502
11.762763 -47.545586 -46.253998
13.382874 -40.740398 -36.0756
15.078193 -47.218552 -29.369308
10.470556 -40.091438 -29.375509
12.270588 -41.708023 -36.0756
11.624109 -29.73909 -29.978001
14.392458 -38.0639 -32.105297
5.4959354 -48.365215 -29.382202
10.988701 -46.795906 -32.805611
18.887299 -30.442352 -29.9965
19.167385 -38.773399 -29.363804
13.472942 -45.790401 -44.460854
10.714812 -42.07769 -38.042686
3.1409266 -38.331894 -29.562929
13.915222 -47.839684 -29.370872
18.293856 -42.674011 -29.364979
3.0739384 -47.822586 -29.38546
6.5530796 -35.968048 -29.983614
21.132389 -32.634979 -29.996502
13.859096 -39.995602 -34.751015
13.228066 -43.858803 -41.739017
12.1498 -42.364506 -39.468498
10.698036 -32.033096 -29.978001
16.56514 -40.856453 -29.367306
18.709475 -46.385887 -29.36442
8.8949537 -41.07003 -29.377626
18.266047 -41.342628 -36.0756
9.7037315 -26.535576 -29.978001
18.976189 -30.765253 -29.9965
21.04273 -43.858795 -42.417458
18.531303 -38.0639 -31.773438
18.259052 -31.534281 -29.996502
20.470877 -39.995602 -35.118397
6.3452969 -28.430899 -29.9296
19.518797 -46.331928 -46.254002
19.244741 -39.97311 -32.6828
18.689377 -33.279114 -29.9965
11.122089 -33.731281 -29.978001
10.9887 -38.757141 -30.294289
20.241457 -42.637711 -39.468498
10.9887 -43.582268 -30.392008
8.4600554 -34.755501 -29.978001
4.8751764 -31.167133 -30.184402
15.837355 -41.9272 -37.279015
21.167933 -41.9272 -36.895363
14.853549 -46.098057 -29.36961
18.382479 -28.961571 -29.9965
13.344901 -39.430931 -29.371639
10.9887 -46.555885 -45.31646
10.636811 -43.717583 -29.375282
20.204712 -38.827522 -32.6828
9.8138847 -35.368729 -29.978001
18.78117 -36.591759 -30.205072
8.7455339 -34.72142 -29.978001
4.7483335 -29.302607 -29.9296
10.694359 -33.331917 -29.978001
3.139246 -48.154926 -29.385374
14.2254 -39.740395 -32.6828
14.828056 -45.233406 -29.369644
18.083218 -41.9272 -38.15818
17.404001 -38.063896 -31.245485
12.333055 -41.927204 -36.076828
15.425786 -45.465778 -42.861198
20.80706 -46.146164 -46.267185
18.306137 -44.749435 -29.364964
18.740566 -36.522896 -30.205074
2.0946131 -42.954109 -29.38678
20.888451 -32.795708 -29.996498
10.9887 -45.430241 -36.759754
18.863951 -45.790401 -44.514229
12.739287 -39.807804 -29.372456
10.982364 -45.791019 -43.793106
18.546638 -32.47065 -29.996502
13.179731 -37.856026 -29.983839
5.8301821 -28.03867 -29.9296
13.39196 -41.9272 -38.102959
10.260691 -35.985592 -29.977999
12.287256 -45.14283 -42.861198
12.131186 -41.9272 -36.57394
14.969121 -32.91386 -29.978001
6.7888832 -46.186058 -29.380463
13.254488 -39.995602 -33.04792
15.219739 -35.691898 -29.978003
10.988699 -42.933834 -29.703415
18.108086 -39.798969 -29.365231
9.0070248 -39.173714 -29.377478
11.12652 -29.095009 -29.978001
14.082426 -40.513264 -29.370646
8.8183069 -39.896568 -29.377731
7.6698256 -42.993793 -29.379276
17.639565 -45.790398 -44.75478
15.241892 -39.995605 -34.789463
21.065632 -38.064034 -32.684135
7.7835884 -42.19413 -29.379124
15.794598 -39.995602 -34.858624
10.9887 -44.575424 -29.344122
4.0285807 -38.762875 -29.384176
20.604321 -42.653748 -39.468498
4.7690411 -41.944622 -29.383181
12.658133 -41.112778 -29.372564
4.5297298 -45.057751 -29.383503
7.1860161 -45.958679 -29.379927
17.484512 -47.204483 -29.366068
19.618647 -39.995605 -34.336338
13.194501 -45.790398 -43.75671
14.428223 -39.995602 -35.868523
18.854895 -37.148026 -30.083746
19.171371 -28.952728 -29.9965
20.299994 -39.995602 -32.948895
8.7885704 -30.948256 -29.977999
4.5194573 -36.848057 -29.999516
13.753427 -39.995598 -34.402756
11.155442 -45.291115 -42.861198
10.9887 -42.607361 -29.94545
17.92915 -38.030357 -29.939034
16.231977 -37.132145 -30.10043
10.988701 -44.352783 -31.542274
8.1288462 -24.563641 -30.036873
9.5282049 -43.457115 -29.376774
8.5776339 -41.04026 -29.378056
15.004333 -44.966278 -42.861198
15.814113 -47.23764 -46.253998
4.7617517 -28.846094 -29.9296
17.380766 -34.08123 -29.9965
14.763232 -42.858318 -39.468498
5.1427441 -31.921078 -29.993067
18.772396 -43.858799 -40.858093
13.554337 -41.9272 -39.37207
16.030832 -39.995602 -34.994579
16.379431 -27.70306 -30.205101
14.297012 -35.518948 -29.978001
13.68224 -41.9272 -36.099941
5.4303517 -35.823898 -29.985498
4.4884744 -35.671806 -29.98674
20.798487 -45.790401 -43.625542
11.327524 -39.243912 -29.374353
13.697044 -38.395485 -29.456726
8.4904709 -41.946011 -29.378172
10.878157 -40.006424 -33.001534
14.571734 -45.790405 -45.487427
20.588501 -48.129822 -29.361893
18.74649 -39.995602 -34.789726
13.030704 -38.089615 -32.936119
6.5222673 -45.856682 -29.380821
18.689205 -45.664848 -42.861198
3.9904583 -34.465694 -29.978001
18.435829 -44.08139 -43.173599
8.4342623 -29.63512 -29.978001
6.4973516 -46.895782 -29.380856
14.269472 -43.858799 -42.393593
19.86235 -39.995598 -34.612846
14.028832 -42.128807 -29.37072
15.380309 -41.9272 -38.03603
5.3260574 -43.964676 -29.382431
10.845913 -44.109818 -39.484245
9.5122623 -35.854404 -29.978001
18.662197 -43.858799 -41.861694
10.9887 -43.579048 -37.035755
10.988701 -39.734623 -29.810434
21.106358 -29.409718 -29.9965
2.3971028 -40.055523 -29.386374
16.547922 -39.697388 -32.6828
1.4047318 -43.139168 -29.387709
12.082855 -34.639992 -29.978001
21.345638 -45.790401 -45.881065
14.643992 -44.587959 -29.369892
19.881283 -47.147514 -46.254002
7.2953548 -47.733459 -29.379782
17.474598 -47.660671 -29.366081
10.846436 -46.117916 -46.545391
16.582611 -26.682178 -30.134418
0.68928242 -47.844025 -29.388672
7.0332956 -27.645943 -29.9296
10.988701 -45.659378 -40.411396
14.548773 -43.858799 -42.501488
21.025303 -45.790405 -43.778587
19.85878 -31.036694 -29.996498
6.3731709 -32.286449 -29.978001
17.999449 -39.995602 -35.184429
10.9887 -46.882271 -36.141911
14.281919 -48.249458 -29.370378
18.447075 -38.376301 -32.844448
10.9887 -45.114216 -32.118992
17.043112 -41.9272 -36.083164
5.7319794 -31.135769 -30.184402
11.897082 -41.509201 -29.373589
20.209684 -46.969204 -29.3624
20.347446 -41.9272 -36.85886
2.9453592 -47.622589 -29.385635
12.354068 -36.912941 -29.978001
2.8818212 -36.792992 -30.003963
19.443207 -45.790401 -44.30732
19.490889 -38.293369 -29.588722
7.5651331 -35.979584 -29.980619
16.449472 -39.820259 -29.367462
21.111378 -36.162666 -30.036436
10.909487 -37.182297 -29.983465
11.519816 -43.858799 -41.746059
20.930424 -38.970459 -32.6828
13.301033 -41.66901 -36.0756
7.5497904 -29.90029 -30.184399
16.368652 -46.328514 -46.254002
14.390338 -38.075211 -32.794247
20.208557 -45.790901 -46.258888
15.205893 -45.790401 -45.518326
5.3094454 -32.441963 -29.978001
8.0864773 -45.962868 -29.378716
17.954056 -45.790398 -43.296318
10.194923 -26.089638 -29.978001
10.9887 -44.837936 -33.813049
19.544333 -45.790401 -44.762627
12.22193 -28.668728 -29.978001
12.847471 -25.433487 -29.978001
13.554183 -45.790401 -43.824337
11.847807 -42.336967 -29.373655
19.85117 -39.995602 -34.521149
16.473696 -43.858799 -40.449532
10.9887 -45.209946 -36.321098
10.9887 -45.540546 -38.296604
10.9887 -43.205406 -34.956673
14.216656 -41.9272 -36.874916
7.9077826 -37.873775 -30.00029
10.877607 -43.855507 -29.37496
1.4504728 -45.27375 -29.387646
18.884245 -45.790401 -42.869019
7.5188732 -37.749603 -30.000132
19.348694 -46.130363 -46.422821
7.2192945 -28.677971 -30.097448
8.6180506 -46.459038 -29.378002
5.3991966 -36.082626 -29.988426
6.8692403 -23.899038 -30.184401
5.8175869 -48.195 -29.381769
11.832146 -38.294495 -32.995247
21.34557 -30.196365 -29.9965
10.9887 -43.614147 -30.82729
11.716052 -37.699646 -29.986643
16.073997 -41.051083 -29.36797
19.628057 -42.647861 -39.468498
10.9887 -46.975922 -40.169918
10.9887 -41.40609 -32.666828
15.39659 -41.9272 -39.328159
13.399576 -44.598484 -42.861198
16.70249 -47.304245 -29.367123
15.895813 -30.873297 -30.205099
2.8960476 -40.971039 -29.3857
15.96844 -29.492167 -30.205101
3.1237373 -38.066113 -29.920984
17.501764 -41.212616 -29.366047
11.738459 -39.648003 -29.3738
18.62685 -30.299206 -29.996498
10.9887 -43.740242 -37.511688
13.361423 -42.520927 -39.468498
19.593571 -40.250225 -29.36323
20.85429 -43.858799 -41.042805
10.791218 -46.128159 -43.773544
17.752352 -35.478561 -29.9965
10.988701 -45.238819 -37.988411
8.535532 -41.81237 -29.378111
7.4422851 -39.420071 -29.379583
13.455259 -46.138683 -46.340878
10.9887 -40.553051 -35.561363
0.75420666 -48.015465 -29.388584
12.67392 -45.807724 -46.424644
16.350296 -46.571953 -29.367596
19.767799 -46.574688 -46.254002
16.584507 -45.790401 -46.039894
10.988701 -41.815613 -30.391979
10.9887 -38.871819 -32.352959
8.461668 -27.041817 -29.978001
16.080959 -48.673962 -29.367958
20.53606 -38.88475 -29.361961
14.382248 -43.858799 -40.317783
9.8232479 -30.988955 -29.978001
20.460381 -48.664589 -29.362064
12.545404 -41.9272 -38.516685
12.961002 -41.9272 -38.605263
14.181774 -44.711441 -29.37051
10.9887 -43.077927 -39.085991
16.817041 -29.672607 -29.996498
8.0179348 -48.10041 -29.378809
6.4357471 -36.535892 -29.990189
19.139475 -38.0639 -29.941151
5.1412363 -45.071144 -29.382681
6.5995102 -29.230858 -29.9296
17.656929 -45.809235 -46.439533
0.71964264 -47.086056 -29.38863
15.991503 -41.737705 -29.368078
8.1515217 -26.456659 -30.023895
13.562458 -43.634014 -39.468498
14.597694 -38.314121 -29.563223
13.568027 -41.9272 -39.398598
10.697841 -38.099541 -30.597082
13.827873 -30.824688 -29.978001
19.148853 -42.140953 -29.363829
15.184052 -39.995602 -33.965878
10.934647 -38.069195 -29.303223
16.123405 -45.2052 -29.367901
20.776077 -44.785225 -29.361637
15.50248 -46.59565 -29.368736
2.7432041 -46.181137 -29.385906
16.590549 -46.084122 -46.566299
6.2453175 -42.588905 -29.381195
13.798107 -38.0639 -30.402294
12.883261 -41.9272 -37.08205
10.9887 -41.731377 -34.88496
11.63583 -31.230133 -29.978001
10.707993 -25.504837 -29.978001
17.473063 -45.875935 -46.566299
15.187035 -41.434265 -36.0756
18.845898 -28.964369 -29.9965
11.616599 -38.0639 -32.49942
19.493221 -46.2621 -46.253998
10.252723 -30.489407 -29.978001
13.842003 -39.995602 -34.713547
19.610443 -46.076488 -46.566299
10.93503 -46.142242 -43.718201
20.251451 -37.150211 -30.081453
15.837609 -41.9272 -38.333141
12.019755 -43.858795 -39.957783
14.762849 -41.9272 -39.318005
10.9887 -44.799595 -42.470791
19.732016 -40.779449 -29.363045
3.5379429 -48.01416 -29.384838
15.211239 -37.208973 -29.978001
21.425934 -47.314892 -46.254002
20.717623 -38.156662 -29.770805
17.644173 -39.995602 -35.992821
20.245039 -41.90102 -29.362354
10.9887 -42.425774 -33.633152
16.307751 -46.125912 -46.466671
7.8810768 -35.24929 -29.978001
5.8808088 -43.708397 -29.381683
6.3428798 -33.756317 -29.978001
20.317959 -39.995602 -35.857296
5.1676407 -44.660404 -29.382645
5.0945663 -41.643684 -29.382744
13.804106 -40.006927 -36.187172
10.9887 -42.457722 -30.145016
10.342872 -32.642063 -29.978001
19.355127 -30.044674 -29.996498
11.171247 -44.417496 -42.861198
11.003929 -44.159492 -43.138062
13.672642 -48.461052 -29.371199
11.041781 -38.0639 -29.751743
6.0533457 -23.965885 -30.184401
14.634195 -39.212872 -29.369904
3.4397945 -47.939259 -29.384968
20.643637 -41.9272 -36.978325
17.24893 -30.137592 -29.996502
12.472483 -32.073765 -29.978001
20.294113 -43.858799 -41.218147
10.988701 -45.959202 -42.165218
9.3917532 -42.220993 -29.376961
10.9887 -41.677002 -35.518215
4.3201828 -38.089661 -29.885895
10.9887 -40.901806 -35.025589
21.191864 -34.025154 -29.9965
2.0424824 -43.663548 -29.38685
10.167803 -32.09515 -29.978001
19.294796 -47.648628 -46.254002
1.8012648 -45.853722 -29.387175
17.025787 -41.551712 -29.366684
18.070963 -32.839867 -29.996502
20.477385 -45.419876 -29.362041
10.9887 -47.576248 -46.251457
7.6554956 -45.795448 -29.379295
16.868908 -38.25972 -32.995224
3.9384658 -38.236706 -29.688042
18.578714 -48.198792 -29.364597
17.915226 -39.424072 -32.6828
20.959759 -45.502502 -29.361393
4.480041 -35.660645 -29.986643
16.586922 -29.689386 -30.129824
10.9887 -45.249226 -35.21162
10.9887 -45.0326 -35.902626
20.443798 -45.790401 -45.733967
6.8741369 -48.064217 -29.380348
6.8372564 -46.098877 -29.380398
15.397707 -39.995602 -34.478775
10.777562 -38.369854 -30.258297
9.1144247 -34.335579 -29.978001
2.2299004 -46.62534 -29.386599
20.363667 -28.014048 -29.9965
13.639405 -28.565552 -29.978001
15.75925 -35.245384 -30.157463
16.276264 -45.212692 -29.367693
14.165212 -33.349293 -29.978001
7.2023516 -27.466541 -30.063429
15.770222 -26.247726 -30.168987
12.579437 -43.001575 -39.468498
16.266115 -46.118839 -46.536316
13.511698 -37.928188 -29.983604
15.82237 -27.759199 -30.205099
16.857946 -43.858799 -42.752949
16.399235 -41.9272 -37.89357
10.751229 -41.955219 -38.382965
12.689606 -42.795753 -29.37252
15.883936 -43.858795 -41.795895
20.861362 -46.604774 -46.254002
13.036758 -39.995598 -33.350063
12.059226 -43.858799 -41.015785
10.9887 -47.25304 -34.221386
14.570951 -33.960709 -29.978001
10.9887 -46.433144 -43.870075
2.6161375 -48.494125 -29.386078
3.8047752 -41.457371 -29.384478
6.9420471 -41.726189 -29.380257
19.005964 -40.311844 -36.198292
17.022034 -43.858799 -42.023216
11.941867 -41.9272 -37.996143
18.087357 -39.995602 -34.348572
2.6764641 -48.199757 -29.385996
10.988701 -44.325005 -35.87077
4.8477244 -32.701485 -29.978001
10.743266 -37.054161 -29.982578
21.038025 -39.140915 -29.361286
20.997236 -38.0639 -32.10667
10.988699 -45.686493 -41.621147
15.393573 -39.995602 -35.742489
14.044296 -43.086254 -39.468498
9.6080561 -29.663651 -29.978001
18.868822 -38.0639 -30.730244
9.0469418 -38.401268 -29.458502
14.706894 -41.3036 -36.0756
10.988701 -46.54464 -32.199543
16.836887 -41.713577 -29.366941
7.0488439 -40.256618 -29.380112
8.1076412 -29.788866 -30.049007
7.7370825 -33.059204 -29.978001
18.046307 -29.908072 -29.996498
18.687033 -47.441742 -29.36445
5.2946877 -27.154659 -29.9296
10.9887 -47.551208 -38.915985
10.893078 -35.346802 -29.978001
10.9887 -43.050987 -35.022087
20.57708 -42.950058 -39.468498
12.498529 -32.956894 -29.978001
15.619207 -45.790398 -45.80024
20.220169 -41.887432 -29.362389
16.680767 -38.480278 -32.6828
4.5538139 -29.982372 -29.929598
19.650051 -40.367508 -29.363155
10.604634 -36.555561 -29.978001
16.143044 -38.0639 -29.965397
12.453283 -47.390633 -29.372841
15.82355 -47.254219 -46.253998
3.7662191 -44.984169 -29.384529
6.1936665 -48.56115 -29.381264
12.373924 -44.823383 -42.861198
12.113146 -39.995605 -33.807831
11.40527 -46.139217 -46.335575
19.860733 -45.790401 -45.806908
20.2948 -40.632935 -36.0756
16.507629 -41.9272 -37.865025
10.9887 -46.814297 -32.532997
17.746576 -39.509869 -32.6828
18.746231 -44.982716 -42.861198
16.429501 -31.132362 -30.205097
17.95635 -47.200077 -46.254002
12.761711 -48.298119 -29.372425
10.9887 -45.765678 -38.470436
12.592888 -42.582676 -39.468498
10.709074 -31.892342 -29.978001
10.9887 -44.559177 -42.333916
18.352123 -40.728073 -29.364901
14.281796 -46.663036 -29.37038
2.7233181 -37.078381 -30.007576
12.595234 -45.790401 -43.416172
5.4650531 -37.411079 -30.002762
10.576918 -41.050995 -29.375362
17.670113 -47.662621 -46.254002
14.044255 -39.781498 -29.370701
15.793419 -27.800468 -30.193356
14.629414 -30.17057 -29.978001
16.5886 -39.995602 -35.582085
15.470814 -38.719368 -29.36878
17.445425 -46.137459 -46.352928
17.168104 -45.375259 -42.861198
17.712944 -46.085812 -46.566299
2.397294 -37.708424 -30.015476
10.9887 -44.58036 -30.505445
10.9887 -44.874886 -32.424015
1.9697561 -45.029129 -29.386948
14.740482 -34.428261 -29.978001
19.095848 -43.858799 -39.942875
6.7212763 -38.203369 -29.726757
10.404955 -25.530685 -29.978003
19.015841 -45.790401 -45.187553
10.703507 -40.201981 -34.207016
14.64744 -39.995602 -33.468014
20.503338 -45.790401 -45.671692
5.715044 -34.444176 -29.978001
16.710897 -39.995602 -35.960892
20.107611 -45.790405 -44.878929
10.854491 -44.172638 -40.54491
10.9887 -41.948219 -30.838223
20.603271 -44.649948 -42.861198
15.057648 -39.995602 -33.369087
14.998681 -47.55352 -29.369415
6.7828951 -25.45986 -29.9296
11.336596 -38.0639 -29.472649
19.130939 -31.628513 -29.9965
15.436068 -46.222748 -29.368824
15.462774 -41.961834 -39.780697
19.402946 -41.9272 -36.978218
14.1984 -41.9272 -36.824688
13.992308 -44.157013 -43.162575
10.428649 -29.346582 -29.978001
19.072655 -38.063904 -31.858463
13.043419 -44.486134 -29.372046
21.211308 -37.647518 -29.978001
4.6355753 -35.069187 -29.979691
6.6947393 -44.346649 -29.380589
10.9887 -46.873177 -36.297253
12.725274 -43.699333 -39.468498
7.1520181 -29.915167 -29.962364
10.988699 -44.741539 -35.2379
17.461365 -45.592308 -42.861198
11.089693 -45.790401 -46.119438
8.7817488 -31.753525 -29.978001
12.518244 -38.0639 -31.697861
20.951748 -30.521883 -29.996502
17.772533 -41.9272 -38.617104
11.891291 -39.995602 -33.628986
20.560169 -41.9272 -38.412045
18.373291 -47.437859 -29.364872
14.657246 -31.312641 -29.978001
10.9887 -42.743828 -29.506584
19.264999 -41.930069 -39.496727
18.071768 -38.704689 -29.365278
10.9887 -42.177818 -35.588696
11.801332 -43.858799 -41.633423
12.572552 -41.22052 -36.0756
10.9887 -43.723976 -31.386589
11.303158 -40.139496 -36.387859
11.880683 -42.993412 -39.468498
7.7816753 -35.557003 -29.978001
12.47308 -39.077782 -29.37281
7.8755417 -28.089146 -30.181858
11.116955 -42.76973 -29.374638
7.728816 -45.943233 -29.379196
12.140509 -41.071419 -29.37326
18.470438 -47.523144 -46.254002
17.224695 -34.041142 -29.9965
12.176194 -40.850563 -29.373211
15.986952 -43.858795 -42.165779
15.487788 -43.858795 -39.608986
17.999947 -27.316858 -29.996502
11.300912 -38.099072 -29.856289
15.873518 -45.168159 -42.861198
2.4968462 -43.760216 -29.38624
14.773895 -41.825653 -29.369717
12.087666 -45.790401 -43.445732
10.9887 -45.007004 -40.699024
16.769005 -45.316689 -29.367031
18.599922 -38.0639 -30.755489
11.482817 -39.995605 -35.095909
20.166023 -38.348076 -29.515856
21.382751 -39.31002 -29.360823
20.556854 -41.9272 -37.062622
14.229347 -35.335644 -29.978003
7.4490881 -38.417313 -29.440407
3.7951322 -36.371185 -29.996532
6.0047159 -29.884607 -29.9296
10.9887 -38.732685 -31.331366
8.2371321 -36.183678 -29.98078
4.1316099 -38.045742 -29.946177
13.519273 -45.790401 -46.058937
13.199956 -30.631115 -29.978001
4.6869202 -41.122509 -29.383293
8.8067417 -42.467228 -29.377747
17.859966 -41.9272 -38.115883
19.197025 -46.290977 -29.363766
9.9696712 -40.403191 -29.376181
9.04951 -31.952068 -29.978001
5.8651009 -45.977291 -29.381706
11.976059 -46.142677 -46.301525
19.55073 -46.661694 -29.363289
16.466101 -39.995602 -33.674831
15.879242 -45.749798 -29.368229
16.470272 -39.995605 -34.061386
9.1862669 -28.678221 -29.978001
10.9887 -46.950569 -45.229317
12.758726 -38.0639 -32.392929
10.9887 -44.21822 -38.23262
21.186775 -45.790401 -44.857468
7.1428452 -43.593342 -29.379986
6.1969118 -25.32416 -29.9296
17.26321 -27.595003 -29.9965
10.711403 -46.008904 -44.692589
10.209065 -32.007736 -29.978001
12.786033 -39.3979 -32.6828
19.592005 -41.9272 -36.214142
19.684841 -45.088997 -42.861198
19.613207 -40.850166 -29.363205
12.805231 -38.0639 -32.278507
15.49931 -47.508434 -29.36874
2.6719208 -44.110706 -29.386002
14.002434 -45.790401 -43.061871
17.13134 -38.0639 -29.484013
10.9887 -45.47847 -37.111534
10.9887 -44.24247 -38.456673
3.8447709 -40.131775 -29.384424
12.602684 -44.548004 -29.372639
16.254942 -43.838345 -29.367725
13.532719 -43.858799 -41.095901
17.136587 -36.140549 -30.012859
20.308355 -43.858799 -40.489853
19.13991 -38.857296 -32.6828
11.732864 -37.017986 -29.979128
21.244778 -43.909164 -29.36101
13.346786 -38.183453 -29.739759
11.91247 -45.725868 -29.373569
10.9887 -44.519352 -34.581867
19.503941 -39.995602 -34.549732
17.967688 -27.471342 -29.9965
14.118372 -45.810593 -46.452896
10.9887 -44.648926 -34.35006
15.182211 -39.995602 -33.954597
13.321121 -39.181122 -32.6828
20.994741 -38.336266 -32.995277
10.988701 -45.992825 -35.715305
10.9887 -46.479416 -38.819336
9.6277685 -24.449301 -29.977999
14.928753 -35.106796 -29.978001
12.709294 -45.790401 -45.738228
20.481253 -45.790398 -44.777855
13.519308 -41.060158 -36.0756
14.389393 -36.78717 -29.977999
14.816684 -46.006157 -29.369659
4.3462677 -31.539043 -30.184402
16.135757 -47.010269 -29.367882
16.954166 -38.063896 -30.357567
8.6733456 -29.060646 -29.977999
2.9985638 -43.675339 -29.385565
18.029781 -43.646614 -39.468498
10.988701 -46.755676 -41.455124
9.6648273 -47.628349 -29.376591
16.823593 -45.435192 -29.366959
19.629101 -45.790405 -43.304245
20.752663 -42.578865 -39.468498
16.168373 -45.039494 -42.861198
19.249634 -35.355526 -29.9965
11.256928 -46.988167 -29.374449
20.829536 -46.250965 -46.254002
10.693028 -42.424744 -29.37521
14.666973 -38.0639 -29.809397
18.570896 -43.280327 -39.468498
11.097005 -24.477955 -29.978001
11.083328 -38.859989 -32.6828
10.988699 -44.250046 -37.185047
14.419279 -43.81189 -39.468498
7.7522812 -44.137459 -29.379164
20.332115 -38.0639 -30.286831
16.817482 -41.9272 -38.813713
14.729092 -45.821953 -46.564819
14.825439 -30.985958 -29.978001
10.9887 -44.664146 -34.848808
19.688671 -45.621117 -42.861198
5.0119748 -39.77787 -29.382854
5.7084761 -38.39716 -29.470783
12.887104 -34.117859 -29.978001
10.9887 -47.069855 -33.838562
11.376031 -38.0639 -30.232491
5.1582184 -42.481972 -29.382656
5.435813 -35.621384 -29.983265
16.196793 -46.014637 -29.367802
20.384621 -45.309692 -42.861198
10.983211 -35.482334 -29.978001
9.4945574 -26.002403 -29.978001
17.003689 -42.792294 -29.366716
3.1015491 -48.608089 -29.385424
10.988699 -41.001095 -33.261787
20.954639 -37.298157 -29.978001
10.9887 -47.001503 -33.360481
6.9699392 -34.000565 -29.978001
21.263008 -43.858799 -39.642845
2.3217516 -39.235008 -29.386475
15.249394 -39.995602 -33.86702
8.9594698 -34.931004 -29.978001
15.604667 -43.861439 -42.887241
10.710128 -43.889084 -40.84148
8.8418932 -48.109619 -29.377701
18.977016 -41.9272 -37.81879
21.207439 -46.197136 -29.361057
20.698126 -38.0639 -29.831568
10.988699 -45.672253 -42.574783
10.9887 -45.884571 -37.085949
18.53661 -28.77993 -29.9965
0.65482998 -47.895 -29.388718
10.751603 -41.95763 -39.097519
10.664369 -26.521427 -29.978001
16.00112 -47.765614 -29.368065
15.802581 -43.880844 -43.078491
11.639992 -39.995598 -35.94709
10.9887 -47.078072 -39.699963
19.885546 -39.995602 -33.792191
10.875135 -44.950695 -29.374964
15.455847 -42.894203 -39.468498
12.533922 -39.995602 -35.679283
10.988699 -47.016411 -31.706568
17.796038 -28.394558 -29.996498
10.988701 -46.788708 -45.021664
17.893778 -45.790401 -43.514923
6.3225813 -47.723469 -29.381088
10.941011 -44.180679 -39.948841
11.192957 -39.995605 -34.723091
16.982803 -43.858799 -41.361427
4.3771324 -43.687393 -29.383709
20.088989 -48.487961 -29.362564
10.867834 -38.379421 -31.075047
13.887459 -41.9272 -36.239971
16.127628 -37.035793 -30.201641
14.742273 -40.819035 -29.369759
17.081991 -41.951645 -39.709206
3.9661303 -46.994995 -29.38426
13.949219 -35.977901 -29.978001
17.986786 -40.393406 -29.365393
7.3660421 -44.673725 -29.379684
20.484766 -38.063896 -29.794088
14.441486 -46.048733 -46.566299
10.16376 -33.778282 -29.978001
19.654579 -42.842564 -39.468498
12.511581 -43.772804 -39.468498
21.028229 -42.991928 -29.3613
12.334654 -38.385147 -29.473263
6.4002924 -40.35638 -29.380985
13.70209 -42.488575 -29.371159
20.59181 -29.740269 -29.9965
7.6812735 -35.089657 -29.978001
9.1497087 -35.761238 -29.978001
12.641818 -42.593086 -29.372585
13.135145 -26.603741 -29.978001
17.829199 -42.179283 -39.780453
9.5851507 -30.985409 -29.977999
14.540722 -47.837307 -29.370031
15.538685 -43.034897 -29.368687
10.9887 -47.169674 -40.102566
11.354788 -41.9272 -36.375519
19.842175 -30.203896 -29.9965
11.446217 -47.007256 -46.254002
6.9490976 -30.214693 -29.9296
7.5214586 -38.775795 -29.379478
4.3482761 -43.521999 -29.383747
20.104412 -33.813705 -29.996502
20.894098 -45.265076 -29.361481
18.771122 -29.497192 -29.9965
17.155367 -38.0844 -32.884747
15.800835 -38.0639 -32.0835
18.663044 -43.880089 -43.070984
15.149988 -42.572426 -39.468498
11.164356 -38.063904 -29.678171
17.130087 -46.594566 -29.366547
15.528841 -38.823822 -29.368702
11.360439 -38.0639 -31.705875
11.101023 -39.619816 -29.374659
10.033934 -45.789276 -29.376095
11.362505 -38.0639 -31.668934
13.534403 -43.858799 -40.932819
18.014561 -34.742405 -29.996502
18.774746 -43.858795 -39.863937
20.819233 -44.059456 -43.173599
10.9887 -44.662296 -38.374157
14.361238 -41.9272 -36.135887
10.9887 -44.276608 -32.959908
15.968437 -45.692738 -29.368109
2.7642851 -40.797562 -29.385878
11.060093 -44.932583 -42.861198
13.260195 -42.207954 -39.780418
8.6085253 -26.975622 -29.977999
17.235409 -39.995602 -36.016151
10.9887 -42.468311 -39.221352
1.0420828 -44.371948 -29.388195
18.730083 -45.816238 -46.508492
20.257687 -47.743477 -29.362337
14.133791 -44.408051 -29.370579
8.522027 -41.994072 -29.37813
21.419851 -44.104324 -43.173599
12.447547 -25.334694 -29.978001
10.9887 -45.433342 -31.399099
15.094267 -32.918354 -29.977999
11.70978 -25.620768 -29.978001
11.046706 -45.790405 -43.80043
19.250025 -39.995602 -35.261944
17.221493 -43.858799 -41.656898
13.810105 -34.03363 -29.978001
3.0331974 -38.444809 -29.412794
7.5767241 -42.279274 -29.379402
15.256897 -33.667946 -29.978001
19.686245 -44.189529 -42.861198
10.9887 -40.669815 -33.558708
19.808567 -40.313526 -36.181671
12.588241 -41.9272 -37.70895
20.87883 -47.628426 -46.254002
20.152067 -33.584591 -29.9965
19.098465 -39.31842 -29.363895
12.448675 -29.10054 -29.978001
10.729483 -24.657507 -29.978001
12.907946 -44.120827 -43.173599
15.570004 -45.876556 -46.566299
10.9887 -45.151413 -39.932377
20.929375 -45.256401 -42.861198
14.947834 -46.29985 -29.369484
10.9887 -42.186737 -31.824253
16.622116 -46.885151 -46.254002
14.857662 -41.507252 -29.369602
20.560616 -45.790401 -45.036591
17.164812 -44.644966 -29.366497
10.9887 -41.235611 -35.856995
12.102042 -41.7813 -36.075596
21.345512 -32.076458 -29.9965
10.988699 -47.25248 -35.908092
8.6075687 -36.80106 -29.986393
12.69589 -34.038704 -29.978001
9.4614935 -32.546448 -29.978001
5.6400156 -29.473379 -29.9296
18.404558 -38.0639 -31.494297
10.883156 -45.859306 -46.566299
20.77211 -29.239691 -29.9965
1.5229635 -45.078342 -29.387547
15.953815 -45.790401 -45.933681
11.000946 -33.69017 -29.978001
12.281361 -45.36834 -42.861198
8.1830349 -43.072632 -29.378586
13.97047 -43.858799 -41.518795
19.827431 -46.443375 -46.253998
13.517181 -39.995602 -34.831131
17.346878 -38.063904 -31.935715
10.785761 -38.36657 -32.217155
17.500668 -38.063896 -30.170319
10.9887 -45.765572 -33.584476
9.8548603 -36.52998 -29.97958
20.527489 -39.995602 -33.237953
10.9887 -41.337208 -30.973482
16.641375 -45.812698 -46.473648
15.334402 -45.685089 -42.861198
13.728249 -41.757877 -29.371124
21.248264 -43.858799 -41.700577
20.67231 -29.014648 -29.996498
9.2221298 -34.669857 -29.978001
16.490715 -38.0639 -30.922081
10.988699 -47.226906 -32.243637
12.445896 -44.061447 -29.37285
19.521807 -43.858799 -42.811749
6.5184422 -27.648384 -29.9296
12.216064 -27.983114 -29.978001
20.430809 -43.858795 -40.875587
12.343767 -38.080223 -32.843613
11.667532 -41.9272 -36.761791
14.596784 -44.233471 -29.369955
16.367027 -42.001362 -39.780655
4.7144341 -34.67696 -29.978001
16.43778 -37.475571 -29.978001
13.952616 -32.668583 -29.978001
7.5020175 -36.731327 -29.98904
15.752302 -43.858799 -39.601624
7.7047796 -47.898495 -29.379229
3.5473647 -35.171162 -29.984161
5.5342498 -38.001423 -30.002979
6.7326775 -41.263386 -29.380537
6.1838675 -28.125504 -29.929602
14.184422 -46.980579 -29.37051
9.8131418 -43.721619 -29.376392
5.3133345 -48.259773 -29.38245
19.671303 -33.200241 -29.996498
13.873377 -36.314827 -29.978001
14.949336 -36.787575 -29.978001
15.568367 -31.287495 -29.978001
4.9923205 -40.233288 -29.382879
10.9887 -43.693695 -39.397507
17.542824 -30.702322 -29.996502
14.597342 -29.849653 -29.978001
14.902067 -38.063896 -29.549294
17.195171 -42.896301 -39.468498
18.384186 -42.285404 -29.364857
20.924896 -47.788254 -29.361439
16.678202 -43.778206 -29.367153
10.9887 -47.286793 -35.827049
20.209202 -39.186958 -32.6828
17.71031 -38.0639 -31.509811
18.865604 -40.650867 -36.0756
2.7020903 -45.138794 -29.385963
20.014156 -37.878487 -29.978001
15.60916 -34.187733 -29.999809
19.068813 -48.334839 -29.363937
10.696213 -44.103733 -40.711945
20.676498 -42.601265 -39.468498
20.164597 -38.374115 -29.481178
4.7384501 -37.015755 -30.000675
10.726091 -38.091499 -30.50457
20.957331 -45.790401 -45.274841
3.10359 -35.608379 -29.990314
17.310335 -43.858799 -42.53405
7.5558081 -43.660172 -29.379433
21.01318 -33.351627 -29.9965
8.7519493 -38.314262 -29.574957
10.988701 -44.700386 -37.203629
5.9620218 -37.321362 -30.000246
16.960754 -41.9272 -36.445301
12.22216 -45.790401 -44.038017
10.9887 -42.388729 -39.058926
14.565826 -26.411495 -29.978001
17.456585 -47.212772 -29.366106
10.9887 -43.069736 -30.752388
18.786425 -46.12875 -46.438705
11.637112 -32.66333 -29.978001
11.16946 -39.703884 -32.6828
12.467373 -47.175049 -29.37282
18.492434 -46.005791 -29.364712
11.508332 -39.995602 -35.869755
18.223577 -39.995602 -33.782234
12.060424 -41.9272 -38.309608
19.167202 -47.565044 -46.254002
7.0337377 -25.727232 -29.929598
19.961769 -43.002922 -29.362736
14.549935 -43.858799 -41.981945
18.610165 -39.625801 -29.364555
21.06525 -39.304695 -32.6828
6.7193856 -28.651972 -29.9296
11.338985 -38.072674 -32.769241
15.526892 -45.611572 -29.368704
10.504017 -25.263361 -29.978003
17.559622 -42.045822 -39.780602
10.9887 -42.517834 -34.918453
4.5450163 -38.132103 -29.82753
13.577185 -30.684925 -29.978001
18.532833 -29.002703 -29.9965
19.787392 -42.404751 -29.36297
9.491643 -23.881433 -29.978001
15.757433 -31.01054 -30.155554
14.621394 -39.995602 -33.592693
14.854609 -41.9272 -36.218975
9.7524166 -46.516903 -29.376474
16.836535 -33.204632 -29.9965
21.066956 -42.018028 -39.780636
19.492453 -39.995602 -34.262657
19.483667 -38.0639 -31.544098
21.136477 -39.172935 -29.361153
15.889935 -38.0639 -31.176105
3.5592194 -37.712666 -30.01194
8.8772516 -36.121246 -29.978123
20.519791 -45.695412 -29.361984
20.627369 -40.863022 -29.361839
16.287216 -41.358353 -29.36768
19.005997 -39.995602 -33.713104
9.6082201 -37.843544 -29.994717
18.972839 -41.9272 -36.388691
10.794337 -46.081722 -42.879848
18.763262 -46.833534 -29.364349
17.929493 -37.280003 -29.978001
21.382004 -39.938454 -32.6828
9.5244846 -37.907181 -29.995672
12.93109 -38.173096 -29.754396
12.740416 -37.867142 -29.985315
12.215587 -46.609993 -46.254002
12.523969 -45.790401 -44.043823
17.364254 -39.995602 -35.303181
20.40394 -41.920277 -29.362139
10.559862 -43.16748 -29.375385
19.903976 -35.312614 -29.9965
15.384262 -41.990486 -29.368895
6.3976212 -39.74522 -29.380987
13.894903 -41.834793 -36.0756
9.1384888 -25.450302 -29.978001
19.002644 -32.302383 -29.996502
2.5309925 -46.087814 -29.386192
18.648819 -40.304085 -36.274689
13.438402 -38.674911 -32.6828
11.534751 -38.08049 -32.846252
13.211823 -36.684807 -29.978001
10.9887 -38.963543 -29.407335
15.444443 -38.078484 -32.826454
10.9887 -39.272038 -29.547222
19.182121 -38.640968 -32.6828
6.2646413 -29.789171 -29.929602
10.9887 -46.562016 -30.711205
19.124187 -42.874847 -29.363863
12.817453 -43.859955 -42.872604
12.645164 -38.0639 -30.165979
6.5660896 -41.43927 -29.38076
10.9887 -38.479195 -32.613247
10.9887 -44.615875 -38.93922
10.9887 -47.198257 -35.796959
3.3819666 -35.09589 -29.983847
14.437983 -45.814102 -46.487503
21.479074 -43.860874 -42.881645
10.237649 -45.433235 -29.37582
4.882534 -42.792206 -29.383028
18.325832 -38.0639 -29.416143
20.351448 -32.426949 -29.9965
10.756369 -41.956905 -39.070675
10.9887 -42.301624 -36.358852
12.830377 -45.790401 -43.137337
19.384768 -43.858803 -41.104782
18.749842 -33.257454 -29.9965
7.6553297 -41.624657 -29.379295
5.8922157 -38.917824 -29.38167
21.030025 -39.995605 -34.47401
19.807705 -35.615978 -29.996502
10.9887 -41.435783 -32.001862
10.9887 -42.598625 -38.834385
6.9872046 -45.177948 -29.380196
17.635845 -37.543762 -29.978001
13.274591 -45.790405 -44.675827
7.4285841 -43.58107 -29.379604
9.3735733 -39.117523 -29.376984
10.9887 -41.069939 -33.411705
10.9887 -45.435062 -42.358852
10.9887 -47.400444 -29.407772
6.8216033 -38.970772 -29.380419
20.071684 -41.9272 -38.236477
14.578144 -42.57925 -39.468498
12.546502 -47.743164 -29.372713
11.357033 -41.9272 -36.438316
15.781709 -46.08419 -46.566299
10.988699 -45.616558 -32.810234
10.712582 -46.370522 -29.375183
10.9887 -42.954853 -35.125656
4.0628767 -32.119846 -29.978001
19.287516 -41.955513 -39.747341
14.937211 -32.217018 -29.978001
18.925154 -40.647362 -36.0756
8.8097782 -46.682648 -29.377743
14.566278 -41.9272 -38.228863
17.00359 -40.30278 -36.287498
16.483585 -46.105972 -46.566299
18.962254 -27.674099 -29.996502
14.424865 -42.227531 -39.748528
17.14119 -28.83316 -29.996498
16.953173 -39.699516 -29.366783
21.287127 -41.9272 -38.315979
20.931778 -39.995605 -35.020271
15.713674 -38.0639 -31.531567
16.150776 -47.752563 -29.367863
9.0096703 -46.084751 -29.377472
1.182476 -45.507542 -29.388006
5.5941978 -41.239628 -29.382071
20.978992 -32.900425 -29.996502
14.758667 -38.0639 -32.524345
12.204687 -41.784103 -29.373175
14.058462 -38.092293 -32.962528
5.1181068 -42.273926 -29.38271
12.16563 -38.0639 -30.055744
10.988701 -47.490524 -39.858334
13.819302 -38.072845 -32.770912
16.356697 -35.232445 -30.205099
14.083372 -39.995602 -34.773979
10.9887 -45.905106 -40.815331
3.4743314 -37.989765 -30.015234
20.734871 -41.9272 -38.573181
17.309072 -47.006577 -46.253998
21.475224 -41.9272 -37.633812
13.566409 -41.927197 -39.412075
8.7201748 -31.492582 -29.977999
10.9887 -40.761353 -34.406006
16.472292 -33.289745 -30.205099
11.999159 -39.995605 -35.658722
12.736925 -33.029804 -29.978001
3.9952538 -33.337627 -29.978001
2.2563839 -39.376106 -29.38656
10.9887 -38.591125 -30.031771
15.550716 -42.841713 -29.368671
10.988699 -41.157753 -29.722719
14.456985 -43.858799 -42.23407
10.981975 -45.791061 -45.618229
18.5219 -37.054569 -30.181906
10.9887 -45.245728 -35.753841
10.988699 -44.63414 -30.50503
19.77989 -47.448723 -46.254002
20.515511 -46.115883 -46.565468
3.7309728 -39.418163 -29.384579
5.3206306 -28.241226 -29.9296
17.677233 -37.167431 -30.063366
15.129559 -42.60675 -29.369238
19.367008 -33.584999 -29.9965
10.904577 -40.003841 -34.430447
10.406405 -31.686308 -29.978001
11.464277 -41.340134 -36.0756
13.525028 -41.9272 -37.78896
4.3183708 -39.526829 -29.383789
15.034569 -38.446945 -32.6828
13.122362 -39.995605 -35.722363
17.114223 -39.973797 -32.6828
11.05365 -46.115223 -46.566299
10.9887 -47.122513 -31.105492
20.786554 -43.746521 -29.361626
19.713596 -29.781601 -29.9965
14.112127 -42.126213 -39.78051
20.412006 -45.790401 -45.033699
5.3423977 -47.067009 -29.38241
9.2173309 -46.844913 -29.377193
10.9887 -45.890869 -29.91683
6.827632 -43.974205 -29.380409
8.4150572 -28.720709 -29.978001
10.9887 -40.221252 -31.761761
11.138904 -46.231689 -46.254002
13.077949 -31.591869 -29.978001
20.637899 -35.025246 -29.9965
5.4757128 -32.408024 -29.978001
10.917189 -40.245243 -36.387817
10.413088 -38.962971 -29.375586
10.673579 -40.232239 -33.04557
14.691058 -45.790398 -46.059479
16.509813 -28.926718 -30.205101
10.9887 -46.198021 -38.635757
18.004623 -43.858795 -42.031872
19.59972 -45.790401 -45.390823
5.5876093 -24.044275 -30.184399
4.6484632 -37.784813 -30.009369
18.412146 -38.0639 -32.25103
8.9883442 -46.495201 -29.377501
12.87265 -30.694954 -29.978001
19.226551 -45.790398 -43.484669
15.849505 -39.995602 -34.19976
12.550029 -39.995602 -35.338299
14.504076 -48.453247 -29.370079
7.6402245 -36.164291 -29.982409
6.320715 -42.379311 -29.381092
18.885027 -39.995602 -35.338715
15.851235 -38.0639 -32.320004
10.895189 -24.404015 -29.978001
18.567614 -39.995602 -34.184155
17.716589 -46.120693 -46.518074
10.9887 -46.432762 -34.956039
16.349819 -28.247314 -30.205099
17.243774 -45.790398 -45.697697
18.85026 -44.689339 -42.861198
12.006488 -41.9272 -37.650238
15.082398 -26.596714 -29.978001
11.8477 -42.241859 -39.607082
7.7280278 -29.557531 -30.184399
11.001007 -41.326195 -36.0756
13.44888 -36.748352 -29.978001
4.7610178 -30.045685 -29.9296
13.535028 -39.995602 -33.548862
7.8613834 -43.476959 -29.379019
17.701542 -35.365997 -29.996498
12.491262 -41.952301 -39.715714
10.775632 -45.815319 -45.216137
12.121248 -43.858803 -39.504581
5.7152586 -48.358765 -29.381905
19.542305 -31.534195 -29.996502
11.058319 -47.251751 -46.253998
6.0664291 -25.288303 -29.9296
10.9887 -41.344505 -31.034363
15.043179 -35.251816 -29.978001
15.340553 -41.9272 -39.226395
11.836845 -39.995602 -35.06509
10.9887 -42.791622 -37.410698
17.224573 -40.44207 -36.0756
13.942777 -40.185173 -36.38784
11.753827 -28.253456 -29.978001
10.673945 -42.109608 -36.456551
14.462173 -47.410084 -29.370136
14.455784 -39.995605 -34.919743
18.502777 -40.158081 -36.387848
17.728268 -41.9272 -36.853561
6.057559 -43.199497 -29.381447
13.697635 -43.862514 -42.897831
14.676507 -47.290359 -29.369846
21.002319 -38.0639 -30.433283
20.493595 -39.995602 -35.26339
15.385893 -43.343376 -29.368893
4.3602304 -43.582005 -29.38373
10.095383 -48.038956 -29.376015
14.006538 -41.9272 -39.398407
16.010559 -42.255604 -39.471439
10.9887 -46.462036 -45.594139
10.9887 -45.517807 -33.105644
16.099972 -41.9272 -39.322803
8.326437 -46.107597 -29.378391
10.9887 -47.637863 -33.018841
3.5756683 -41.380589 -29.384787
20.284498 -44.75795 -42.861198
15.64031 -38.429184 -29.407883
2.1398668 -41.73941 -29.386719
4.2656827 -32.773087 -29.978001
14.151869 -43.858803 -39.505833
2.2682695 -46.390133 -29.386543
20.083841 -41.9272 -38.98893
12.011803 -38.0639 -31.128025
1.4945011 -44.015423 -29.387587
20.45924 -32.165466 -29.9965
18.389656 -47.137764 -46.254002
2.1246071 -43.222363 -29.38674
15.146825 -41.9272 -38.291286
18.909689 -44.186852 -42.867607
7.3238802 -45.48946 -29.379742
13.684034 -39.115799 -29.371181
19.211226 -46.320644 -46.253998
17.620739 -47.750122 -29.365885
18.195124 -43.858799 -39.541233
14.477034 -41.9272 -37.336536
18.816643 -41.533646 -36.0756
4.9755282 -37.841774 -30.008986
6.7354789 -31.431036 -30.184401
9.0416298 -25.886042 -29.978001
19.063108 -38.177177 -32.995159
8.9296875 -23.695078 -29.978001
10.687925 -29.368132 -29.978001
17.961025 -43.940193 -43.173599
12.122766 -33.438736 -29.978001
7.1565084 -24.299128 -30.184401
15.695179 -26.95562 -30.090162
14.905673 -38.0639 -32.123669
14.601019 -32.839283 -29.978001
5.6829205 -34.902557 -29.978001
20.134995 -45.630531 -29.362501
15.969969 -41.9272 -37.463974
6.190773 -34.588921 -29.978001
10.9887 -42.804169 -30.541691
10.988701 -42.986671 -39.297668
7.0498123 -29.474415 -29.9296
19.058832 -45.664551 -29.363951
5.8603115 -44.982994 -29.381714
12.329528 -46.123699 -46.488441
17.157452 -40.128017 -36.387863
20.671738 -42.816162 -29.36178
6.9846115 -42.121407 -29.380199
19.158897 -29.586449 -29.9965
3.0702069 -36.191124 -29.996796
10.903452 -44.091064 -29.374928
1.0782642 -44.020229 -29.388149
14.265279 -46.257999 -46.253998
16.850761 -39.995602 -34.723495
12.300486 -41.69397 -36.0756
13.24715 -38.0639 -30.714123
7.6448379 -37.325832 -29.995106
2.5415869 -41.271469 -29.386179
16.314672 -39.995602 -33.846474
12.760893 -39.995602 -34.810413
10.486458 -33.212662 -29.978001
10.96284 -38.388691 -31.0606
7.6339455 -47.572853 -29.379324
20.866009 -40.506508 -29.361517
16.855013 -40.009762 -36.215103
16.062836 -38.653664 -29.367981
17.801571 -35.587967 -29.9965
19.835995 -43.858795 -40.793938
18.07336 -44.389332 -29.365276
14.169383 -44.66209 -42.861198
14.558346 -28.095337 -29.978001
13.827349 -47.657677 -46.254002
11.232338 -41.9272 -38.210079
20.050749 -28.303608 -29.9965
17.715008 -39.50486 -32.6828
15.888109 -38.0639 -29.568033
10.9887 -47.682037 -38.960571
10.9887 -47.023575 -38.307526
15.596979 -38.258247 -32.995224
5.9667978 -26.315523 -29.9296
20.137772 -38.0639 -30.331846
12.561835 -43.546913 -29.372694
10.9887 -40.638397 -34.890007
10.620627 -29.300684 -29.978001
12.437124 -44.229351 -42.861198
17.493608 -28.170973 -29.9965
21.259289 -45.790401 -43.086048
12.847853 -38.0639 -31.957994
15.846073 -43.583614 -29.368275
4.930582 -41.683128 -29.382963
17.566633 -43.930138 -43.173599
11.985113 -45.823654 -29.37347
10.988701 -44.793617 -31.60372
11.005341 -39.995602 -33.625446
9.159379 -37.9715 -29.997501
15.755596 -32.736042 -30.153624
16.493534 -39.154945 -29.367401
15.679309 -48.331867 -29.368496
18.147446 -36.927158 -30.205076
10.9887 -44.359615 -38.257473
13.966132 -44.966949 -29.370804
10.9887 -46.138557 -39.888844
7.8481793 -41.285702 -29.379036
12.076798 -40.900948 -36.0756
2.7297478 -45.371147 -29.385927
18.710413 -34.18885 -29.996502
7.5732384 -42.425865 -29.379406
11.508698 -45.790401 -43.341125
14.734832 -38.0639 -29.41083
15.13133 -43.858799 -41.390522
14.74136 -43.858799 -39.972168
10.9887 -40.021648 -31.126598
19.265064 -38.36467 -32.959114
16.415649 -45.880001 -46.566299
9.30404 -36.947857 -29.985851
20.422916 -43.87738 -43.044342
13.021616 -39.995602 -33.680752
15.847395 -43.781296 -29.368271
16.897293 -46.737915 -46.254002
15.634752 -45.790401 -44.765564
10.672445 -37.97702 -29.992895
10.9887 -47.421665 -35.367897
8.91535 -44.943047 -29.377602
12.835164 -38.0639 -29.952774
11.865734 -31.214527 -29.978001
16.291716 -44.166279 -43.070972
10.878204 -40.83622 -29.374958
19.526588 -43.858799 -39.605526
8.8691454 -32.652119 -29.978001
10.836452 -46.131176 -45.083519
17.001312 -48.327396 -29.366718
14.612449 -40.38588 -29.369934
10.9887 -44.519455 -30.508085
13.736989 -38.0639 -29.541553
13.879023 -43.869705 -42.968693
14.699618 -41.9272 -37.666718
17.502335 -39.995602 -34.049736
10.9887 -41.911934 -34.553459
10.9887 -45.592445 -37.705841
18.745533 -37.160736 -30.070404
12.932376 -40.022968 -36.345203
17.140024 -39.995602 -35.983501
20.531178 -28.145164 -29.9965
15.51357 -45.790401 -43.065639
19.095369 -44.277176 -29.363901
8.1952877 -28.01301 -29.998842
2.0011244 -44.997116 -29.386906
5.7425251 -41.928474 -29.38187
14.479074 -26.021156 -29.978001
6.2406483 -35.626751 -29.980843
20.542498 -39.995605 -34.687305
5.7348633 -29.862225 -29.9296
11.126389 -43.858799 -39.661484
13.78199 -46.672371 -29.371052
15.506178 -41.747261 -36.0756
21.27355 -29.673676 -29.9965
10.9887 -41.054657 -31.380753
10.41717 -45.251785 -29.37558
21.250004 -43.858799 -41.936935
13.692087 -45.790401 -46.024654
8.6531258 -45.835842 -29.377954
10.796118 -45.809261 -43.405045
9.4098196 -30.673668 -29.978001
10.9887 -42.548214 -33.097218
16.64864 -41.332981 -29.367191
10.9887 -44.057632 -29.693289
19.443563 -45.991859 -46.566299
6.3623247 -33.096336 -29.978001
1.3266544 -46.893448 -29.387814
17.084877 -43.401283 -29.366608
12.731836 -45.965576 -46.566299
14.43565 -34.555527 -29.978001
13.986404 -43.36351 -39.468498
11.195003 -41.938385 -39.578648
7.4169312 -47.74324 -29.37962
5.6953959 -30.549711 -29.9296
19.022806 -42.871689 -29.363998
18.362015 -43.858799 -40.239609
16.283993 -41.9272 -38.354458
21.12672 -41.679314 -29.361168
10.9887 -46.155155 -30.664114
10.9887 -45.321739 -39.528408
10.9887 -43.124615 -32.715012
18.810564 -41.933918 -39.534668
3.8824739 -33.710896 -29.978001
12.267818 -27.795113 -29.978003
20.495436 -39.314198 -29.362019
11.017372 -45.406658 -29.374771
10.9887 -46.890942 -30.1898
10.940182 -45.795155 -44.829926
9.2793226 -25.631996 -29.977999
11.616504 -43.858799 -39.737564
13.434868 -32.984451 -29.978003
21.125051 -47.572861 -46.254002
6.9866276 -44.619919 -29.380196
15.135337 -26.530323 -29.978001
6.6089635 -40.02597 -29.380705
15.103272 -46.069397 -46.566299
11.498729 -46.063263 -29.374125
13.461166 -44.560974 -42.861198
19.253319 -36.571102 -30.205069
6.3082104 -48.518532 -29.381109
17.744041 -41.078041 -29.365719
17.546503 -39.381126 -32.6828
12.896342 -43.858799 -40.458961
17.441433 -38.0639 -30.784203
9.5953846 -25.741919 -29.978001
13.259285 -33.659184 -29.978001
10.988701 -40.897137 -34.256939
16.122282 -27.780426 -30.205097
16.863903 -41.9272 -38.029095
20.346125 -42.237324 -39.651855
20.57848 -39.995602 -34.902245
16.89789 -47.662804 -46.254002
19.24762 -27.931419 -29.9965
8.2321262 -26.992908 -29.978001
15.660576 -31.399399 -30.053814
10.988701 -44.722546 -42.097939
16.637983 -34.585056 -30.075392
4.3261919 -46.71711 -29.383778
10.9887 -44.682632 -30.782993
9.0343885 -36.536457 -29.982182
14.25912 -41.9272 -39.1152
19.525108 -30.150709 -29.996502
10.9887 -40.526852 -32.467823
20.312325 -42.231712 -39.707237
18.543501 -37.125408 -30.107508
10.872051 -32.089314 -29.978001
9.9427891 -46.997604 -29.376217
6.8715982 -44.614822 -29.380352
6.982934 -37.422882 -29.998211
19.65391 -42.506958 -39.468498
14.733977 -44.383644 -42.861198
20.719807 -33.82254 -29.9965
12.971623 -39.995605 -35.535549
11.053827 -39.466911 -29.374723
10.9887 -45.567474 -42.445538
16.095783 -28.322306 -30.205099
7.5075703 -40.968452 -29.379496
9.1043501 -25.309622 -29.978001
10.282062 -46.36964 -29.375763
20.288239 -40.889061 -29.362297
14.172041 -27.840302 -29.978001
15.993121 -33.044403 -30.205101
20.19511 -41.9272 -38.871346
10.9887 -47.685173 -36.653046
11.89209 -41.9272 -38.021915
11.378343 -39.174713 -32.6828
18.358917 -45.790401 -45.635918
18.436392 -39.995598 -33.281345
16.061928 -36.944668 -30.205097
19.728863 -40.29512 -36.36298
18.059116 -47.358959 -46.253998
