# .PCD v0.7 - Point Cloud Data file format
VERSION 0.7
FIELDS x y z
SIZE 4 4 4
TYPE F F F
COUNT 1 1 1
WIDTH 1562
HEIGHT 1
VIEWPOINT 0 0 0 1 0 0 0
POINTS 1562
DATA ascii
0.53977728 35.834068 15.660288
11.399507 40.395672 8.1297874
13.68749 38.88065 10.659552
16.939919 27.725636 29.286842
11.66949 31.42115 23.115963
3.9624963 29.614975 26.113102
16.264935 38.726589 10.91666
10.321913 38.335915 11.569405
15.735178 31.005749 23.809578
0.53208137 25.593206 32.813709
-1.7738656 31.07456 23.657667
18.157307 34.156002 18.548874
4.9749117 35.026318 17.085142
-5.2092381 31.879992 20.055307
7.0974402 37.865406 12.353966
-5.3746586 31.231695 22.330626
12.598754 38.980412 10.493036
5.8072333 32.890511 20.652565
8.5241289 29.241726 26.751492
13.658031 33.609772 19.4613
20.642387 27.220509 30.13018
18.290817 35.484852 16.329849
7.7253227 30.391319 24.830145
3.063154 32.662697 21.023487
5.6794667 27.651527 29.395857
17.590296 31.372652 23.196774
17.044559 36.485046 14.659721
10.913461 29.912699 25.634819
14.494494 31.615189 22.79195
15.537367 38.14418 11.889257
6.3222103 29.071039 27.028906
7.6072025 27.234852 30.097807
15.503649 29.683182 26.018078
-3.8245411 27.618206 29.419285
8.071312 33.162922 20.205584
-3.4737225 33.466099 18.00868
14.995535 37.302624 13.294589
-2.3350034 33.751209 18.47625
2.0480385 30.744999 24.220642
11.361088 38.280312 11.662188
7.5187368 27.353867 29.898872
17.301012 36.704567 14.293132
18.214781 33.296169 19.984692
-4.2833028 29.629272 26.061312
17.855083 27.861044 29.060726
9.4613094 32.810303 20.796316
18.516783 28.380981 28.192459
19.81963 32.64481 21.072281
-5.0491438 31.718807 21.357914
11.586646 31.519688 22.95142
8.8136845 31.523468 22.944302
5.1268754 31.000219 23.805105
9.0085144 30.983471 23.846205
-2.8986931 32.718796 20.722778
-1.2998278 35.064171 15.991328
-3.0380981 29.364006 26.508251
9.7963657 29.273941 26.701435
15.111316 38.451077 11.376804
17.097038 36.74786 14.220842
0.98859715 33.883095 18.979649
15.541227 39.547989 9.5450649
3.2816815 35.143059 16.884571
12.557753 40.038986 8.7253418
2.787941 27.879755 29.005161
6.7162738 29.554361 26.223591
17.109171 34.892162 17.319647
10.819641 34.171124 18.523972
3.3544209 28.582973 27.833422
-4.5884528 32.032135 20.950331
14.024292 36.267944 15.022444
0.80262297 32.443817 21.381134
18.952694 29.258865 26.726461
20.144266 31.403141 23.145704
13.651134 37.292957 13.310814
15.00485 38.241993 11.725956
10.413422 36.166367 15.192263
9.0016317 36.921783 13.930841
-2.0450659 27.508564 29.608297
16.026728 38.123398 11.923931
-6.9081459 29.056873 26.706131
5.5816007 30.113163 25.287125
4.5630569 26.643967 31.073666
-1.4433787 30.24629 25.041149
14.707303 31.421108 23.11603
11.025673 27.921761 28.959349
-1.2897325 31.384882 23.14139
11.738334 30.452726 24.733063
17.369349 36.867134 14.021658
9.6113281 34.150311 18.558727
14.103476 27.64123 29.427786
8.3879032 34.967331 17.194448
18.211201 28.158758 28.563564
12.063806 39.063244 10.35475
-3.5908182 31.975084 22.060566
12.497658 28.504652 27.986019
20.091251 29.794247 25.832371
4.2929235 29.159378 26.874599
11.058104 39.059361 10.361291
7.6898122 30.653168 24.393005
16.10817 33.162785 20.20756
9.4499826 26.295696 31.671471
14.068516 32.918907 20.614935
7.6340332 35.012615 17.117016
5.6866798 32.99675 20.474848
-0.55859756 31.252762 23.364365
-3.304101 32.393791 21.204086
9.1571817 27.612015 29.473579
-1.2998995 29.777044 25.824791
-3.6934037 28.222115 28.411823
0.41055822 36.036598 14.977138
3.735462 32.632294 21.076504
12.628792 36.668369 14.353862
6.7719264 28.840628 27.414978
7.7474632 25.932243 32.272305
11.71229 29.617048 26.128502
18.009941 35.276814 16.677261
13.283817 34.080109 18.675917
-3.9394124 30.261145 25.007904
-0.65953875 27.756805 29.198687
19.219427 32.885548 20.670319
9.5246048 26.618896 31.132313
-3.8001337 27.057867 30.354557
5.3300219 35.35936 16.5305
-2.0668128 27.809235 29.106419
-2.5842679 30.646955 24.368582
-0.92367387 33.198372 20.115955
15.063393 30.208214 25.141363
11.263735 30.437435 24.758598
18.640465 36.470997 14.683075
4.2360435 29.022755 27.102425
20.509205 29.038185 27.094881
-1.5736673 30.117542 25.255577
16.972237 27.455294 29.738266
-4.2878532 27.326271 29.904945
10.278116 30.578026 24.523838
4.290338 25.794136 32.491085
9.596159 35.260914 16.70421
-2.1847446 29.64097 26.048901
7.8177261 28.516357 27.959721
15.924407 26.432137 31.446768
13.973934 28.341913 28.257761
5.5507288 26.810675 30.798786
4.7031684 29.843941 25.733471
8.201313 28.743961 27.581154
17.604053 38.300232 11.628544
5.5621719 37.803574 12.451956
-3.5578475 32.622635 20.32407
6.9385972 26.291702 31.669632
12.290988 32.689774 20.997578
-6.1162486 28.712532 27.585119
3.1438856 32.937214 20.565601
2.1839237 28.831823 27.414135
14.158108 35.622524 16.10021
-1.7698359 30.43696 24.721819
7.469243 33.16745 20.195986
9.5518532 32.920185 20.612825
4.4131503 35.02161 17.091095
-2.0419803 31.202253 23.443642
16.674416 29.902069 25.652534
9.5731096 33.432663 19.757082
18.335823 28.07896 28.696806
5.3830762 26.094311 31.993809
8.6922169 32.473991 21.3575
9.7715569 38.753716 10.871759
15.50861 27.741211 29.260834
9.4802904 37.499912 12.965467
9.7592363 29.004711 27.151003
1.7025864 26.834232 30.746435
13.563433 34.572117 17.854305
15.953876 38.856255 10.700151
17.737162 28.613251 27.804642
17.457779 35.275009 16.680311
-4.1212716 28.547733 27.866924
-1.2092171 26.772375 30.839811
14.231625 36.509888 14.618404
19.783409 32.854137 20.722738
3.8334656 28.186993 28.495922
20.756748 29.702042 25.986298
16.858501 30.969349 23.870289
4.8314276 26.82415 30.773857
8.7788467 29.120256 26.955088
0.82273841 28.105021 28.62254
19.127428 33.950447 18.892075
2.4982092 32.990749 20.474064
10.745205 31.408728 23.136707
-4.4372282 27.533325 29.558876
6.8673115 31.242455 23.406721
11.328691 33.843925 19.070343
12.159723 37.994999 12.138581
2.4664314 31.339203 23.230345
12.795927 37.430355 13.081432
11.728338 35.442493 16.400986
20.672823 28.736929 27.597931
5.5922956 25.941307 32.249878
5.0250092 33.240688 20.065479
13.123655 27.322777 29.959549
8.9170036 35.81052 15.786467
15.104683 28.914528 27.301594
19.023012 33.782223 19.172995
8.1427526 31.927326 22.268003
6.7826185 33.973442 18.848482
6.4614186 30.613018 24.455856
8.2989473 31.274349 23.358332
3.0421729 34.483521 17.984507
3.683593 29.731485 25.917702
18.747446 32.320004 21.614742
12.148254 27.617027 29.468201
20.350624 31.291672 23.331829
10.158167 39.953865 8.8676281
10.903937 32.38142 21.512474
11.025869 37.92387 12.257429
12.250687 35.448814 16.3904
12.505126 36.238098 15.072377
11.79842 33.945381 18.900925
-0.45856142 32.25946 21.684549
21.407139 26.953613 30.575811
17.056232 35.750648 15.886076
1.3474376 32.086487 21.979361
-3.2657318 29.128378 26.900742
16.255596 33.410896 19.793236
19.984261 26.846802 30.754269
-3.2781668 29.960083 25.512604
-1.1981802 33.128513 20.231623
6.0841761 28.781996 27.510506
18.832142 30.938509 23.921665
6.0400887 28.887381 27.334469
6.7555118 29.547314 26.235485
10.943098 32.596863 21.152718
-5.4960341 28.356441 28.181526
1.8701172 35.212833 16.763332
3.102339 28.637127 27.742195
1.2141461 30.746675 24.215017
-0.45315576 34.034214 18.722553
4.4986916 34.5462 17.884834
13.082532 33.251007 20.06041
9.7056751 36.452904 14.713783
3.3953567 37.448925 13.036519
-6.5428424 29.359348 26.246145
12.177902 37.653381 12.709044
9.4034071 34.539841 17.908281
20.857807 28.724747 27.618259
5.7948499 35.525394 16.254967
-2.1612294 26.562321 31.187162
18.350666 27.813942 29.139351
-4.0595536 28.125727 28.571451
2.7814724 25.860474 32.375267
12.414729 30.827335 24.107533
2.8877575 35.644936 16.045614
7.3808393 36.335709 14.907949
11.026644 33.764824 19.202423
0.64001489 31.844696 22.380499
19.286112 31.524817 22.942572
8.447237 28.410297 28.138865
14.32331 35.343914 16.565443
11.823236 36.631462 14.415546
12.478325 37.259781 13.366288
7.3884444 29.585667 26.173616
7.8930969 39.238274 10.062699
2.5084693 32.877682 20.662804
-5.0103254 31.80986 21.156969
16.339899 28.741032 27.591305
-1.2009604 29.421337 26.418793
-5.4639082 31.647226 20.243809
9.2336054 37.736958 12.569639
4.3006792 27.662468 29.372932
5.3467374 27.296404 29.987423
13.847754 34.582985 17.836136
-2.8585231 29.629318 26.066061
4.2338152 28.506704 27.963697
5.9722166 34.134953 18.57618
4.1943617 35.497742 16.2957
4.4840751 31.364346 23.195217
4.9795027 30.948065 23.891651
3.2136533 36.305363 14.944481
-2.2044482 31.330648 23.228802
6.1752596 27.155979 30.224594
7.9551907 39.160259 10.192968
21.086514 27.342089 29.927126
10.658986 33.582691 19.506556
4.0360794 34.099232 18.62924
7.8212252 34.382484 18.169321
17.736145 29.552456 26.236282
9.0715714 34.427822 18.095331
-5.408349 28.063152 28.671318
14.786476 36.409344 14.786271
-1.1018398 32.538952 21.215904
19.021297 31.184296 23.511221
-4.1071186 28.058937 28.682758
19.904959 26.647533 31.087019
4.559557 36.919441 13.924156
11.865978 36.54361 14.562251
1.1636088 27.201447 30.131739
16.592457 26.433662 31.444214
10.700705 32.045742 22.073
-4.0011206 27.57391 29.492617
-4.520102 29.239111 26.711681
2.1747642 30.415112 24.771639
-0.75853014 34.940418 16.799459
18.036377 30.432587 24.766548
5.9766397 30.996696 23.813866
2.9010143 33.221783 20.089838
-3.4219964 33.513214 16.95553
8.3274136 32.290764 21.66206
-3.643415 26.879335 30.653051
16.422781 37.53566 12.905359
13.962417 30.91828 23.955669
7.7659941 32.53228 21.25708
-2.1349032 27.001057 30.455008
12.34008 29.993446 25.499983
8.9416523 32.01223 22.128956
10.181953 25.698736 32.670265
19.161232 27.197384 30.168882
17.910732 35.172348 16.851715
18.055744 32.867966 20.699749
19.951775 33.416946 19.782904
7.5201998 29.680481 26.015818
14.596318 29.721972 25.953302
8.199029 30.358208 24.887009
5.5412621 30.618868 24.442978
2.0797138 36.390686 14.798242
10.816828 25.856155 32.408554
17.535297 29.066849 27.047195
-4.48629 32.540726 19.354561
17.015203 37.388393 13.151237
14.202771 29.713831 25.966896
1.4193814 26.518158 31.272991
8.5282125 30.805902 24.140938
-4.5671692 28.199486 28.446632
2.72767 25.113308 33.622086
2.525696 36.703529 14.277623
9.9627771 36.320572 14.934759
-4.1381307 28.271851 28.327309
0.97601533 34.323223 18.245047
18.14085 35.871754 15.683777
12.459184 29.656254 26.063042
11.993187 26.200041 31.834326
7.6910238 37.030895 13.748642
2.9148731 26.165867 31.866024
2.7144752 34.93819 17.224571
9.2433548 27.36129 29.892326
12.60699 38.982101 10.490214
3.8612559 35.290791 16.639973
18.831406 31.159981 23.55184
18.5965 35.731876 15.91733
14.363243 35.765301 15.861779
16.651314 35.582451 16.166973
6.7131553 31.703423 22.636854
12.569532 29.934177 25.598955
2.3957376 29.988119 25.485029
-0.82524514 30.796587 24.124813
4.4038343 35.840137 15.724968
0.55676746 29.73992 25.89304
7.6954064 30.142469 25.245369
9.556078 34.120998 18.607672
-3.1535046 28.363657 28.17742
-3.872262 29.102081 26.942575
19.092335 36.100246 15.302158
8.6817713 35.713326 15.948757
13.105496 26.86459 30.724644
15.828659 33.238739 20.080746
2.3706675 30.124529 25.257275
13.200504 32.218231 21.784969
4.4336076 27.606359 29.467024
16.724613 28.582401 27.856188
12.444233 40.025574 8.7477484
13.196402 30.577093 24.525396
14.663837 29.447094 26.4123
1.4215524 25.160976 33.538101
13.120914 29.046015 27.082031
3.3528314 33.888885 18.977989
17.605085 34.712006 17.620449
14.654568 37.007084 13.788127
16.076454 32.208958 21.800343
-4.6496453 31.846788 21.374846
-4.3005443 28.26325 28.341114
14.21491 27.266125 30.054142
-5.3135705 31.031864 22.909252
4.3668685 36.343975 14.883945
-5.1755729 30.995966 23.145842
11.808829 28.360195 28.227234
19.536167 31.58889 22.835564
16.307796 37.539215 12.899426
19.810806 29.956009 25.562267
2.104353 32.674858 20.999941
-2.2167304 30.72471 24.240053
17.305012 37.879688 12.330819
10.104267 32.290707 21.663952
17.153896 29.113995 26.968498
1.6362661 28.384422 28.158981
8.4211254 32.541721 21.243536
2.0482714 27.041134 30.402294
15.788835 29.922806 25.617945
19.207798 35.132252 16.918591
0.17324281 26.692444 30.977898
19.079166 31.43222 23.097214
11.800646 32.852577 20.725727
10.626625 38.953304 10.538422
-3.9588943 28.885391 27.30393
13.958505 28.448566 28.07967
1.2352307 35.263012 16.677441
8.1303005 29.547642 26.239594
5.9922652 30.54273 24.571575
0.19547915 27.917313 28.933697
16.362703 36.713612 14.27808
15.992773 33.86417 19.036335
17.703533 32.055618 22.056299
-1.54395 33.487564 19.631205
9.7005138 34.867699 17.360813
1.4940727 30.069263 25.34655
10.212848 27.97529 28.869961
-1.6507466 29.772263 25.831579
8.0257139 37.457184 13.036814
-1.295671 27.901964 28.954262
13.330091 40.083652 8.6506968
7.6591082 36.406754 14.790319
6.6419473 28.06699 28.705719
12.918943 29.150049 26.908314
-4.8144927 31.834974 21.262211
8.1963377 38.063328 12.02466
-3.9327281 30.85508 24.016665
9.0686665 28.576838 27.863018
1.3706993 33.773788 19.163376
8.6580629 34.44006 18.074902
-1.43478 30.523001 24.57935
18.88521 34.846512 17.395763
-0.3282215 33.055794 20.355936
1.6208527 25.662796 32.701256
19.489546 27.257681 30.068174
11.307778 27.21962 30.131804
7.269537 27.12694 30.276764
3.5124547 31.678543 22.66754
15.603265 29.690022 26.006649
3.3540082 25.522812 32.94075
14.178917 34.499859 17.974926
8.3572836 31.396818 23.154135
17.888472 35.157768 16.87606
5.9156079 26.431374 31.43306
13.350663 31.845501 22.40737
15.122543 39.583965 9.4850063
8.2133961 31.502804 22.976765
9.9593115 33.541973 19.574551
9.4863367 30.321854 24.951599
16.377239 28.074024 28.705093
15.612466 34.814743 17.449018
19.657389 28.852146 27.405598
4.8865132 32.20483 21.793827
-0.73869157 31.116119 23.591806
18.182478 38.006184 12.11953
10.399584 27.99316 28.840126
9.9790859 26.776098 30.871485
-1.0663716 31.551754 22.863638
18.952835 30.512512 24.633022
-0.18371725 26.248554 31.717525
-5.0108628 30.544033 24.532137
8.4414902 27.643562 29.418503
9.9329414 34.323486 18.269556
14.532455 27.77726 29.200638
7.6460443 37.411869 13.112484
13.511154 39.558308 9.5279589
-5.8710537 30.866734 22.840263
17.291512 38.394527 11.471096
3.0080433 28.312189 28.284184
-4.7192144 31.217794 22.997625
0.67482185 33.404572 19.777233
-6.2905545 30.699293 22.907665
7.9954081 28.68364 27.681131
-5.5571842 29.285469 26.630796
9.9420605 39.220821 10.091743
5.6419778 30.356312 24.881521
-4.2739639 32.734806 19.320295
-2.5665195 31.570847 22.826694
13.998611 31.735773 22.590595
20.187195 30.937773 23.922812
17.294542 27.628338 29.449312
19.834641 33.2155 20.119301
10.542032 34.193371 18.486822
15.371282 28.348341 28.24703
2.4263501 27.124296 30.264774
19.174847 33.888622 18.995306
2.1693869 35.753536 15.861928
9.8991022 28.090137 28.678118
10.727036 31.440117 23.084288
20.279541 29.097939 26.995113
6.6737251 32.541531 21.237938
13.352121 38.934422 10.569786
-0.080131769 26.429516 31.415855
9.5531588 36.787601 14.154896
2.0558305 35.133163 16.896929
16.024265 34.433353 18.085865
13.083751 26.769894 30.882769
8.9024076 38.628529 11.080866
-0.99395442 35.187889 15.937977
12.779456 28.949955 27.242432
-2.9379487 32.60635 20.990677
1.8676237 31.193787 23.471012
4.5726585 25.625523 32.773457
5.5527511 31.798237 22.474676
4.9112306 29.242025 26.738758
7.7720604 39.227505 10.080679
3.8160405 35.291817 16.6381
12.901416 40.323692 8.249896
-6.1138554 29.758831 25.58498
14.908618 35.729557 15.921428
-3.267205 33.520699 18.261185
-3.9812219 31.964453 21.697823
2.6891818 25.670227 32.692467
7.858963 30.559055 24.550652
9.6862335 34.440735 18.073765
14.472687 34.087704 18.663155
12.097378 34.418198 18.111401
2.0879452 27.15646 30.209949
11.881743 40.213715 8.4336023
16.257654 32.000908 22.147743
5.8868432 28.014668 28.790485
12.164481 40.062027 8.6868858
14.625954 28.485878 28.017368
3.9234171 34.108227 18.61385
16.587246 37.456394 13.037715
14.060957 33.311966 19.958574
17.933321 28.450949 28.075655
7.5245447 33.59647 19.480156
14.285138 28.202288 28.490913
-3.5511498 32.851227 19.73991
-2.6096785 30.73543 24.220835
8.385006 33.245083 20.069515
0.59165215 29.132854 26.906332
2.4263704 33.672764 19.335556
16.313643 38.452103 11.375013
9.341362 27.084084 30.355307
10.031837 32.123585 21.94302
15.379906 36.697445 14.305143
13.395498 32.79771 20.817339
17.120405 32.429901 21.431322
12.897042 30.60873 24.472569
3.8737333 33.984703 18.819836
-2.383285 28.586037 27.808884
19.29513 29.681068 26.021421
12.960951 37.70874 12.616545
3.1054549 30.605251 24.457455
16.077126 26.802685 30.828012
1.9761093 35.579422 16.151867
5.5194321 34.388165 18.152044
-4.184989 29.639734 26.044186
18.131807 26.752129 30.912432
14.632021 39.333469 9.9033394
16.88275 37.933212 12.241467
3.3613791 33.57523 19.501499
6.742856 36.691509 14.311971
11.614466 26.344402 31.593267
13.03035 30.148472 25.241116
-4.9370604 32.128796 20.12355
2.4078238 34.13747 18.559906
9.2377806 30.224102 25.114349
18.182201 35.670818 16.019314
13.001875 35.556263 16.210934
17.345968 33.064732 20.371222
12.164608 25.950405 32.251175
15.258074 30.433922 24.764467
3.4316387 27.187326 30.162983
12.020605 37.271954 13.345995
12.112936 37.611286 12.779339
9.0564461 33.199284 20.146782
6.8986597 36.991959 13.811052
-1.4312459 35.016876 15.99914
0.11276293 25.414482 33.110573
9.4817009 37.265907 13.356216
2.6638765 37.30582 13.272881
10.66926 39.771957 9.1713657
2.0174592 34.294888 18.295862
5.2299547 34.085693 18.655876
14.884152 30.538643 24.5896
7.0583973 33.684181 19.332193
5.5145617 28.318081 28.282841
14.662845 39.037975 10.396779
13.031781 28.920179 27.292156
20.398067 31.873003 22.361074
18.282001 28.526184 27.949999
15.970608 37.288467 13.318172
10.693904 35.852901 15.715696
1.826422 29.309504 26.615685
15.944317 36.66243 14.363577
9.8198681 32.368935 21.533325
6.2941084 37.381371 13.159089
0.059017897 26.307968 31.61919
19.25095 34.380848 18.173344
-1.378738 31.046244 23.706266
-4.5130448 32.516083 18.155804
0.24795806 30.778271 24.159014
8.6037579 34.554565 17.883696
3.1675735 30.05154 25.381784
1.7359205 32.555893 21.197243
19.878891 32.078342 22.018215
4.2067609 33.998325 18.798231
16.293295 29.831524 25.770359
0.23909521 26.260715 31.698666
-4.9853687 27.788269 29.131521
2.2108769 28.962893 27.195478
13.897898 27.591402 29.51099
19.538746 30.45178 24.734404
12.223127 27.701077 29.327852
-2.822892 31.705856 22.600494
12.479025 39.421227 9.7569313
2.4169772 27.747284 29.224993
10.089624 28.994648 27.167809
-4.5911527 31.37093 22.707663
10.897291 37.171379 13.514009
6.0658031 36.257622 15.033817
17.157883 33.847649 19.063862
-4.431994 31.15432 23.45933
13.342844 35.009541 17.123877
-2.4547608 34.397282 16.441135
7.173183 31.032915 23.757473
9.2953377 26.831562 30.776602
7.4204307 25.825008 32.450165
2.0291929 26.850515 30.72036
13.979954 28.609112 27.811588
0.44723511 26.123775 31.927916
3.6180103 31.410511 23.115234
10.159304 32.494637 21.323423
-4.0515876 32.938034 19.0308
5.2591953 29.83107 25.756832
10.188931 37.55302 12.876751
9.8613434 30.717665 24.290665
11.868143 32.551327 21.228764
14.066605 34.753143 17.551985
17.740875 32.58968 21.164474
0.056431532 28.852606 27.372248
19.675377 30.57246 24.532873
-0.65818715 27.852581 29.038841
6.5846434 27.336788 29.924213
6.5960741 25.602858 32.818138
10.173517 35.871864 15.684026
14.764794 31.375301 23.192518
11.585253 32.749958 20.897076
13.476944 33.874676 19.018951
-0.64498162 35.359436 15.798803
-2.806803 31.617205 22.748508
1.8369012 33.138397 20.225407
10.37981 32.363617 21.542202
6.5828276 34.87289 17.346649
4.8113732 31.483885 22.996817
12.505643 31.775963 22.523487
6.1989279 29.143303 26.907883
13.237002 35.735329 15.911896
17.852697 27.815613 29.136593
5.1703911 34.584526 17.823143
0.059271812 27.109331 30.281736
18.922119 30.141212 25.253054
19.055655 28.674046 27.703043
-1.3195089 33.782223 19.140186
15.071935 27.017921 30.468601
-0.50962567 27.100245 30.294971
10.200966 30.826237 24.109367
2.8189712 31.813719 22.439583
0.71204472 28.793039 27.473877
-5.3192654 31.7794 19.935833
18.869806 36.485378 14.659047
2.7582853 30.614143 24.441441
8.2131901 33.494389 19.652853
18.204681 37.400585 13.130804
1.9064763 29.658825 26.032951
1.6196605 30.308168 24.948248
16.356298 28.688148 27.679607
17.596935 37.431019 13.080025
14.932395 32.510128 21.297489
10.240616 35.203747 16.799665
1.9802604 27.287571 29.990763
4.0965962 34.612221 17.773281
12.896623 29.467087 26.378912
5.2006936 29.139977 26.910053
8.9614744 38.122337 11.926117
9.225275 36.033371 15.414341
5.3969865 28.137152 28.584408
1.567187 31.307396 23.280382
14.988375 37.140106 13.565973
10.456627 26.517197 31.304729
-4.1277361 31.554834 22.670166
4.8012104 31.606592 22.791988
4.6789899 35.968651 15.511409
0.14888513 30.702171 24.285681
18.10463 33.07711 20.350502
11.440456 36.262547 15.031612
4.1369281 34.153057 18.539753
8.9145498 39.043007 10.388735
14.624836 37.364159 13.191858
0.85852563 35.193691 16.791853
-5.4733524 31.272499 22.139824
18.703058 36.47953 14.668822
9.8470783 28.461195 28.05858
9.2929897 36.304634 14.96137
14.67215 32.166054 21.872076
10.851648 35.864189 15.696845
7.2711043 36.985428 13.823214
11.0811 33.511745 19.625021
2.9547882 35.835979 15.726995
16.497963 30.803089 24.147947
1.6469251 30.46896 24.679979
-1.0931907 33.46986 19.662277
5.0953093 36.699486 14.29307
3.0872636 35.605503 16.11211
16.418575 35.254997 16.713795
-2.260412 32.080524 21.977089
12.662162 27.645273 29.421034
5.8328848 29.730978 25.925827
16.504776 37.228565 13.418167
13.398476 31.364777 23.210098
10.770772 36.986485 13.822771
-0.15447077 34.136597 18.552689
4.7204652 29.406507 26.463596
8.2311707 32.981266 20.509306
10.182533 37.169575 13.517063
6.4659405 35.165123 16.858532
-6.1561699 28.818848 27.407551
13.792656 36.116543 15.275284
14.981346 36.401127 14.799978
5.8815756 27.871132 29.030027
4.0602865 34.906231 17.282467
-5.452425 31.122953 22.543352
10.015147 31.045479 23.743273
15.464762 36.175182 15.177252
6.7173967 32.857063 20.711473
14.675399 33.259262 20.046537
11.210194 30.225943 25.111755
-4.268847 32.739414 18.889997
2.1689129 33.024223 20.417082
0.048814774 30.443701 24.716724
5.1935754 26.719004 30.950571
18.840307 30.943268 23.913719
10.971815 38.680519 10.993921
19.792057 32.677395 21.017874
19.237669 29.716675 25.961962
-3.5388329 33.375534 18.399509
1.1236184 30.185396 25.15147
15.054082 26.563114 31.228054
19.753704 34.8106 17.455677
6.7690473 30.206818 25.134832
-1.0343007 30.81599 24.091713
5.0086708 25.342239 33.247723
16.281769 32.498322 21.317131
5.9873762 26.775347 30.859221
3.1847637 36.032368 15.400008
16.712395 30.468811 24.706137
-0.032435656 30.289564 24.973703
15.209331 39.021946 10.423512
15.836521 35.219639 16.772875
1.730937 31.973829 22.168678
6.9743667 27.5186 29.622093
8.1979198 27.10648 30.314058
11.993643 36.303238 14.963633
6.7968636 29.347864 26.568501
13.166063 36.123997 15.262867
-5.0694399 30.16958 25.156891
9.7906952 36.046764 15.391973
-2.2305441 33.284054 19.848608
16.28969 27.09285 30.343491
11.863077 38.627399 11.082577
6.9152088 28.910423 27.298979
15.561322 29.260399 26.724049
4.9003334 26.771761 30.861523
5.4733839 28.900967 27.309879
11.625127 30.742943 24.248451
19.250317 35.884972 15.661635
1.9882133 35.490402 16.300476
13.184088 39.418518 9.7614136
-3.7552519 27.601543 29.447325
4.1003928 37.368393 13.173319
4.4232469 26.335165 31.588577
14.322865 28.780811 27.524879
0.15890074 31.032911 23.733719
-3.1840196 33.713974 17.835335
-4.2710581 31.010366 23.75635
14.327785 35.655602 16.044958
1.1087298 35.97834 15.48315
7.2057076 29.154327 26.892897
15.085136 34.297913 18.312096
-1.1509426 35.208076 15.749703
12.417103 36.532227 14.581229
16.663067 33.891323 18.990955
12.088288 28.051981 28.741899
12.613696 31.248716 23.403896
8.3503113 28.734634 27.597227
0.10248774 33.437267 19.720728
15.354977 34.212563 18.454607
3.6330738 36.272366 15.000978
10.612383 39.012978 10.438772
17.950033 30.547352 24.574907
7.4430757 26.055626 32.065346
7.3310018 33.766411 19.195869
2.8673859 28.421436 28.101376
12.464307 34.765472 17.531487
18.650764 36.493462 14.645567
13.612384 30.295971 24.994822
10.14485 29.101549 26.989302
8.3592081 26.966539 30.548164
9.6594915 38.592506 11.14097
5.0864892 27.296677 29.986084
8.7120323 30.418407 24.788275
14.494349 30.01157 25.469725
1.0247555 26.008619 32.122063
-6.6580601 29.676716 25.263235
0.13933182 35.490093 16.198399
14.611738 28.776346 27.532333
11.478189 27.963455 28.889725
16.52202 31.269176 23.369637
11.192081 38.102722 11.958753
9.0734797 34.945389 17.231089
7.0128908 29.309031 26.634043
-4.1239672 27.117033 30.254715
1.6344842 35.001564 17.115143
12.506041 33.83075 19.092344
1.229177 31.602741 22.786308
3.9611146 26.159477 31.88023
19.305691 34.717796 17.610676
12.53158 33.253708 20.055908
14.930354 39.619251 9.4260979
10.016647 37.242203 13.395796
12.03026 38.058552 12.032463
20.567413 28.476845 28.032244
-0.44430351 29.987854 25.475855
10.988255 29.86273 25.718258
6.7758923 30.96244 23.873745
5.854517 38.113911 11.935006
16.351418 36.238548 15.071383
13.172047 33.556976 19.549484
5.5029039 28.533443 27.923363
4.1516409 27.155819 30.218002
-3.8056731 29.699854 25.945131
-0.7343657 27.417994 29.763901
9.8252745 28.065464 28.719046
9.8163462 27.565899 29.552776
16.843046 37.006287 13.789319
3.8522172 26.071159 32.027264
0.69443667 31.80669 22.444118
2.019114 28.731953 27.580265
-6.3626599 30.209064 24.108345
-0.5334444 28.364429 28.185001
11.949976 38.743683 10.888384
9.3372688 30.042759 25.417343
1.4043968 26.711439 30.950361
16.580259 31.022367 23.781776
19.374979 28.968876 27.210693
2.1017687 27.321163 29.935112
1.5080019 36.190235 15.130853
4.7506747 37.41164 13.103341
1.0251249 35.872612 15.65932
11.353035 38.060055 12.029992
16.099775 33.016953 20.451084
5.1108289 36.513382 14.603732
3.9896712 32.36021 21.531464
12.524477 31.27186 23.36525
16.585293 30.011055 25.470547
11.920521 26.827805 30.786068
5.8754077 29.096695 26.984575
9.2588778 26.338581 31.599251
6.8259063 26.267513 31.70962
17.287292 28.077433 28.699402
-1.2500381 32.41008 21.430496
19.520391 35.324131 16.598156
17.566694 35.05415 17.04911
12.139804 35.101383 16.970581
6.1842265 31.953392 22.217865
0.11580276 25.082275 33.665024
17.440533 29.303673 26.651739
4.8997111 29.408215 26.461349
6.3643146 32.104248 21.9667
5.1728835 37.652802 12.702281
12.557333 34.006184 18.799393
4.0045815 34.526257 17.916445
7.8887262 30.215843 25.123566
10.383499 37.654022 12.70808
-5.1979537 30.192678 25.117908
12.020744 29.697031 25.994946
16.344412 37.676922 12.669469
5.6361494 28.762318 27.541828
9.2644892 25.783316 32.52599
7.5239515 33.416508 19.780499
-0.97921312 30.385899 24.809711
6.7446499 26.237795 31.758949
-3.5609169 33.192326 18.852453
14.755802 31.260813 23.383701
0.32408524 27.144299 30.224276
1.9987839 34.930092 17.235661
18.545849 32.080105 22.015358
7.3672819 39.024849 10.419083
10.501165 34.060951 18.707939
4.1892285 35.004642 17.118658
-3.645184 33.309399 18.229713
13.661782 26.345818 31.590906
-0.22282076 27.299334 29.963673
15.763124 33.095924 20.319231
0.41743875 31.543636 22.88221
2.2798398 27.725357 29.261124
1.3524876 32.671154 21.003582
8.8931866 35.093925 16.983055
14.128492 31.682194 22.680063
-5.4717789 31.64016 21.051064
19.76071 29.868885 25.707756
4.5105915 26.273474 31.69183
2.1384909 25.056744 33.714493
-4.2946424 32.715771 18.45709
10.810831 34.732552 17.586485
14.921895 31.467358 23.038795
9.5088739 38.094879 11.971958
13.107172 37.474911 13.007002
11.570154 32.934509 20.588913
12.741388 26.6367 31.105181
0.89866412 29.676113 26.00069
19.248455 26.977541 30.535992
18.59124 33.217506 20.116026
8.1369114 37.542507 12.894338
-1.490783 31.038195 23.719318
18.048265 30.323818 24.948175
6.8804646 31.308636 23.296305
18.216803 36.35675 14.873885
12.018334 36.692852 14.313026
7.6821733 38.363693 11.523101
10.7499 29.828743 25.775013
3.3128262 36.112736 15.266302
-1.8059957 34.301758 17.516676
16.194172 34.84819 17.393129
9.8549414 35.728439 15.923521
15.578377 36.789459 14.151476
4.011281 28.463707 28.034698
8.4394636 26.69146 31.007532
7.0632296 34.436974 18.075808
-1.3723967 29.934843 25.561184
15.113464 34.00211 18.806049
15.95439 34.238903 18.410582
14.326741 27.068474 30.38419
-2.5487063 28.909361 27.2687
6.7170639 32.892265 20.652718
-1.2047324 28.365898 28.180279
7.3874073 33.920231 18.939339
-2.8131881 27.858488 29.021685
12.250543 38.976246 10.500012
-0.95225668 32.304863 21.607101
14.699657 37.082043 13.662952
14.818096 34.877171 17.344818
-1.9304187 28.996227 27.12582
19.857191 26.662121 31.062668
2.9681139 30.212656 25.112221
21.209007 27.138956 30.266327
9.2837381 30.47197 24.700819
3.7141013 31.479012 23.001228
17.277357 36.254059 15.045424
6.6888461 28.407631 28.137356
19.049019 36.13435 15.245216
13.782983 33.802074 19.140167
-0.1352725 28.373363 28.171442
-0.35424709 26.714216 30.93977
16.261353 34.297188 18.313231
4.0083079 30.944624 23.894104
16.313534 28.924026 27.285732
9.3276863 34.212563 18.454781
16.392513 32.882053 20.676331
7.9485512 38.967701 10.514507
11.368766 27.490551 29.679392
13.682869 38.905849 10.617472
-1.7586237 29.905621 25.608646
-2.2855594 34.161194 17.462677
20.710567 29.371981 26.537468
10.956665 35.387196 16.493341
6.7501636 32.872581 20.685684
18.08514 33.126713 20.267673
1.8104413 25.040766 33.740047
19.799637 31.413023 23.129223
9.0977535 32.875923 20.686743
10.724622 31.594336 22.826769
6.9166746 36.78315 14.159611
8.2158327 30.365824 24.874355
5.555573 35.595421 16.137291
4.6423554 28.512661 27.955135
16.845402 30.738832 24.25523
3.6971855 35.618973 16.09169
-2.1186819 31.952028 22.19203
-0.96371508 29.317154 26.593472
10.644461 31.515951 22.957668
-4.9494028 31.931889 20.895388
8.6958342 36.301208 14.967098
15.089081 29.769585 25.873795
12.51112 38.294441 11.638523
16.008778 38.217697 11.766466
7.2690516 31.017378 23.783728
2.8641357 27.575966 29.512436
13.085494 32.308289 21.634594
13.344473 30.392159 24.834206
1.6857822 34.212479 18.432278
12.333986 40.313877 8.2663155
-2.2818751 30.97419 23.823462
14.050051 30.805733 24.143606
-5.6242123 30.285131 24.638126
5.848567 34.503006 17.961493
1.219805 26.468679 31.354898
4.8520899 27.573391 29.523464
12.507306 31.826487 22.439121
14.537775 39.732224 9.2374811
-2.7532468 31.747513 22.531216
18.236435 29.765526 25.880449
9.6763306 26.128969 31.950504
1.4091175 26.275864 31.677341
14.366318 30.448978 24.739323
3.0801647 35.656563 16.026863
18.859619 30.715935 24.293343
10.82049 36.489902 14.651999
-3.1513944 32.580917 20.84597
1.3160866 33.990887 18.800856
14.520421 32.542332 21.243744
5.4387054 29.932571 25.588039
12.481976 36.064781 15.361793
-1.4065101 28.428614 28.074924
0.22033703 32.317513 21.589966
6.3336334 34.439934 18.068394
1.7956381 34.623478 17.746708
7.6797857 39.417896 9.7627583
9.174202 32.55444 21.223558
0.9314177 27.287642 29.987095
0.79245472 36.174927 14.982383
6.6233492 32.906132 20.629253
15.970676 34.496689 17.98011
7.7091603 33.403481 19.802872
6.6872039 25.418657 33.12587
2.677068 26.581295 31.171877
6.3516369 36.329147 14.91541
1.2568421 27.657562 29.370804
13.422108 28.594055 27.836727
7.164546 29.37458 26.525156
13.798674 39.905613 8.9479771
4.575429 27.081572 30.343359
11.144987 29.303318 26.652382
12.445112 33.485695 19.668522
13.961303 32.993782 20.48991
15.712635 26.340939 31.599047
3.6566527 33.192207 20.141754
0.63988495 33.109844 20.269005
13.561873 38.732491 10.906968
17.037766 27.769997 29.212765
11.525951 35.36879 16.524078
19.510254 26.812624 30.811365
14.621122 31.304338 23.311018
5.897059 35.575588 16.171539
3.500257 26.40897 31.462276
16.571287 32.998135 20.482479
-2.4721479 31.221573 23.409939
14.354971 36.394764 14.810646
14.034512 34.637436 17.745197
5.6771083 26.260141 31.718037
14.680377 39.339409 9.8934231
7.4147348 32.251453 21.724579
-3.5477147 27.86235 29.012758
4.2650995 26.701426 30.976761
1.1406033 28.091988 28.645372
8.6642895 32.61013 21.130188
9.9101191 39.812321 9.1040125
18.863756 34.36393 18.201618
1.7280114 26.89753 30.640881
9.6453753 32.514191 21.290773
9.426321 35.846977 15.725583
17.546036 31.11832 23.621483
-1.0427511 32.5854 21.138597
-1.3125765 32.818317 20.748955
1.5884168 31.877306 22.329292
-4.9760761 28.975901 27.149429
-4.3834796 30.348314 24.860914
6.1015692 38.458782 11.36026
2.8945863 37.427551 13.0705
12.24967 35.293953 16.649004
0.061904192 27.109013 30.282278
0.92520165 35.196842 16.786827
-1.0348938 27.223152 30.088066
8.3305368 33.236427 20.083786
2.0785699 32.280369 21.658253
15.734922 36.529152 14.586146
-1.5312178 35.01178 15.925505
16.43125 27.805183 29.154011
3.8543792 34.212395 18.439762
10.769819 26.302299 31.66357
19.412178 30.968493 23.871563
8.1239223 31.227917 23.435238
18.61269 33.409538 19.795353
-0.28607941 35.135822 16.739603
14.262594 38.184525 11.821967
5.5015192 30.393692 24.818661
-1.137044 25.657665 32.700478
15.162853 37.642303 12.727355
-1.4261476 30.414196 24.760971
15.423479 29.221628 26.788792
-2.3675413 33.308235 19.645041
-1.2687663 29.447304 26.375225
16.29174 30.025244 25.446873
13.124628 26.962345 30.561407
8.9759979 33.749367 19.228235
2.5201013 31.997145 22.132437
0.21337637 33.901234 18.94676
-0.44703913 29.488615 26.309055
1.5290043 26.103634 31.965197
7.2203598 25.478312 33.028114
8.9832067 32.57325 21.192154
19.455524 31.809227 22.467632
-2.5229712 29.673004 25.994284
2.8839419 35.56913 16.172119
16.276344 33.398705 19.813589
12.260896 40.090572 8.6392202
3.5919209 37.664814 12.676872
15.1901 36.734367 14.243498
1.9328221 33.663807 19.348835
4.0822616 30.271334 25.018063
1.2811688 31.185135 23.483467
9.2818947 33.674255 19.353664
12.151201 38.248642 11.715025
2.7743657 27.955128 28.879318
15.731882 36.291382 14.983198
15.143049 29.629681 26.107412
17.331778 28.226671 28.450199
13.648539 28.9902 27.175234
3.5287032 35.299484 16.624342
3.8299079 27.038269 30.413103
-0.51192486 30.48554 24.644997
4.0827041 31.97011 22.18285
18.801258 27.423849 29.790733
18.871643 33.237782 20.082157
15.195204 30.913826 23.963104
7.0908499 26.468132 31.375692
14.662266 33.043705 20.4065
13.756113 31.3997 23.151781
16.354279 29.591248 26.171585
14.497541 36.941849 13.897077
-1.2131288 27.270033 30.00922
11.590407 29.825239 25.780861
14.112347 27.956125 28.901964
0.15241075 33.706856 19.27096
17.160391 27.579636 29.530634
17.263802 33.037956 20.415934
5.6562462 28.166164 28.536861
18.585882 37.286575 13.321164
8.1043205 34.421139 18.105766
18.727839 35.180958 16.837286
15.981609 35.715618 15.944641
15.861109 30.751133 24.234747
1.4449005 28.345001 28.224133
9.4853649 35.793064 15.815611
6.0043001 27.678194 29.352455
9.9181328 35.362724 16.534204
2.7107759 37.22971 13.400065
-4.408998 29.887779 25.629446
9.503005 35.512573 16.283978
3.447201 26.364328 31.536598
1.5142295 30.008446 25.448112
-2.6487527 34.219994 16.714699
-4.0322905 31.149817 23.524416
-6.7312202 29.612209 25.366087
8.7324457 32.154079 21.891556
10.678569 26.346636 31.589535
8.5545759 27.180187 30.192249
7.7057385 38.546715 11.217481
3.2945943 34.915146 17.264992
4.7230353 31.575958 22.842846
12.88342 31.186478 23.507822
15.512742 31.221991 23.448492
5.6268816 35.422626 16.425919
12.404476 32.541931 21.244448
8.5000114 36.098076 15.306293
-2.2586062 32.718933 20.911604
11.537945 35.145939 16.896198
17.683825 32.346153 21.57114
15.073603 27.217491 30.135359
9.5573597 36.063622 15.363827
-5.0443449 28.805098 27.434261
17.175531 28.206669 28.483597
14.674435 35.165958 16.862583
8.5653687 31.727467 22.602991
10.576143 29.12487 26.950354
7.9251957 32.375877 21.518648
19.16268 27.134487 30.273911
8.0365515 29.110592 26.968699
18.971888 29.964928 25.547428
3.3450727 33.978218 18.828869
-1.1051906 35.267365 15.636635
-1.5206265 33.35508 19.852404
0.10577774 31.957281 22.190792
7.1857939 34.474857 18.013002
-4.9740539 32.094921 19.734934
-2.1027892 28.129848 28.571198
5.4484062 33.527824 19.587688
17.84623 28.998257 27.161718
-0.67101336 35.480042 15.465416
4.7550879 37.318333 13.259092
2.4188704 32.830185 20.741772
18.343712 33.134804 20.254147
12.341904 35.92934 15.587974
0.88280416 35.652473 16.026249
-4.4307275 32.055336 21.027437
-5.2463446 28.53215 27.88912
-0.3851521 26.940199 30.562508
1.8925877 33.807777 19.108416
16.831074 26.327251 31.621904
0.7976656 26.325569 31.592314
17.469547 29.319637 26.625082
6.1091356 33.173576 20.181154
3.7063212 28.809576 27.456425
-2.9352045 28.988283 27.135672
-2.341553 30.864653 24.006073
16.868223 32.420784 21.446562
4.4602661 36.871586 14.003696
15.619844 30.912188 23.96582
18.334602 34.671417 17.688187
4.1085863 36.638771 14.391063
5.3436151 27.575226 29.522064
-6.9083948 29.070293 26.669203
11.964697 39.032177 10.406629
15.502604 38.015083 12.104832
12.993608 40.243698 8.3834696
-1.3652434 28.799133 27.456676
14.534656 26.57914 31.201298
6.9516206 27.516996 29.624693
6.3450322 33.933613 18.913477
7.0200262 29.225075 26.774185
11.937935 33.948479 18.895752
-0.27337897 33.646408 19.370399
-1.1675088 31.727745 22.569569
6.8233376 29.310528 26.630903
2.524539 36.467579 14.671411
8.4452286 38.645119 11.053165
5.7978964 31.52368 22.933739
9.711874 26.785477 30.854931
18.860151 27.978519 28.864498
1.2583101 27.325459 29.925081
5.7200794 34.823933 17.425438
13.463997 32.230392 21.764668
19.054203 34.281811 18.338737
16.981796 35.122219 16.935482
-1.4192003 32.05394 22.024315
18.403389 29.920572 25.621531
2.6079988 36.139526 15.219212
2.1988165 35.219124 16.753948
10.978249 33.469196 19.696074
15.328485 33.1245 20.27154
9.5526419 25.64323 32.760765
16.818213 36.611946 14.447826
21.022011 27.62701 29.451342
-3.9580741 27.674772 29.324421
11.736041 28.107082 28.649889
6.4864426 31.929113 22.259415
5.4049492 32.874508 20.67791
9.2010489 27.015308 30.469618
11.07545 35.901497 15.634548
5.8586035 32.291603 21.652302
9.3911133 27.9153 28.968195
10.71341 38.510696 11.277515
17.308105 31.760111 22.549786
7.8731027 37.31953 13.266675
11.891403 25.921711 32.299095
20.888029 27.112705 30.310175
10.271093 32.91497 20.621536
20.034237 32.806828 20.801723
2.0020907 35.735043 15.892235
3.4932108 26.343254 31.571924
14.629835 29.412903 26.469389
4.502655 32.817574 20.769875
6.3393879 37.700207 12.62711
-5.2725496 31.822182 20.457321
13.070962 36.050953 15.384847
-1.5772243 28.442854 28.050583
7.9717512 34.377541 18.178083
8.696249 35.252548 16.718178
-0.66808152 26.788548 30.81465
-0.61667347 25.998655 32.133137
4.377284 33.167046 20.186195
4.3891406 32.509686 21.283344
17.148289 31.041832 23.749235
17.360205 26.997787 30.502224
-2.9842813 31.486652 22.965796
-2.4669292 30.150326 25.197845
14.380076 38.768032 10.84757
7.4977198 35.365997 16.526768
17.31374 28.318108 28.297512
-5.4571285 30.72263 23.610237
7.9021869 27.276321 30.029589
11.569168 28.607765 27.813835
-4.1276431 31.305227 23.264715
11.612114 26.3176 31.63802
20.377399 27.491585 29.67753
13.808059 30.782948 24.181652
7.7126846 33.151962 20.222666
16.446613 27.937878 28.932432
8.5286722 26.715029 30.968496
4.7778544 28.113605 28.621607
8.9832439 38.441696 11.392845
0.38622391 31.488882 22.973492
13.227672 37.001743 13.797138
14.443969 29.888536 25.675165
16.241764 32.875648 20.687037
4.5692916 35.156052 16.867245
-3.8154185 28.196262 28.454554
10.24415 35.172001 16.852676
-0.42680264 30.211418 25.102791
14.906512 36.843742 14.060873
8.7113209 26.300627 31.660744
17.843056 26.550344 31.249376
-4.9761229 27.704113 29.272005
19.631096 27.676685 29.368477
0.94503117 25.124844 33.596794
-3.7865191 32.457794 20.549461
-4.2290363 31.341728 23.150871
14.419432 34.806435 17.462967
18.368021 37.796474 12.469708
4.9280086 28.106194 28.634487
19.631205 33.948849 18.894707
20.829504 28.627466 27.780714
8.0405874 38.925652 10.584723
10.05298 31.152615 23.564371
15.917602 31.026291 23.775267
3.3207781 37.088734 13.637418
6.6682053 32.022766 22.103725
14.179581 31.301964 23.314981
4.0528636 36.725914 14.24544
-3.090519 29.279003 26.649944
8.8123322 38.293247 11.640732
9.3205147 33.709435 19.294916
0.42318088 33.278179 19.987324
-1.2917707 30.977966 23.820513
9.8376846 31.657963 22.720522
-2.3836293 28.418242 28.088932
16.866756 31.040163 23.752041
-1.3261471 33.629395 19.395226
11.719873 34.483063 18.00309
-1.0753407 28.190044 28.474213
8.8233337 33.187996 20.16563
9.694705 36.291557 14.983207
-0.2212342 33.604206 19.441015
19.48344 27.724842 29.288074
-2.7978721 32.767754 20.690174
2.9234774 35.993645 15.463748
-1.8483477 31.792936 22.458464
5.2916441 26.325802 31.607147
2.9136219 34.764458 17.515196
18.329185 32.151188 21.896664
16.007839 29.6395 26.091017
14.863396 34.257034 18.380371
14.522598 39.715771 9.264946
19.540926 32.02726 22.103542
10.632183 37.619392 12.765892
1.1094575 31.586952 22.812258
6.9912815 35.483234 16.329384
10.344915 27.874109 29.038914
18.879948 32.638779 21.082417
5.4394383 35.159954 16.863674
3.2701821 28.737255 27.575645
9.5108395 27.734507 29.27034
-0.85238695 32.674488 20.990547
-0.28866816 29.189396 26.808983
10.360003 31.41357 23.128622
18.039845 33.108227 20.29855
2.3699729 33.271687 20.004751
-0.56144273 33.13319 20.225973
1.9519554 36.021175 15.414511
6.0129414 28.443693 28.074883
4.4697042 31.268003 23.355957
-3.9657822 27.671669 29.329578
-3.9350619 27.253773 30.027138
0.61570406 31.163265 23.51771
6.1713362 37.939972 12.226384
8.2897625 25.991154 32.175816
6.5389891 32.919502 20.606657
3.328383 29.465706 26.360085
16.785143 28.815735 27.466562
5.7999463 37.553562 12.870034
2.9814692 26.811056 30.789444
19.824142 33.122818 20.274067
2.6487708 30.206373 25.121628
7.9585142 28.257376 28.392431
6.9047089 30.31258 24.958782
2.3166046 35.52961 16.23616
4.8958511 38.293533 11.631975
13.907312 30.613914 24.463911
12.328596 37.444313 13.058151
-5.699472 29.922003 25.554928
16.609818 38.551956 11.20825
4.7969837 31.128027 23.590685
0.83526921 34.415199 18.091066
18.164356 37.375107 13.17336
10.712925 30.706429 24.309425
3.1091666 28.255836 28.378574
17.506786 38.705177 10.952333
0.050016567 34.846947 17.367838
16.164955 31.110645 23.634384
4.743834 35.321892 16.591051
-3.779305 30.87508 23.983799
-5.177856 31.908663 19.952063
-3.2800484 32.557163 20.781769
0.78631848 34.313869 18.26001
3.1851315 33.702267 19.288887
15.787684 31.10434 23.644941
11.625279 28.090427 28.677704
-0.61028636 32.306221 21.605999
-4.5588303 32.474163 17.735657
18.818468 34.91888 17.274918
12.545143 29.717962 25.959997
1.9537754 28.597939 27.803703
9.1179276 28.439278 28.092764
9.0242548 32.861023 20.711615
-6.3002205 28.605806 27.762621
4.7809253 27.424135 29.772327
-4.9040189 32.158897 19.445494
6.9548326 33.488503 19.658417
17.92919 29.786213 25.845922
7.9865627 29.92345 25.611891
11.41651 32.917244 20.617746
-5.8949227 31.253387 21.19013
2.6113718 29.858099 25.702759
-5.7569818 28.925705 27.23056
14.720931 39.828232 9.0771399
16.14954 37.6064 12.787251
8.0074577 28.289524 28.338942
-0.94676161 26.229763 31.746307
5.4924273 35.971378 15.509617
0.0031721815 35.136978 16.883619
17.908762 35.079597 17.006592
4.6490612 28.862429 27.371407
14.247725 29.945782 25.579576
14.662147 38.246258 11.718849
13.586648 37.639828 12.731588
11.73769 30.035114 25.43041
7.6558542 35.162548 16.866852
-0.71368551 35.089844 16.436131
3.2162476 27.131479 30.255459
11.317337 28.164833 28.553459
16.805073 37.127396 13.58708
8.2570906 37.517338 12.936363
3.2767217 35.746548 15.877351
-3.1661055 30.288641 24.964626
1.5661681 28.01284 28.778908
7.8111582 32.386452 21.500612
-3.2821612 30.277435 24.982935
-4.9120493 31.032887 23.309406
6.6992731 33.971043 18.852205
13.010012 29.416389 26.46357
10.547499 39.165661 10.183818
5.0499249 27.558079 29.54969
15.102933 39.553978 9.5350847
-5.5259743 29.692711 25.951227
16.637341 36.383369 14.829529
12.876318 29.530148 26.273615
9.4970322 34.464088 18.034775
6.1108541 27.081226 30.349136
0.94496918 31.965332 22.180199
0.99200189 33.035168 20.394833
2.6024258 36.432877 14.7296
-0.53189158 26.326691 31.585938
3.1564703 33.325039 19.918381
8.361062 38.748184 10.881067
3.0515032 36.780361 14.151175
8.3331642 33.731209 19.258015
9.6015234 33.872646 19.022379
3.602766 32.797806 20.79982
19.206327 37.304611 13.291001
9.103405 33.237682 20.082663
4.8181696 37.870209 12.338231
6.7162595 37.121281 13.594606
17.512377 29.854311 25.732231
17.966209 31.656565 22.722658
6.409338 26.47821 31.356564
18.805866 36.791428 14.147993
-2.6453748 33.64151 18.489563
15.052436 39.482353 9.6546955
3.2440944 30.718189 24.269436
-1.1375337 31.630291 22.732323
5.8874898 26.926867 30.605999
7.8607788 28.504818 27.979128
2.6578615 29.33671 26.573101
-5.0336885 32.040375 19.489128
14.863112 36.877602 14.004332
16.178555 39.150684 10.208479
-0.0230515 33.945724 18.8717
3.4217496 37.569798 12.834883
-4.5416131 32.489906 17.756231
12.099834 36.690594 14.316792
6.2630229 38.21455 11.768421
19.182489 29.421684 26.454563
10.34258 31.435989 23.091183
9.9054594 26.22171 31.796499
9.1872768 37.823921 12.424419
2.3741713 32.867413 20.679487
10.013536 28.012539 28.807764
12.342641 26.001968 32.16507
0.25360012 32.208786 21.771538
13.976553 39.601643 9.4555702
12.385033 33.731236 19.258509
18.697392 31.510508 22.966505
9.4843311 33.26474 20.037483
15.021259 32.226707 21.770763
19.427006 32.30098 21.646463
-3.6836636 33.274162 17.828335
12.969864 30.42215 24.784124
11.720901 39.411015 9.7740288
-3.0371256 33.865101 17.42852
11.394258 38.016289 12.103083
0.99412251 27.393492 29.810646
-3.1197588 27.124163 30.24622
17.376505 37.29295 13.310599
15.784866 30.424246 24.780617
17.964228 34.485458 17.998734
1.3555543 29.726036 25.918913
14.854956 29.087234 27.013206
4.2993541 28.801186 27.472435
-3.4051433 26.842665 30.715063
5.8574195 31.860266 22.372185
-0.69605803 25.451096 33.046726
5.9861655 30.602688 24.471489
19.581909 34.367249 18.196037
2.1691046 35.050041 17.036049
-3.2177358 31.834475 22.384499
10.918106 28.346016 28.25091
8.1631784 38.841686 10.724932
3.2724938 30.885138 23.990892
20.441883 30.437872 24.757572
18.043333 28.345886 28.251085
0.088812828 28.294031 28.304604
-1.4758515 27.27832 29.994503
11.345886 31.168749 23.537432
4.4915161 28.246401 28.399006
19.723251 34.167801 18.529076
13.262096 37.366692 13.187706
-2.1936817 33.728264 18.6717
18.711353 31.202433 23.480955
3.9088964 29.7132 25.948986
1.6583648 29.11882 26.933365
-3.0048561 30.691792 24.292328
16.014103 34.54216 17.904175
-2.3767147 28.619841 27.752485
8.0131998 38.548229 11.214952
10.921211 28.016464 28.801207
14.10287 28.272577 28.373541
12.283646 31.303579 23.312283
14.61647 26.91206 30.645372
13.828121 30.18952 25.172577
11.840951 35.085239 16.997555
10.706137 39.118477 10.262595
7.3981857 38.466469 11.351478
10.515392 34.731216 17.588715
4.2975812 33.82811 19.082626
9.7057123 38.164101 11.856359
16.446049 30.230972 25.103319
6.6268711 33.406052 19.794918
-3.071811 28.626825 27.738476
-0.055435836 33.2883 19.968809
13.79924 32.607147 21.135551
-1.5341754 28.880838 27.319738
-3.2328734 28.781107 27.480438
16.426842 26.527073 31.288237
-1.244754 33.270016 19.995304
14.629149 27.12056 30.297216
9.9453554 25.675213 32.708721
-5.155467 30.600285 24.247309
-1.0139832 30.693274 24.296597
5.241323 36.825142 14.083849
7.9899025 37.015942 13.773613
11.436345 30.967152 23.874062
-1.0710473 28.16123 28.522316
2.0488443 35.330059 16.568298
-3.4448793 27.796112 29.123648
4.1859016 35.449814 16.375664
12.457077 30.939804 23.919727
