# .PCD v0.7 - Point Cloud Data file format
VERSION 0.7
FIELDS x y z
SIZE 4 4 4
TYPE F F F
COUNT 1 1 1
WIDTH 1530
HEIGHT 1
VIEWPOINT 0 0 0 1 0 0 0
POINTS 1530
DATA ascii
55.4534 -20.206644 -0.4861607
55.434898 -3.5803404 -7.6169915
55.434898 -15.605753 -0.036780238
55.434898 -27.072289 -8.3479776
55.434898 0.29315114 -7.1258044
55.434898 -14.043031 -4.1544423
55.434898 -4.6955476 7.6257734
55.434898 -13.012369 3.5181499
55.434898 -17.367853 -2.5099936
55.434898 -25.410606 -6.7274399
55.434898 -11.908005 -1.5109067
55.4534 -22.362793 3.5519323
55.434898 -12.852933 -8.1585722
55.434898 -11.281226 5.0168653
55.434902 -1.9575927 0.29716146
55.434898 -13.936088 14.139501
55.278599 -0.19396079 -12.674837
55.434898 -8.5568733 -3.975203
55.4534 -20.322954 8.2349615
55.434898 -3.9882481 5.95929
55.434898 -2.639245 3.4924841
55.434898 -11.492931 -11.075696
55.434898 -3.8455524 2.467783
55.434898 -7.9516158 -2.7461798
55.434898 0.36496103 3.5179603
55.434898 -25.443802 -6.1051626
55.434898 -1.1159344 0.69676709
55.434898 -9.4923363 0.59196955
55.414101 -19.708723 -11.08114
55.434898 -11.335896 -2.8792205
55.434898 -4.8897533 -0.046667486
55.434898 -3.8930669 -4.360661
55.434898 -16.926155 -14.376886
55.434898 -7.7017584 7.4940953
55.4534 -19.704685 2.6018686
55.434898 -26.725563 -6.9415369
55.434898 -12.062901 -10.842529
55.434898 -19.949453 13.581627
55.434895 0.69018 -9.478054
55.434898 -5.5572214 8.1067762
55.434898 -5.1775646 -13.21771
55.434898 -11.000768 -14.307679
55.434898 -7.1092343 10.099083
55.434898 -15.459803 8.5182724
55.434898 -23.173801 -6.1559248
55.434898 -20.913177 12.163919
55.414101 -19.219713 -13.310854
55.434898 -12.929221 0.43897462
55.453403 -20.680595 1.5076566
55.434902 -2.4931457 3.147085
55.434898 -16.109493 -14.737711
55.434898 -15.518626 -10.606648
55.641296 -22.800251 -10.147159
55.414101 -23.573395 -12.087709
55.661903 -17.75798 8.9893522
55.434898 -12.397655 2.994061
55.434898 1.5962107 1.7128296
55.434898 -15.120013 -13.871107
55.434898 -16.673153 -8.6941948
55.414101 -23.002214 -11.736198
55.434898 -4.1519723 -6.4444709
55.434895 0.44518924 -3.0981393
55.434898 -7.0996246 8.7279053
55.414101 -22.62672 -13.835732
55.574501 -20.363503 -10.7019
55.434898 -10.49551 -9.8914356
55.434898 -23.628586 -7.4637508
55.434898 -16.190662 10.864405
55.434898 -8.7550507 -11.871603
55.6619 -20.361267 8.9852762
55.434898 -4.0645895 -3.8941681
55.434902 -11.829848 -8.6953068
55.434898 -9.4346657 -9.5500641
55.434898 -12.814687 6.3680162
55.434898 -8.6864815 -0.86595321
55.434898 -13.576941 1.6035941
55.434902 -17.351538 10.322554
55.434898 -7.2322435 4.1087956
55.434898 -23.925663 -8.0163059
55.434898 -13.191223 13.183401
55.434895 -14.93657 7.5126152
55.434898 -11.43007 6.7901411
55.414101 -23.05986 -11.524986
55.434898 -3.2313478 4.0139246
55.4534 -20.812279 1.4639244
55.434898 -25.242386 -9.4823284
55.434898 1.5622908 -5.3078532
55.434898 0.75860888 -9.3798666
55.434898 -12.662232 1.1720916
55.434898 -14.682735 -2.2285256
55.434898 -14.321253 13.053047
55.434902 -19.660084 -7.9868803
55.434898 -11.53009 13.697384
55.434902 -3.2501342 -8.2306328
55.434898 -17.142002 -11.723476
55.434898 -15.082383 -4.1729999
55.434898 -20.540525 -5.0468407
55.434898 -25.974726 -4.9920759
55.434898 -4.732173 -11.910056
55.620918 -23.840675 -10.06399
55.434898 -26.495712 -8.872571
55.434898 -5.4815712 -1.6158023
55.434898 -20.948025 10.302538
55.641296 -17.965336 -12.445444
55.494347 -24.120985 -1.7019812
55.434898 -15.747206 -8.175518
55.434898 -17.319517 7.4503036
55.434898 -2.8137004 -4.3678994
55.434898 -12.228073 -3.4179072
55.434898 -13.90955 12.429335
55.434898 -12.147247 6.6414833
55.434898 -10.563667 10.67899
55.434898 -14.355486 10.392158
55.434898 -12.551524 -12.99031
55.434898 -9.3896923 4.7639108
55.434898 -7.177526 10.122709
55.641296 -20.139778 15.100685
55.598427 -17.590454 7.4490175
55.434898 -23.517756 -6.0919352
55.434898 -7.0024362 9.1060696
55.434898 1.4359303 -6.566452
55.4534 -18.992336 8.6931181
55.4534 -21.994215 4.555563
55.6413 -17.986107 -14.336901
55.434898 -8.645566 -13.184974
55.434898 -19.759026 -1.9715159
55.434898 0.79098439 -9.6855316
55.434898 -21.37059 -3.3011284
55.434898 -14.139736 -10.460138
55.434898 -12.485721 -9.6218882
55.4534 -21.294922 7.6405678
55.434898 1.61365 -3.5660634
55.434898 -26.40332 -8.4843864
55.434898 -6.894311 6.4055347
55.434898 -8.2336807 -11.488466
55.434898 -12.022672 -9.1842728
55.434898 -7.6764116 -1.4227079
55.434898 -10.96409 -4.1478982
55.434898 -4.0846291 2.4689822
55.434898 -1.8150151 -6.3496146
55.434898 -16.72537 -0.30197141
55.691502 0.092169762 -10.141724
55.434895 -4.4513907 9.2693033
55.434898 -14.520922 -0.82547194
55.4534 -18.625418 0.31223291
55.434895 -14.927711 -3.3373911
55.434898 -5.4562201 -5.8073559
55.4534 -21.64151 2.1450031
55.434898 -24.925093 -3.1200962
55.434898 -19.584299 -1.8444874
55.434898 -13.782063 -11.941912
55.434898 -11.659469 3.5623031
55.6619 -19.479279 -1.1951969
55.434898 -14.298334 14.02105
55.434898 -3.083142 0.91515404
55.434898 -16.187035 5.403451
55.4534 -20.064047 1.3472203
55.434898 -8.0514355 -3.0675845
55.434898 -11.70819 -0.77350211
55.434898 -22.062305 -3.8589363
55.434898 -21.427614 -2.6445847
55.434898 -9.2109652 7.0232897
55.434898 -12.939234 -13.16659
55.434898 -9.6087112 -0.98742741
55.434898 -12.926521 10.910662
55.434898 -17.312948 -3.8802888
55.434898 -10.517499 5.6146784
55.497959 -1.8873184 -11.060925
55.434898 -23.976105 -5.2501674
55.4534 -22.118523 6.755353
55.434898 -7.4944963 3.6142492
55.434898 -10.5277 2.4512956
55.434898 -16.191671 6.044075
55.434898 -2.0325782 5.1676197
55.434898 -14.062156 -14.047636
55.434898 -19.162521 -3.6769609
55.434898 -5.7639074 -8.0843678
55.434898 -18.401768 13.685731
55.434898 -14.973186 -10.553207
55.434898 -3.7099819 5.5487022
55.434898 -9.9067869 11.333778
55.617851 -19.687403 14.860124
55.434898 -9.7239742 -10.287911
55.4534 -21.488207 6.9241457
55.434898 -5.7730989 -8.4036446
55.434895 -13.798307 -0.69613814
55.414097 -20.617344 -15.55144
55.434898 -5.7361417 -12.848228
55.434898 -11.24631 -10.317052
55.434898 -12.87856 -5.3278732
55.434898 -4.5256329 6.5450149
55.434898 -15.254386 -14.439113
55.434898 -5.4859037 -0.99876416
55.434898 -11.155301 -12.89646
55.6619 -20.919798 -0.90994346
55.434898 -4.7439442 3.4202313
55.661896 -22.769657 -0.95128608
55.434898 -23.88147 -7.0226746
55.4534 -20.140709 5.2701707
55.661903 -19.88896 -1.1104672
55.434902 -20.444744 -8.2703485
55.661903 -22.612604 -1.3698421
55.434898 -14.97477 10.527544
55.434898 -10.344227 -1.1363336
55.434898 -16.673803 11.199829
55.4534 -19.026157 7.7674308
55.434898 -23.486788 -2.4888661
55.458641 -20.465332 -10.801292
55.434898 0.062737584 3.2554576
55.434902 0.75311303 -2.6039329
55.434898 -13.32782 -5.7633924
55.434898 -16.08419 9.8373795
55.434898 -9.9719629 -10.403748
55.434898 -18.240498 -2.5966606
55.434898 -13.980708 -0.23094296
55.434898 -26.621946 -7.7482424
55.434898 -16.679611 7.2381401
55.434898 1.8130052 -1.5186435
55.434898 -7.6092186 8.3294821
55.434898 -9.7291069 -0.33740324
55.434898 1.8941002 -4.3093085
55.414101 -21.398809 -14.535376
55.434898 -17.395258 0.015611743
55.434898 -15.01999 3.7480307
55.434898 -3.7231269 6.6783185
55.434898 -2.5737052 0.68195152
55.434898 -26.345741 -9.2146339
55.434898 -10.301803 14.632671
55.434898 -11.729163 14.070257
55.434898 -12.693811 6.513711
55.434898 -13.828032 -7.1449537
55.434902 -20.674562 11.189752
55.61425 -24.445747 -10.05348
55.434898 -13.762792 -13.75882
55.434898 -9.4506931 4.4661179
55.434898 -12.526455 7.9283118
55.4534 -23.17131 5.4621768
55.434898 -2.453011 -0.21017003
55.4534 -22.893623 6.2484927
55.434898 -4.8717065 7.823009
55.434898 -10.616142 -13.957809
55.434898 -12.599304 11.642195
55.434898 -12.023378 -13.421396
55.434898 -11.759173 -9.9599991
55.434898 -12.815859 11.10895
55.4534 -22.480576 1.2265759
55.434898 -17.077784 8.6996346
55.434898 -12.055913 4.9495468
55.434898 -8.1435347 7.0336208
55.434898 -21.222996 11.930271
55.4534 -22.677338 5.4849315
55.414101 -22.296131 -14.166809
55.414101 -23.706047 -11.259827
55.434898 -4.4129767 -12.565208
55.434898 -1.3516376 1.5402852
55.434898 -16.977844 -12.986442
55.278595 -0.61032772 -12.682716
55.434898 -14.869353 5.0157146
55.434898 -8.8571844 3.3096099
55.434898 -0.73479962 -3.2527523
55.434898 -9.2195539 4.5889626
55.434898 -11.339575 -5.9660363
55.603584 -18.591942 -10.036671
55.43911 -19.516575 -10.818049
55.434898 -15.975004 13.434215
55.434898 -14.262375 -4.2151589
55.434898 -14.772895 4.1375566
55.434898 -18.519087 10.749769
55.477932 -17.480713 9.3633289
55.434898 -8.3734093 -13.708874
55.434898 -10.839462 -10.692722
55.434898 -17.116776 12.618419
55.434898 -22.91634 -7.1918278
55.434898 -7.2271614 -3.4706855
55.434898 1.9398692 -6.1040874
55.434898 0.48385972 -7.6961427
55.434898 -5.5146933 -4.1227679
55.434898 -4.7493439 -12.996918
55.466457 -18.535576 3.2126355
55.690704 -1.9689611 -12.900434
55.434898 -25.563095 -5.3591747
55.434898 -1.6238842 -4.0575466
55.641304 -22.742367 -10.2978
55.434898 -6.7107553 6.1152525
55.434898 -2.1411517 -0.13180947
55.434898 -4.2698164 -13.089478
55.434898 -10.977745 14.80477
55.434898 -7.0521612 -13.978136
55.434898 -15.417605 3.8388495
55.661903 -19.596901 9.4662228
55.434898 -13.161127 -9.1744328
55.6619 -20.360035 -1.3759993
55.589905 -18.432104 8.5342331
55.434898 -10.284668 6.6575994
55.434898 -1.5394628 -3.5393524
55.434898 -7.0179391 8.8556671
55.594292 -0.18978125 -9.9431276
55.434898 -8.946394 -7.0819798
55.434898 0.3053602 1.1041298
55.6413 -24.793999 -10.282681
55.434898 -3.52985 -13.250312
55.434898 -8.5035133 -11.916725
55.434898 -15.279197 14.118711
55.434898 -23.677752 -5.5875745
55.434898 -23.700153 -8.9744768
55.4534 -24.398663 1.6724919
55.434898 -1.353686 -8.9436932
55.6035 -18.947561 -10.036551
55.434898 -24.822893 -8.1881037
55.414101 -23.615793 -11.683216
55.434898 -9.8960133 0.70778471
55.434898 -9.4096289 -11.583046
55.434898 -6.0644369 -10.746531
55.434898 -8.6928749 -1.4749901
55.434898 -10.899519 1.5230854
55.434898 -10.24137 -8.6382408
55.434898 -2.4117713 0.067765832
55.434898 -0.62223774 -9.2277784
55.4534 -20.765469 5.6514144
55.434898 -14.579979 -0.30137992
55.434898 -0.7121911 -6.6160583
55.434898 -9.950552 -13.84956
55.434898 -5.7697077 10.910563
55.278599 0.68873382 -12.234975
55.661896 -22.301743 -1.1670061
55.434898 -9.4755144 -11.881634
55.434898 -17.31547 -2.5523555
55.434898 -14.967882 7.8624606
55.6413 -18.049885 -13.476206
55.434898 -22.53437 -6.0570364
55.661903 -23.540716 -1.0557321
55.434898 -5.4274874 2.3562315
55.434898 1.4650122 -2.6083474
55.434898 -10.773824 -11.749346
55.555923 -26.9706 -9.9615822
55.434898 -17.456585 14.311784
55.434898 -6.7615595 -3.2570119
55.54731 -18.464462 5.3137393
55.4534 -24.046309 0.10284799
55.4534 -21.900713 2.8860753
55.434898 -8.1651888 -13.093752
55.6619 -18.312435 7.8631301
55.434898 -12.297129 11.166637
55.434898 -15.814535 6.2002563
55.434898 -5.354105 -10.032721
55.434898 -5.8025074 -1.3071023
55.434898 -15.096236 -0.40961587
55.434898 -10.394467 -14.490538
55.434898 -14.899002 7.6124229
55.434898 -3.8214154 -10.301858
55.434898 -9.6802855 -2.9544768
55.434898 -12.941603 7.1910849
55.434898 -3.5273685 -5.1964021
55.6413 -19.992916 15.177808
55.434898 -24.406065 -5.1366405
55.434898 -0.76750928 1.2420975
55.434898 -10.927782 -10.936786
55.434898 -17.80756 -6.7865086
55.434898 -21.377892 -6.9045076
55.434898 2.3793683 0.095970988
55.434898 -5.2920198 4.5705595
55.4534 -20.722986 2.8557127
55.6413 -17.921331 -15.327524
55.434898 -7.8310084 -0.80435359
55.434898 -6.1229568 -4.25142
55.434898 -13.372177 -4.3075314
55.414101 -20.673801 -11.816382
55.434898 -15.89051 -9.1814108
55.434898 -5.035387 -3.7002039
55.414101 -20.466934 -15.790038
55.434898 -22.009281 -4.7347012
55.434895 -17.051826 -10.312561
55.641304 -18.02997 -14.883951
55.434898 -12.987099 11.647999
55.434898 -9.4919224 3.9613032
55.434898 -5.1248608 1.3697052
55.564125 -1.9153464 -11.89036
55.434898 -18.445702 -8.2950659
55.4534 -18.976143 6.2921791
55.434902 -12.309381 0.14026201
55.434898 -14.330655 0.59868181
55.4534 -18.746685 2.5216217
55.434898 -12.794806 14.656427
55.414101 -23.966644 -13.069281
55.414101 -20.063671 -11.655456
55.434898 -12.256651 3.4833817
55.434898 -12.591703 -4.2009001
55.434898 -10.947615 -7.4142466
55.434898 -14.760343 -9.9656944
55.434898 -8.1425352 8.8567543
55.434898 -13.422316 -13.09269
55.434898 -11.582779 15.065494
55.6413 -18.842188 15.092976
55.434898 -12.647322 -2.7038665
55.434898 -22.964622 -3.0008874
55.434898 -16.569931 5.2532382
55.434898 -11.969086 14.816846
55.434898 -15.547142 14.406176
55.434898 -8.7278242 -10.958149
55.434898 -7.521935 -4.9988952
55.4534 -23.188217 1.0014837
55.434898 -10.74218 -9.3310509
55.434898 -13.649053 -9.5485458
55.434898 -9.4196796 -10.050323
55.434898 -13.916332 -6.3253613
55.434898 -10.329416 -14.14065
55.4534 -19.200857 8.2234106
55.434898 1.2926402 -3.0370865
55.434898 -12.374991 -13.869699
55.434898 -11.647469 2.1652923
55.434898 -4.5361228 -5.1918597
55.434898 -14.052947 2.8412502
55.434898 -17.03101 5.7148194
55.434898 -16.320068 3.4198308
55.434898 -4.6699915 5.6434083
55.434898 -11.983367 5.2244744
55.434898 -16.204857 8.8518047
55.434898 -10.435519 10.298661
55.4534 -21.983391 1.0315512
55.434898 -4.1490688 -9.7578526
55.434898 -16.832951 -13.420253
55.434898 -7.1005192 -10.539459
55.434898 -9.4917078 1.2392766
55.434898 -6.1384563 10.44085
55.414101 -23.179655 -11.102129
55.4534 -23.912409 2.2567179
55.434898 -5.7699966 5.5471034
55.434898 -17.61932 12.90344
55.434898 -23.47332 -3.5653045
55.434898 -8.5339432 -12.019744
55.434898 -15.39125 -5.562377
55.434898 -8.1680536 10.037556
55.434898 -9.9462948 14.020903
55.434898 -12.477606 7.8986664
55.434898 -3.2752337 2.113656
55.434898 -15.233496 -8.6255245
55.434895 -4.6187248 -7.2868333
55.434898 -5.4723697 -7.4049716
55.434898 -2.0394766 3.6104498
55.434902 1.7034844 -2.9162416
55.434898 -12.840021 13.684912
55.434898 -6.3965807 6.4458289
55.434898 -18.8512 14.380999
55.434898 -5.0780544 7.0889144
55.434898 -18.434889 10.206229
55.434898 -2.5278463 2.240973
55.434898 -16.050751 -6.3072996
55.4534 -22.143745 1.0996202
55.434898 -20.898262 14.066696
55.54892 -19.136921 9.7748566
55.434898 -19.371416 -5.1103387
55.434898 -9.1801414 14.480659
55.434898 -2.0156555 -5.374558
55.434898 -5.0530891 3.8092322
55.434898 -12.217229 4.0175648
55.4534 -23.021025 5.2022762
55.4534 -21.214319 2.7515762
55.434898 -22.820568 -6.052845
55.434898 -4.4711189 -9.0102062
55.434898 -11.593357 -11.57056
55.4534 -20.146223 2.3366222
55.4534 -18.890274 8.289278
55.453396 -23.167904 -0.61308217
55.434898 -16.483788 -2.5858862
55.434898 -22.402134 -2.1385949
55.434898 -13.254709 1.8248839
55.434898 -17.189316 -11.5018
55.434898 -13.366454 2.4402487
55.434898 -13.769553 -13.588641
55.434898 -10.938687 10.003948
55.434898 -6.9606433 8.6581612
55.434898 -17.175404 6.544579
55.434898 -8.144804 1.4156433
55.661896 -17.976784 8.836215
55.434898 -1.3678666 -5.7844486
55.434898 -7.0035934 4.6475229
55.434898 -7.5796003 -1.8672075
55.414101 -23.125593 -11.042893
55.434898 -1.7619039 -6.6359363
55.434898 -7.2747002 -9.9778633
55.434898 -10.922926 6.9078403
55.434898 -20.421066 13.985696
55.434898 -1.6834958 -2.403327
55.434898 -10.513705 3.173677
55.434898 -2.0860648 0.35118198
55.434898 -18.477158 -8.8637915
55.453396 -20.326376 0.90530711
55.434898 -19.855455 -3.8582335
55.434898 -16.382812 6.4132915
55.434898 -11.849292 -8.7246504
55.434898 -11.281837 14.268198
55.434898 -19.555159 -9.3261127
55.434898 -17.407602 -9.0117168
55.434898 -9.0870762 -13.111704
55.4534 -23.230898 4.9904251
55.434898 -4.7030101 7.0119009
55.434895 -16.44659 -11.58521
55.434898 -11.443284 5.3385882
55.414101 -21.27713 -14.76534
55.4534 -18.905107 6.2115011
55.434898 -1.3110182 0.71334481
55.434898 -22.167154 -4.4419193
55.434898 -12.895761 -4.5053663
55.434898 -17.254183 -10.450586
55.434898 -13.841216 6.6919675
55.434898 -6.4053555 8.5331736
55.434898 -16.461451 -13.719102
55.434898 -1.9193449 -7.5186815
55.661903 -17.664509 7.9456272
55.434898 -16.771822 -0.81034279
55.627441 -24.976959 -1.5752177
55.434898 -23.946114 -2.7464347
55.434898 -6.3075113 6.0917149
55.434898 -18.346409 12.782955
55.434898 -13.4523 -9.9004555
55.434898 -15.562222 0.19243884
55.434898 -8.364852 -4.8923903
55.434898 -21.061493 -7.7046585
55.434902 -16.90077 8.6043224
55.434898 -13.34311 5.542357
55.434898 -9.8052654 3.5479579
55.434898 -24.288563 -5.9144492
55.434898 -18.741104 13.834906
55.434898 -23.301723 -5.2963667
55.434898 -11.126537 -9.1165619
55.434898 -14.537681 -9.6465397
55.414101 -24.483795 -12.358878
55.434898 -8.563448 4.2317595
55.453403 -20.328011 7.9945359
55.434898 -23.930214 -6.9128265
55.434898 -1.9916751 1.1395309
55.414101 -18.574068 -14.594353
55.434898 -7.5531554 6.6998501
55.434898 -1.5169065 6.3489513
55.434898 -2.0236847 -2.8083611
55.434898 -11.055455 -14.457473
55.434898 -2.0120039 4.5723586
55.434898 -15.909709 -11.948104
55.434898 -8.9999523 -5.9870677
55.434898 -1.6376417 3.062613
55.434898 -10.011802 14.27401
55.434898 -26.195786 -7.1888266
55.434898 -0.49491286 -5.2617445
55.4534 -20.401989 0.31440046
55.434898 -14.931096 -0.77071244
55.434898 -9.6070166 14.427116
55.4534 -20.266684 0.55466539
55.434898 -9.301795 10.528502
55.618866 -26.280933 -10.060752
55.434898 -8.0440483 -13.071501
55.434898 -12.93462 6.3566437
55.434898 -15.167295 11.766771
55.4534 -23.721489 4.0093055
55.434898 -16.396599 1.2381175
55.434898 -14.111331 -2.6856365
55.434898 -9.2693443 3.9439759
55.434898 -0.15193719 -8.5272417
55.4534 -22.471371 2.9514196
55.434898 -17.896042 -5.7197356
55.434902 -18.44846 -9.6412983
55.4534 -22.03804 2.9980648
55.434898 -4.7039776 -3.9450288
55.4534 -19.491833 4.7381215
55.434898 -17.064291 8.1067591
55.453823 -2.6508167 -11.964075
55.434898 -5.6491976 -0.78506291
55.434898 -5.5789523 7.1700478
55.434895 -8.825264 -13.138169
55.434898 -13.825708 11.131701
55.4534 -21.152927 2.5415943
55.434898 -0.33093774 4.8349257
55.434898 -12.559093 -2.9261642
55.434898 -15.019561 5.8859401
55.434898 -5.2170267 0.51136804
55.434898 -7.2252445 3.9571779
55.434898 -15.568459 7.9930677
55.4534 -19.452858 7.9600239
55.434898 -1.9123094 -3.2058883
55.414101 -20.483105 -12.858217
55.4534 -20.350054 3.0984347
55.414101 -23.988689 -12.165632
55.434898 1.0388606 -5.4593692
55.434898 -16.115702 11.788858
55.414101 -24.244263 -12.377728
55.434895 -6.8614554 -9.6958342
55.434898 -10.015491 10.637216
55.434898 -20.89329 -8.9272385
55.4534 -19.624708 3.4459653
55.434898 -2.2552457 -1.5366118
55.434898 -14.083209 -6.264287
55.434898 -0.09060356 0.43345428
55.434898 -14.100329 14.999016
55.434902 -18.740429 11.18425
55.434898 -24.970829 -5.3677669
55.4534 -20.85643 -0.30973679
55.434898 0.22852325 -3.208353
55.434898 -16.622345 -2.4001706
55.434898 -6.5286703 8.3132219
55.434902 -25.686249 -2.8020439
55.434898 -15.437073 -8.5442743
55.434898 -8.1512108 -4.0210171
55.434898 -2.2479138 4.7825146
55.434898 -16.278107 15.325091
55.434898 -22.729856 -8.241312
55.434895 -21.865402 -3.1764145
55.434898 -3.2668085 -3.0254755
55.434898 -10.768676 12.630969
55.434895 -20.108713 10.709304
55.641304 -17.760241 -14.94669
55.434902 -8.8227825 8.2801237
55.434898 -4.8521814 0.1017471
55.434898 -0.52812529 -5.0728202
55.434898 -13.497557 -13.322616
55.434898 -13.035057 2.7764523
55.434898 -0.31924522 4.5892973
55.434898 -10.204292 12.097257
55.434898 1.5536357 -3.0714321
55.434898 -17.535259 -2.1931136
55.434898 -9.3747025 -5.372684
55.691505 -1.9850082 -10.17779
55.434898 -7.4327192 2.4894803
55.434902 -23.291691 -4.5898604
55.434898 -15.287168 0.0090078115
55.434898 -7.6053743 -8.3299065
55.434898 -9.3699636 7.8549867
55.414101 -18.86729 -12.341679
55.434898 -10.367521 5.1935086
55.4534 -21.405495 4.6747985
55.434898 -13.413386 -11.808398
55.434898 -9.6536455 -7.7850313
55.434898 -13.523409 -5.5144892
55.434898 -10.50947 -4.9745407
55.434898 -12.441175 9.1581135
55.434898 -2.1969767 -4.3338423
55.434898 -4.4575148 -5.6601944
55.434898 -12.065527 -14.050002
55.434898 -9.0540218 -13.754417
55.434898 -3.4230688 -4.7932763
55.434898 -9.0091324 -2.5654721
55.434898 -9.8085909 -10.771307
55.434898 -9.2080812 -1.6765065
55.434898 -21.843338 -4.3210716
55.434898 -15.267374 10.595081
55.434898 -19.196856 14.522873
55.434898 -18.336651 11.545218
55.434898 -7.2015648 -0.40147036
55.434898 -6.6049623 0.51894772
55.434898 -10.083093 -14.097296
55.434898 -12.118245 0.78947175
55.434898 -3.77458 5.1778812
55.434898 -12.554272 -12.452639
55.434898 -6.6234212 0.31982663
55.434898 -7.1790323 -13.382725
55.434898 2.1561434 1.3123593
55.434898 -11.573823 7.9632368
55.434898 2.4691935 -0.58491832
55.434898 -1.9772272 -3.5957327
55.434898 -10.631606 9.3902874
55.434898 -9.8547468 -12.181013
55.4534 -23.141121 3.865428
55.434898 -16.054785 -7.1094837
55.434898 -9.9612999 2.4189863
55.434902 -16.210213 8.5483027
55.669014 -1.9597743 -10.665864
55.434898 -8.818202 -13.442459
55.434898 -9.8920174 -6.8005981
55.434898 -9.7563629 7.7550797
55.4534 -24.274761 1.5673119
55.434898 -9.7526131 6.5881042
55.434898 -17.195395 -0.23004277
55.278603 0.49346519 -11.585938
55.434895 -16.964783 15.535605
55.434898 -6.4895716 12.52384
55.434898 -14.066318 14.071732
55.434898 -13.958591 2.1980686
55.434898 -13.096685 9.4101753
55.434898 -11.650299 -10.552228
55.434898 -21.424408 -6.306107
55.434898 -8.5988321 -6.4117312
55.434898 -16.977192 -9.1273794
55.434898 -14.837104 -12.36281
55.434898 -10.850157 0.3944506
55.434898 -20.532576 -5.5723991
55.434898 -13.344603 15.488828
55.414101 -20.453218 -12.030663
55.434902 -0.82625008 -6.2824821
55.414101 -20.809401 -15.833479
55.434898 -12.948074 -13.119827
55.434898 -14.658786 5.3248601
55.434898 -9.277895 -6.4140997
55.434898 -8.4136038 7.9842477
55.434898 -2.4103198 5.9160771
55.6413 -22.588226 -10.490931
55.453396 -20.395697 0.93794036
55.414101 -21.595646 -13.765606
55.434898 -7.2958946 -11.646614
55.4534 -19.831175 6.2319837
55.278599 0.92069423 -11.72506
55.434895 -17.95874 9.9474211
55.434898 -11.611297 -6.0325346
55.434898 -13.320096 4.4169121
55.434898 -11.72778 15.117579
55.434898 -22.54493 -7.4930887
55.6413 -26.78385 -10.434505
55.4534 -23.227085 3.1603432
55.434898 -6.4716945 12.089146
55.434898 -13.838758 11.90729
55.434898 -7.593874 -9.063715
55.434898 -2.6595783 -6.3196597
55.434898 -13.329767 5.4000826
55.434898 -3.238472 -13.061337
55.4534 -19.998272 8.3940296
55.6619 -19.54356 9.4518843
55.434898 -9.6237593 13.117544
55.434898 -17.294535 -15.154268
55.434898 -26.401756 -6.1844902
55.434898 -3.7316349 0.43828458
55.434898 -9.8655252 -1.4847095
55.434898 -4.6969662 0.54900229
55.434902 0.051298916 0.91244638
55.434898 -13.532615 -7.5750089
55.434898 -0.69129127 -9.4210148
55.434898 -1.0302641 -7.7772522
55.434898 -7.7094097 11.605831
55.641304 -26.491013 -10.151681
55.434898 -1.0567837 0.31048274
55.434898 -18.358294 -9.3607206
55.4534 -22.965504 4.1458254
55.434898 -13.119923 4.5575647
55.434898 -24.232271 -4.5066347
55.434898 1.103018 -9.7361116
55.434898 -10.484776 6.9481373
55.4534 -23.204636 3.2459972
55.434898 -16.363918 -10.952314
55.434898 -9.6137581 1.1022607
55.434898 -9.0158615 9.7992687
55.434898 -17.050564 -9.5290651
55.4534 -22.359318 8.4794016
55.434898 -4.2812405 9.6108742
55.434898 -8.7115993 13.325413
55.434898 -21.944256 -2.2758205
55.434898 -13.25564 -0.4360168
55.434898 -1.4956934 -5.4202018
55.434898 -6.7946544 3.4303992
55.434898 -15.936674 13.28571
55.434898 -13.014386 -10.507809
55.525856 -18.374283 -14.854458
55.434898 -1.3526146 3.2009616
55.434898 -8.0691948 12.60418
55.434898 -3.8380115 -8.2726307
55.434898 -25.477983 -5.1895671
55.434898 0.049636126 2.1662638
55.434898 -17.093885 -6.630887
55.434898 -15.880516 -15.095187
55.434898 -14.2696 -7.5489511
55.434898 -13.938752 -12.288815
55.434895 -20.448734 -9.0347271
55.434898 -13.038441 1.1640208
55.661903 -17.680771 -0.2029603
55.434898 -9.5892811 9.3860607
55.434898 -3.4952302 -6.5524702
55.434895 -16.228554 -10.374327
55.434898 -2.8537307 4.7177329
55.434898 -11.108489 7.7112093
55.4534 -18.859297 7.9689803
55.434898 -6.7581644 12.900459
55.434898 -7.9311032 7.2653847
55.434898 -3.2543802 -13.178688
55.434898 -10.90232 10.597788
55.434898 -16.122372 -3.3005061
55.434898 -14.753782 6.6376743
55.434898 -15.786525 4.9802809
55.434898 -20.652168 -5.5027847
55.434898 -8.0368042 -3.3214755
55.414101 -20.814024 -14.076472
55.414101 -18.767357 -13.794122
55.434898 -15.930343 13.680342
55.434898 -10.793749 -10.441662
55.434898 -13.491489 -6.447875
55.434898 -17.25403 -1.8807862
55.434898 1.9444891 -5.2249856
55.434898 -25.263752 -8.3896122
55.434898 -14.895041 10.797512
55.434898 -15.018875 -13.929591
55.4534 -22.73893 5.8683777
55.434898 -24.176497 -4.5428185
55.434898 -23.101936 -6.9069934
55.434898 -16.451754 14.374732
55.434898 -8.9033995 -8.1845474
55.434898 -17.396975 -14.588983
55.434895 -0.37764001 -3.4001718
55.434898 -24.388313 -9.680337
55.434898 -2.8861165 -1.6505615
55.4534 -23.802135 0.64154696
55.434898 -9.7281866 -0.35132664
55.434898 -12.143015 0.4463948
55.641296 -17.822229 -14.129327
55.434898 -14.627825 3.8800178
55.434902 -15.242793 6.9271755
55.434898 -10.111716 -0.65773904
55.434898 -10.688124 -14.501081
55.434898 -6.4907951 -8.1837597
55.633717 -17.627073 8.6412516
55.453396 -22.117384 7.8534155
55.434898 -15.135739 8.4315748
55.434898 -1.324429 -3.4184995
55.45668 -21.578484 9.8627472
55.434898 -11.942231 -6.8990374
55.434898 -13.688375 -1.6046017
55.434898 -4.4901619 8.7074146
55.434898 -14.116128 9.9150333
55.4534 -19.947556 6.8627729
55.434898 0.009975886 -1.7481995
55.4534 -20.438051 7.3529797
55.434898 -3.4905798 -7.8400807
55.434898 -3.9872651 7.8270969
55.434898 -11.567284 -14.309658
55.434898 -7.3829298 -10.388668
55.434898 -8.2084188 -13.754793
55.434898 -15.824764 -4.5105782
55.4534 -21.822613 0.42320529
55.434895 -2.0868492 5.5505934
55.4534 -24.739748 0.18183382
55.434898 -16.700396 -10.264412
55.434898 -22.897564 -2.9532757
55.414101 -18.590446 -14.692324
55.434898 -24.680698 -3.7651701
55.661903 -18.321268 8.5594807
55.434898 -15.711733 5.7974625
55.434898 -7.3022318 1.9657631
55.434898 -25.891445 -4.9546127
55.621216 -24.441383 -1.5811455
55.434898 -14.883778 15.506223
55.434898 -24.103081 -2.7245498
55.434898 -7.9386454 2.7655985
55.434898 0.61774206 -2.7673421
55.453266 -23.982239 -9.7998371
55.434895 -18.435095 10.896755
55.434898 -24.450716 -7.1212196
55.434898 -9.1033983 -7.753171
55.434898 -25.557678 -5.1836653
55.434898 -11.660162 14.552275
55.434898 -4.9470892 -9.0669031
55.414101 -19.876238 -15.196249
55.434898 -4.002265 -5.0543499
55.434898 -19.789322 11.242291
55.434898 -15.681839 -5.9823203
55.434898 -2.2920387 7.2421632
55.278599 -1.6179572 -12.989969
55.434898 1.1469789 -0.89475578
55.434902 -15.465988 -9.7336178
55.4534 -22.814636 1.7931406
55.434898 -15.273276 7.7235985
55.434898 -4.2622619 -5.4324484
55.414101 -19.146717 -11.060231
55.434898 -7.8842964 -10.519636
55.507366 -17.515676 -14.43839
55.434898 -0.31022394 -3.3078613
55.434898 -6.7974396 6.0614972
55.434895 -16.240005 13.257141
55.4534 -22.075113 1.3963963
55.434898 -8.8779831 -4.0852842
55.434898 -11.320644 0.88189578
55.434898 -5.9285059 -6.4860711
55.434898 -19.377398 -4.1168256
55.434898 -5.836575 -1.5512142
55.434898 -9.2842827 10.595201
55.434898 -8.2861567 3.8443744
55.443291 -17.414721 -13.944305
55.434898 -5.6992221 -5.1789713
55.4534 -20.268839 7.684855
55.434902 1.5006982 -4.3715825
55.434898 -15.900099 -6.8635139
55.434898 -15.177297 -7.5870523
55.434898 -10.01849 -11.858669
55.4534 -19.43454 -0.065004528
55.434895 -8.3957834 -11.057922
55.434898 -18.956686 10.228067
55.644291 -1.9493012 -12.164671
55.4534 -24.71265 0.20781711
55.414101 -20.900608 -15.452305
55.434898 -6.708271 -5.4733729
55.434898 -0.78840476 -1.191587
55.609585 -17.603399 8.3628559
55.434898 -24.191303 -9.2226601
55.434898 -14.196511 1.0586934
55.434898 -15.002425 -4.8507919
55.434898 -4.8079853 0.55293012
55.434898 -19.949215 -5.7696824
55.434898 -9.5217505 11.217566
55.434898 -10.507567 -4.3756404
55.434898 -12.423623 -5.9821124
55.434898 -10.907907 0.5344612
55.414104 -21.790562 -10.959568
55.434898 -13.322912 -7.8534942
55.434898 -12.243157 -14.528061
55.450539 -19.904257 -10.808242
55.4534 -21.327309 2.7228231
55.434898 -3.2360883 2.0320387
55.641304 -21.688189 -10.345791
55.434898 -13.669047 -9.3068619
55.434898 -17.868042 -7.3295422
55.434898 -6.3623605 3.1298804
55.414101 -22.404793 -11.903185
55.434898 -16.871216 14.608183
55.434898 -6.6300831 4.4588685
55.434898 -14.300611 2.4028659
55.6413 -21.728571 -10.232803
55.4534 -19.392094 3.4578285
55.434898 -19.499207 -5.1101627
55.434898 -3.0179625 2.0908794
55.434898 -14.543329 -13.926804
55.434902 -6.6681747 -8.2596207
55.434898 -18.757988 -8.5860405
55.434898 -3.8169317 2.6843097
55.434898 -14.551922 -8.4521809
55.4534 -21.396217 5.354013
55.434898 -13.791814 2.0503333
55.434898 -16.510616 -0.44825375
55.414101 -20.728313 -14.02226
55.434898 -15.150398 -15.36353
55.646843 -18.372482 5.8787236
55.434898 -8.4538012 -11.74392
55.434895 -0.33151478 -0.077677131
55.434898 -7.98067 13.33569
55.434898 -2.7879658 6.9742026
55.4534 -21.866381 8.4461584
55.434898 -12.477571 -2.2944274
55.491241 -26.639709 -9.8596764
55.661041 -17.647711 6.4865046
55.487934 -18.514233 2.7086265
55.434898 -13.776227 -14.763462
55.4534 -18.862244 6.6052198
55.434898 -3.6626029 -3.9327767
55.434898 -20.540028 13.915093
55.434898 -3.386755 -11.624022
55.434898 -19.991634 -2.6072083
55.434898 -5.0761919 3.1255755
55.661903 -17.917742 5.1820927
55.434898 -6.1520443 6.8510895
55.434898 -2.0858264 1.9278673
55.4534 -20.229616 7.6803689
55.434898 -5.254261 -11.393793
55.434898 -7.4951248 13.813187
55.414101 -20.719318 -13.251677
55.434898 -7.9219046 -12.86856
55.4534 -21.501053 3.6941838
55.5825 -17.634062 -12.156194
55.434898 -1.9979496 -7.1860552
55.434898 -14.623099 2.7266049
55.434898 -7.2249141 -12.877597
55.434898 -1.9217813 -4.4623194
55.434898 -14.722579 -2.0211129
55.434898 -7.5078897 11.245123
55.4534 -18.636927 1.9648725
55.434898 -3.4462447 -3.1900885
55.434898 -7.8553128 2.3652921
55.434898 -1.2000335 -0.3165338
55.434895 -18.852789 10.620823
55.434898 -18.3465 -6.0918732
55.434898 -10.698208 4.9975109
55.434898 -20.919037 -2.4959183
55.414101 -21.863232 -13.262549
55.434895 -14.486991 13.274353
55.434898 -16.935883 -3.5696602
55.434898 -3.8370023 6.1527719
55.434902 1.9817801 0.38714314
55.434898 -7.9073181 -7.859355
55.6619 -18.302622 4.8766084
55.434902 -14.568189 -12.578214
55.434898 -18.048689 13.550491
55.434898 -9.5118484 -4.9396133
55.414101 -20.426109 -12.593506
55.434902 -0.58710748 -1.0839999
55.661896 -17.998058 2.3288529
55.6619 -18.156687 5.1978378
55.434898 -13.815401 5.9135151
55.434898 -7.2069311 10.639092
55.4534 -20.260315 8.1740065
55.434898 -11.129293 -10.514954
55.4534 -20.636017 7.3113132
55.434898 -5.4798279 -9.4153681
55.434898 -13.31693 -4.9198914
55.434898 -16.867546 10.506841
55.4534 -19.735897 4.6261306
55.434898 -17.079809 -14.942345
55.434898 -3.5414987 -10.975489
55.434898 -20.135014 -7.7118096
55.434898 -0.42137855 3.1231804
55.434898 -9.9568768 -4.0387216
55.434898 -4.1969299 1.7116026
55.434898 -2.6552877 -6.2616081
55.567841 -25.196831 -9.9803572
55.434898 -16.328554 11.193068
55.434898 -6.4395719 10.005366
55.434898 -15.09424 -1.4066288
55.434898 -10.267533 -6.4626513
55.6619 -18.031172 6.4475088
55.434898 -19.876013 -9.5340815
55.434898 -24.050228 -2.0868053
55.434898 -14.691535 9.485507
55.434898 -13.25824 2.1243412
55.434898 -0.68586314 -4.0425901
55.434898 -3.6898332 -1.0698414
55.434898 -13.769833 -3.532927
55.434898 -8.1471891 4.361743
55.4534 -19.783115 0.36557156
55.4534 -22.421074 8.4717274
55.434898 -2.1084452 6.8898201
55.434898 -0.4721317 -9.0675716
55.434898 -10.510715 -3.0266194
55.4534 -22.688877 5.7995229
55.414101 -24.058384 -12.648371
55.434898 -14.205819 5.2083855
55.434895 -17.700787 11.797919
55.414101 -22.729706 -12.060423
55.434898 -26.72942 -9.1505032
55.434898 -0.88392884 -6.4718246
55.538937 -24.937756 -1.6595105
55.661896 -17.655006 7.7165885
55.4534 -23.278183 2.5169322
55.434898 -11.06861 -10.631996
55.661896 -18.150284 5.7589731
55.434898 -4.0702629 -2.7640195
55.4534 -19.961172 6.0710182
55.434898 -6.7407331 6.1725712
55.434898 -24.58218 -1.8100102
55.4534 -22.461672 2.9544334
55.434895 -19.788027 13.912163
55.434898 -21.079885 -4.8197651
55.434902 -12.243256 9.9712849
55.565742 -21.80024 8.8653431
55.434898 1.4505386 2.7855048
55.434898 -11.443652 8.8849297
55.434898 0.91267186 2.266315
55.434898 2.1195707 0.65279007
55.661903 -22.771009 -1.0762652
55.434898 -12.528827 3.5794055
55.6619 -18.175484 4.0376987
55.434898 -11.300182 13.24649
55.4534 -20.087965 4.4131837
55.691498 1.1053034 -10.092227
55.434898 -18.842787 -4.6677094
55.4534 -20.772697 0.25716472
55.434898 -5.6428132 -13.077938
55.434898 -23.34687 -4.5326648
55.434898 -16.168135 -9.6416311
55.434898 -10.196906 -6.3271246
55.434898 -10.775668 4.8320112
55.434898 -9.3278952 -9.0471277
55.4534 -21.588253 7.2387009
55.434898 0.90314436 -0.90029889
55.434898 -4.6619954 -10.289599
55.434898 -8.0997438 9.8111305
55.434898 -10.4303 9.4309845
55.434898 -15.180215 -3.060297
55.434898 0.58126825 2.373847
55.434898 -8.9158497 -10.906602
55.621731 -17.596056 0.83384013
55.434898 -5.1928225 2.1417928
55.434898 -5.9182453 -13.540104
55.434898 -9.7407207 1.592947
55.434898 -0.7141372 -6.6347361
55.434898 -11.359056 5.0511255
55.434898 -6.3348827 6.6466346
55.434895 -17.359735 -3.3494275
55.434898 -11.632872 5.6154771
55.4534 -23.049475 3.5548134
55.434898 0.43138266 -3.6189733
55.434898 -9.1603708 3.1118944
55.434898 -15.059683 -15.013944
55.434898 0.027920827 -0.82817596
55.434898 -1.671613 6.0158324
55.434898 -19.360859 -6.9444761
55.434898 -13.245018 5.7019653
55.447937 -19.673952 14.563277
55.434898 -8.5354233 -0.35570028
55.434898 -7.3626595 2.8644726
55.434898 -15.033119 -8.0367107
55.6413 -20.784344 -10.345243
55.434898 -12.131792 -6.5021152
55.6619 -17.760386 6.8729258
55.434898 -19.030739 12.250425
55.4534 -18.630466 0.37725067
55.434898 -8.1763659 -8.8669624
55.434898 -17.246506 13.398993
55.414101 -18.663864 -11.818786
55.278603 -0.73082066 -11.947644
55.4534 -20.889011 2.2793274
55.434898 -6.6892381 -6.2851334
55.434898 -1.7927269 -5.561202
55.434898 -17.68779 -2.1240745
55.434898 -10.352149 12.430891
55.434898 -8.7567854 -4.9721518
55.434898 0.49295592 -2.0817931
55.414101 -19.364075 -12.342981
55.434898 -11.335816 -1.3246611
55.434898 -3.8337665 -6.7730818
55.434898 -7.8149805 11.602587
55.575153 -1.9200153 -10.678876
55.434898 -21.897987 -4.6118383
55.434898 -2.7947607 2.714587
55.434898 -2.1794002 -5.918973
55.453403 -23.890175 1.1440973
55.434898 -15.822457 10.547888
55.434898 -16.169426 -1.7393302
55.434898 -20.522882 -7.3611574
55.434898 -16.573666 -13.548828
55.434898 -6.3667378 -11.075693
55.434898 -11.890219 -14.077722
55.434898 -12.299629 -5.6834412
55.434898 -9.182373 -6.8638496
55.434898 -9.68437 12.442017
55.434898 -21.175659 -4.4874945
55.434898 -9.3475075 -3.3579829
55.434898 -7.4722991 -6.6015544
55.485931 -17.460541 -1.5678962
55.434898 -20.88563 -9.768239
55.434898 -16.269756 9.5920181
55.434895 -6.8853345 -0.54848838
55.434898 -5.9457684 -8.7293491
55.434898 -19.478779 14.266123
55.434898 -10.747743 -12.40612
55.414101 -19.122145 -15.939119
55.434898 -10.898498 8.4834557
55.434902 -7.3482485 11.386347
55.434898 -14.810957 -0.71187222
55.434898 -5.0332756 3.1761758
55.434898 -3.020761 4.0485191
55.434898 -5.0756969 -9.1460466
55.434898 -4.4620476 1.457975
55.434898 -7.2002101 -2.6040993
55.434898 -5.8828855 -2.8335414
55.4534 -21.011312 5.8454556
55.434898 -10.579378 -11.524189
55.414101 -21.242113 -12.750051
55.434898 -13.060489 -14.960803
55.434898 -18.348999 10.862803
55.412437 1.2784848 -10.602007
55.434898 -11.726552 -14.559481
55.434898 -11.470644 -2.8943207
55.434898 -2.7237563 3.791651
55.434898 -9.7885008 -13.881606
55.434898 -6.6865726 1.9771551
55.414104 -22.695885 -11.298498
55.434898 -12.332694 -12.589747
55.434898 -14.666656 -11.444476
55.434898 -9.9285793 -3.7184806
55.563023 -18.065668 14.76434
55.434898 -11.068001 -6.4682279
55.434898 -22.52873 -4.3158941
55.661903 -22.709005 -0.96749759
55.434898 -4.8067827 5.6343527
55.434898 -15.671576 0.070399642
55.4534 -19.976406 5.0119658
55.434898 -2.8937006 -1.7675134
55.434898 0.53364325 0.64755619
55.434898 -14.006341 -10.747436
55.4534 -21.927578 7.0366921
55.414101 -22.527927 -12.211456
55.434898 -6.0385466 6.5255127
55.434898 -2.8189733 6.5116582
55.434898 -22.991425 -4.722806
55.4534 -19.47154 3.9315736
55.434898 -15.075191 6.5308771
55.434898 -14.85491 0.073875427
55.434902 -14.120634 -2.0559115
55.4534 -18.618977 -0.023501024
55.434898 -23.394024 -2.9488289
55.434898 -5.960361 1.4802388
55.4534 -20.567221 0.22121748
55.434898 -5.7683077 6.5930352
55.434898 -16.552143 -12.399237
55.434898 -17.09771 -7.029561
55.414101 -21.578117 -13.165253
55.434898 0.87552524 -7.1982274
55.434898 -9.4433861 8.175972
55.434898 -11.519604 6.3032045
55.434895 -1.5216502 -1.4855267
55.434898 -12.128708 -12.232692
55.564796 -18.439438 1.59373
55.434898 -2.4493585 -3.8402352
55.414101 -20.810526 -16.063261
55.434898 -6.3925724 5.4862938
55.434898 -0.1842888 -6.2877393
55.434898 -15.286699 -4.0969176
55.434895 -21.036335 -8.3632717
55.4534 -20.964785 -0.26352045
55.434898 -25.03196 -8.8475084
55.434898 -6.0158482 -11.975517
55.434898 -14.25019 -1.1679716
55.4534 -21.518591 8.3307171
55.434895 -16.037304 -10.329176
55.434898 -17.067627 15.393969
55.4534 -20.884415 5.9861937
55.629478 -18.377909 1.2593548
55.434898 -19.407164 -6.5747724
55.414101 -20.086945 -14.924034
55.434895 -4.1917019 -7.8086782
55.434898 -5.0883045 2.4799285
55.434898 -12.306726 4.556118
55.434898 -15.834071 -4.2170277
55.414101 -24.972052 -11.567551
55.434898 -5.9102311 3.266398
55.434898 -8.853508 6.9650698
55.414101 -21.008942 -12.678116
55.434898 -5.2119923 -8.7854013
55.434898 -3.5502908 -2.2535427
55.434898 -10.080136 14.574266
55.434898 -3.7055814 -3.6861739
55.434898 -14.450362 -4.5337214
55.434898 -5.1443996 -11.614388
55.434898 -23.430155 -9.393259
55.434898 -13.057101 -10.368924
55.434898 -20.322525 -7.2919874
55.434898 -5.4658585 -9.7379837
55.434898 -15.198077 -3.4599295
55.434898 -1.3091599 -5.7872171
55.434898 -14.307638 -13.540771
55.4534 -23.130669 3.1581552
55.434898 -10.832083 -6.4475689
55.434898 -5.4131517 -0.023289353
55.434898 -3.8504019 4.6991014
55.434898 -12.556 -6.386416
55.434898 -17.371504 -0.54944187
55.434898 -18.943239 -5.8789158
55.6413 -19.750429 -10.101673
55.4534 -22.622692 -0.32484943
55.434898 -11.840953 -11.733838
55.434898 -12.347478 8.8005981
55.434898 -8.4966288 -8.2992516
55.434895 -0.34856135 2.7274723
55.641304 -25.600798 -10.584773
55.434898 -12.200016 5.7449608
55.434898 -10.254966 3.0465508
55.434898 1.2564073 -2.6794081
55.434898 -15.957155 3.4012232
55.434898 -12.620255 -14.946702
55.434898 -11.828396 -3.7913475
55.434898 -11.542045 12.069196
55.434898 -11.990998 5.4520693
55.434895 1.553116 -1.4539711
55.434895 -5.2212429 -2.3352263
55.434898 -7.4240198 -13.206587
55.434898 -13.326203 -14.897703
55.434898 -27.063971 -8.000597
55.434898 -2.756181 -5.8996582
55.434898 1.3342472 -2.8145926
55.278603 -0.83700645 -10.719373
55.434898 -6.9923043 -9.9534674
55.434898 -5.6669679 -3.3676956
55.434898 -15.612241 -2.7752581
55.434898 -11.46452 0.28116322
55.434898 -7.3973083 1.6469735
55.434898 1.5056626 -6.9072385
55.434898 -13.23381 -13.199397
55.434898 -13.780932 -1.9350655
55.476387 -17.458973 1.4191515
55.461948 -17.444118 -12.0125
55.434898 -10.270756 0.22188401
55.434898 -14.398409 -4.2097731
55.434898 -6.737916 -5.4831896
55.434898 -13.157564 -8.334692
55.434898 1.0026928 -4.8354988
55.414101 -19.222231 -12.541918
55.434898 -17.133963 3.3991187
55.434898 -14.298658 10.152739
55.434898 -3.0558918 -7.846312
55.434898 -4.8091202 -4.2802935
55.434895 -17.135763 10.959383
55.434895 -13.256522 -2.6607485
55.434898 -8.1099081 -4.2509055
55.414097 -19.421234 -15.200397
55.434898 -15.288801 -6.9138303
55.434898 -5.4471188 -11.20098
55.434902 -0.92358166 -9.1960192
55.434898 -5.980588 -7.881556
55.434898 -13.038153 -0.78006887
55.434898 -12.586206 14.625834
55.456741 -17.435913 -13.111234
55.434898 -10.660524 -1.8875893
55.434898 -6.0967426 -13.089401
55.434898 -14.602773 -4.0146036
55.441299 -1.8633192 -12.641007
55.434898 -13.727674 -13.04743
55.434898 -4.8718233 5.0464406
55.434898 -11.471267 8.6893415
55.414101 -23.464994 -12.768157
55.434898 -15.25872 10.897618
55.434898 -13.354414 -3.396636
55.434898 -13.741513 2.392194
55.434898 -3.5249758 -2.2062926
55.434898 -8.4752607 6.116951
55.434898 -5.8837481 -1.2901998
55.608932 -20.952011 -0.78100729
55.434898 -15.403209 1.9722677
55.434898 -2.5272555 -1.9265158
55.434898 -15.291096 -3.9351819
55.434898 -17.266756 -8.2566128
55.434898 -4.1745539 3.4975674
55.434898 -26.940653 -9.1876755
55.603172 -1.9318857 -12.23909
55.434898 -11.679164 -10.744861
55.4534 -22.373465 1.2937036
55.434898 -9.4321756 -9.1772509
55.434898 -9.7520103 -12.310602
55.434898 -18.585854 -7.3845825
55.490566 -22.277765 8.7947826
55.602402 -17.965687 14.833142
55.414101 -20.087685 -15.063361
55.434898 -9.7753983 -12.475607
55.434898 -18.891516 -8.7346087
55.6413 -20.645546 -10.25773
55.4534 -20.48711 3.1967795
55.434898 2.2439876 -3.4419804
55.434898 -15.214102 -9.6737137
55.434898 -11.403655 3.2169218
55.434898 -15.160035 -3.5068569
55.434898 -18.013454 -8.0467672
55.434898 -3.074873 -7.9541683
55.468979 -17.454056 2.2539387
55.434898 -13.611598 -5.6737604
55.434898 -10.679933 14.909554
55.434898 -11.330694 3.7432284
55.434898 -18.873775 11.401251
55.434898 -13.893871 -3.2675509
55.434898 -4.8981686 -9.1789303
55.434898 0.8433488 -9.599947
55.434898 -26.737616 -9.6918325
55.434898 -17.162697 -11.699663
55.414101 -20.331345 -12.954296
55.434898 -0.10126859 0.069381237
55.434898 -17.630236 12.745753
55.434898 -12.590033 1.3693256
55.434898 -14.80158 -13.557999
55.434898 -9.9276276 13.015456
55.414101 -21.666239 -11.650202
55.414101 -18.92248 -11.756389
55.434898 -8.2612362 9.4525776
55.434898 -7.5083003 -5.9848909
55.414101 -18.542984 -12.8943
55.434898 -4.9048853 4.240809
55.434898 -12.733994 12.292826
55.434898 -23.005615 -8.1393566
55.4534 -21.855257 0.27733007
55.434898 -6.5121927 5.3658314
55.6413 -17.982803 -13.844658
55.4534 -19.898985 0.10814267
55.434898 -3.2858822 -7.2536492
55.434898 -16.789452 -10.479506
55.434898 -15.554778 -15.330007
55.434898 -2.1921864 6.9557519
55.434898 -19.206337 -5.5471911
55.434898 -24.23876 -7.9901638
55.434898 -6.3205738 10.28489
55.661903 -17.994719 -0.92776299
55.434898 -18.04043 -3.4751015
55.661896 -17.786537 5.9368582
55.434898 -9.9633331 11.570135
55.434898 -12.041906 9.4739838
55.4534 -21.601456 8.5564976
55.434898 -14.450147 -2.5732741
55.434898 -10.915142 -9.5216141
55.434898 -2.5545328 0.21622586
55.453403 -20.632589 2.6604726
55.434898 -17.311226 -9.9313202
55.6619 -18.310127 3.659991
55.434898 -6.8664875 -6.7445955
55.414101 -22.428764 -12.377122
55.434898 -20.62516 -6.5956655
55.4534 -19.865608 2.0411818
55.434898 -17.110811 -5.9282928
55.434895 -15.4591 -1.3500186
55.434898 -7.579864 -12.46255
55.515697 -18.382998 -12.360831
55.434898 -15.76639 -10.297701
55.434898 -19.818266 -5.5345697
55.434898 -9.6953678 -7.1247787
55.434902 -19.79253 -8.7363167
55.434898 -13.590434 3.3971813
55.434898 -7.893363 -7.0432425
55.596752 -26.075403 -10.682814
55.434898 -12.615278 -11.481192
55.434898 -2.5195074 1.0200802
55.434898 -17.354036 5.8043094
55.691502 -0.031436861 -10.44873
55.434898 -4.2241364 -0.93846524
55.434898 -8.5313187 -8.6880741
55.434898 -11.017498 -3.1178298
55.434898 -6.0311918 -5.4617715
55.434898 -16.140514 0.014678121
55.434898 -0.083072186 4.3842812
55.434898 -5.4557981 4.5506186
55.434898 -6.5298581 -8.8279743
55.4534 -21.006672 3.6026571
55.278603 0.44319069 -11.208524
55.434898 -10.250134 13.70274
55.434898 -18.484819 11.199697
55.434898 -21.99103 -6.5222702
55.434898 -6.1165576 -3.0470996
55.434895 -15.912091 -1.0638299
55.434898 -12.832479 -14.192278
55.434898 -12.513453 -11.506053
55.434898 -14.25887 5.7014046
55.434898 -11.173887 8.9948711
55.414101 -22.699631 -13.330616
55.434898 -15.033195 -4.7602654
55.434898 -13.157319 -11.697216
55.434898 -6.4080257 3.7513356
55.434898 -18.662792 11.340611
55.434898 -8.9550171 13.695251
55.434898 -3.3793883 2.9952891
55.434898 -10.373715 -0.83019054
55.434898 -25.150576 -4.062789
55.414101 -20.324722 -11.745002
55.434898 -14.640586 1.9921538
55.434898 -1.5375762 -5.1028538
55.65406 -1.9534403 -12.551551
55.522991 0.14874852 -10.555179
55.434898 -7.6967096 8.8648005
55.434898 -0.90132952 -0.9087466
55.434898 -3.3481202 6.2772326
55.434898 -2.0510707 -9.350318
55.434898 -18.723032 -9.4404869
55.434898 -11.309002 -10.627317
55.4534 -21.861519 2.4835663
55.434898 -17.833757 -8.260335
55.434898 -14.534599 -5.783741
55.434898 -20.641512 -4.7418408
55.434898 -4.9879246 -8.2050772
55.434898 -9.6255693 -3.0732903
55.434898 -18.855785 -4.4657345
55.434898 -4.5170202 0.21498756
55.434898 -1.9689455 3.9889355
55.434898 -6.1892486 5.4934716
55.434898 -7.8139257 10.978922
55.434898 -8.5842361 -8.719655
55.434902 -11.271674 -10.472754
55.434898 -3.9285865 8.6348581
55.434898 -6.779057 11.916958
55.635765 -18.279953 -13.489866
55.434898 -15.90435 7.8572531
55.434898 -6.5229254 -12.718044
55.434898 -13.214359 7.8038473
55.691502 -0.78603709 -10.465435
55.434898 -16.347868 -4.8868017
55.4534 -18.83296 2.1127572
55.434898 -12.832735 -1.167079
55.4534 -21.473953 3.749687
55.434898 -7.1787758 12.567694
55.434898 2.4409847 -1.8520775
55.434898 -5.060576 8.826375
55.661903 -18.340237 6.4250379
55.4534 -20.814209 7.8784871
55.434898 -5.6044712 3.0091245
55.434898 -1.4361446 2.0451853
55.481163 -22.055889 -0.66114575
55.434898 -11.388885 1.9991114
55.434898 -11.836763 -13.135953
55.434898 -10.290854 -9.6410837
55.434895 -17.9795 -7.9013529
55.434898 -4.795886 -5.9743948
55.414101 -21.455626 -14.146458
55.6413 -20.295849 14.966108
55.414101 -22.090605 -14.046873
55.434898 -0.099066287 0.4361099
55.434898 -11.119633 -1.7221771
55.434898 -2.189764 2.7996006
55.434898 -21.335222 -6.2307835
55.434898 -12.968688 2.6350932
55.434898 -8.4024248 -6.6877785
55.434898 -7.8528814 -4.8555808
55.434898 0.5666458 -1.3715227
55.641296 -20.35021 15.07795
55.434902 -9.5224457 -10.027458
55.434898 -4.551878 -3.3122826
55.434898 -4.9406915 -0.47613764
55.434898 -9.6812925 -8.6733437
55.474632 -17.520336 15.485579
55.434898 -7.3101554 -12.685245
55.434898 -13.7145 -5.326757
55.641304 -25.200924 -10.57592
55.434898 1.4437112 -0.50085092
55.635101 -19.738384 -0.80555892
55.434895 -14.924913 10.192968
55.434902 -6.6559319 -0.66030657
55.434898 -21.677246 -2.3507175
55.434898 -4.7856197 -12.17492
55.434898 -6.0797391 11.273111
55.434898 -8.2307167 -13.207949
55.434898 -9.4013023 -13.93759
55.434898 -19.876705 -7.1177835
55.434898 -5.6628199 -10.37942
55.434898 -9.9916725 -0.021035135
55.434898 -3.0984769 -5.941443
55.434898 -4.9416089 9.1882973
55.434898 -10.921318 -10.246877
55.434898 -12.530265 4.7025967
55.434898 -16.071939 -11.807374
55.434898 -11.558163 5.7006707
55.434898 -10.622847 6.5939007
55.434898 -10.455417 10.896389
55.434898 -6.8184357 -13.011126
55.434898 -19.361605 -4.4538803
55.434898 -6.7117419 -12.320232
55.434898 -19.508141 14.483342
55.434898 -2.3224564 0.22524178
55.434898 -1.3109344 -4.7334495
55.434898 -3.4903798 -1.6964591
55.434898 -20.072403 -7.2556572
55.434898 -26.225002 -7.3934669
55.434898 -6.9808073 8.1444225
55.4534 -19.031517 7.4589205
55.414101 -18.860788 -14.343357
55.434898 -10.417402 -13.2192
55.434898 -18.73209 -2.5791409
55.434898 -11.804518 -9.7652187
55.434898 -12.4096 5.0683961
55.434898 -24.507597 -6.6717167
55.434898 -20.219542 -5.4470406
55.434898 -21.830736 -8.0494995
55.4534 -21.420996 1.5716215
55.414101 -19.449356 -13.626322
55.434895 -18.641062 10.57596
55.434898 -1.5937231 5.727881
55.434898 1.4997013 -3.5668259
55.434898 -10.95863 -2.4408181
55.434898 -16.525255 -3.6145644
55.434898 -9.0607224 6.6262999
55.434902 -6.7658377 7.5587807
