# .PCD v0.7 - Point Cloud Data file format
VERSION 0.7
FIELDS x y z
SIZE 4 4 4
TYPE F F F
COUNT 1 1 1
WIDTH 1561
HEIGHT 1
VIEWPOINT 0 0 0 1 0 0 0
POINTS 1561
DATA ascii
-12.003646 25.670717 29.39731
-18.110977 15.229996 39.00975
-10.700191 14.43861 39.676544
-6.5703173 27.398634 29.776447
-18.138391 15.231058 42.069107
-20.259212 16.389008 38.655758
-6.8888397 23.465763 36.339226
-7.9510427 23.454075 36.355141
-16.698593 21.379986 35.138641
-10.86689 19.434856 43.05323
-17.214111 15.227484 29.381151
-14.297646 6.3559132 28.117783
-19.673168 15.234372 27.79105
-14.368398 22.005941 38.487656
-19.9683 15.803744 35.64048
-2.880827 10.530355 40.009102
-15.030636 22.903774 29.497877
-10.994379 21.015572 40.414623
-14.29475 4.4887123 36.030727
-19.635113 15.234266 37.016239
-2.3939872 14.282955 39.706127
-11.285912 6.0864487 39.692772
-1.5154505 15.221811 40.596901
-9.3411903 16.689926 46.491905
-4.829596 19.208099 43.452126
-5.8258114 20.481838 41.322914
-14.296463 3.3674252 31.329903
-2.064158 19.544693 42.899727
-16.420755 21.140339 38.793457
-14.298077 14.114233 26.944771
-6.1130886 20.872641 40.669704
-14.078099 6.8401661 39.659561
-3.4439697 16.427151 45.90493
-12.940312 24.814741 30.84322
-8.0957003 7.7869644 39.730717
-1.8197331 23.524612 36.258171
-6.4841418 19.86879 42.343849
-5.6655998 13.809538 39.699532
-14.468867 16.537706 46.343575
-4.8234739 26.275116 31.657482
-5.8707409 15.231272 44.001404
-9.5141306 25.635681 32.708801
-15.047171 20.966787 40.482319
-8.5176964 26.155685 31.844299
-18.095768 15.229954 29.392717
-12.254862 24.295834 34.351048
-10.585058 23.778557 35.804661
-6.9120321 27.989132 28.789761
-9.6469803 22.56448 37.834103
-14.293869 8.9044313 38.53727
-5.5544133 9.0442829 39.98671
-1.8069329 16.47427 46.115772
-14.295878 15.169382 33.052086
-14.294983 3.4988582 35.373936
-11.797653 4.7074361 39.686687
-14.60248 15.226027 42.098347
-17.172455 20.947317 38.261158
-6.0119481 25.567438 32.834557
-16.611479 21.458847 30.224325
-14.293551 14.453339 39.500801
-10.56858 17.082699 46.487747
-13.235207 10.505969 39.66959
-14.311781 10.957558 27.013958
-11.851871 1.911165 39.686039
-19.9683 15.417341 38.590946
-17.472471 15.228208 35.343407
-15.354744 15.22227 31.943975
-11.826541 8.7401199 39.686344
-14.293974 7.4265423 38.226761
-15.561148 15.22285 32.33646
-12.640498 24.97859 32.138134
-12.094641 6.6840458 39.683155
-11.292009 1.6111434 39.692699
-7.2528629 24.699377 34.279121
-10.20204 3.0150719 39.705666
-8.5725822 23.975142 35.483387
-20.951832 17.014585 44.528816
-8.0540409 14.700863 39.683022
-10.418729 24.647812 34.354462
-8.7134981 3.5439968 39.72337
-16.569422 15.225674 26.399317
-14.297241 8.5170679 29.214401
-16.408245 20.47863 40.614285
-19.9683 16.323101 27.126787
-8.8737679 14.177221 39.685196
-16.599556 16.550154 46.389473
-19.581839 15.234117 33.823742
-6.8613682 23.072163 36.996227
-9.8798351 17.642031 46.048752
-11.22427 19.88043 42.308369
-7.1650991 4.3827572 39.741787
-14.294555 6.6899915 36.609673
-3.2112086 12.289767 39.722878
-12.332092 6.0175185 39.680328
-10.676399 26.279888 30.513231
-21.054085 17.399647 41.508499
-5.1202512 3.4890459 39.596298
-14.294833 7.3527112 35.846558
-16.995968 15.226872 29.818546
-14.714729 19.427795 43.051983
-14.297011 15.08323 29.905306
-12.522381 21.560482 39.500011
-5.6273279 25.549721 32.865425
-7.489615 15.222254 40.734661
-21.0779 17.181141 39.725788
-14.296562 7.458456 31.065916
-14.295053 11.012815 35.29805
-8.389595 1.2663891 39.727222
-4.6569948 14.179136 39.699448
-16.760414 15.231077 43.499344
-2.9941692 15.23172 44.164169
-5.5473447 18.461842 44.695183
-11.693511 3.4857907 39.687927
-12.978476 23.596317 35.536446
-5.9766922 14.149638 39.695259
-16.393068 21.658443 29.884935
-11.339558 15.225124 41.770481
-12.713649 15.22752 42.63987
-20.355801 18.03805 42.176613
-14.295072 5.0162001 35.153
-11.713299 15.074279 39.667107
-6.0829163 21.653252 39.366989
-14.234335 23.631435 27.994633
-9.8857841 15.220541 40.115055
-13.107104 19.176239 43.477272
-3.0612819 15.226666 42.330601
-14.295328 7.791357 34.484566
-20.785198 17.644508 35.587742
-14.295037 6.3255281 35.26564
-6.0439606 16.480019 46.12595
-7.5548215 6.4037228 39.737152
-14.294828 4.7484894 35.820957
-14.295445 7.6981516 34.161182
-20.622482 16.468775 34.648911
-2.2877111 5.68999 39.596298
-12.126646 15.228621 43.039276
-13.617779 11.470582 39.665043
-16.142639 15.22448 30.476357
-15.191645 19.561949 42.826473
-15.921724 22.09005 34.709251
-14.295722 12.914549 33.472649
-19.222685 19.071966 30.28368
-2.1032104 9.5814552 39.596298
-20.564331 17.845154 27.602436
-19.27647 19.02326 33.211269
-18.366903 18.873953 43.033813
-11.207773 7.2708502 39.693703
-19.9683 15.672533 41.969872
-18.29825 15.230522 30.829956
-5.2845607 15.231815 44.198982
-9.8343372 2.1922021 39.710037
-10.217361 24.759459 34.1688
-14.295254 13.883778 34.779305
-14.55045 20.608822 41.08144
-14.294715 12.957246 36.261757
-3.4551253 5.9214492 39.596298
-14.456231 10.802227 26.397264
-1.6969752 14.644632 39.705067
-4.8120246 15.230176 43.603611
-20.174126 16.381025 43.048065
-17.335651 15.227823 27.789062
-21.076046 16.808735 28.889942
-20.134291 16.361622 38.825726
-14.29758 13.194187 28.317184
-6.0978422 23.466316 36.340977
-17.267706 15.227632 26.050449
-11.093805 17.107552 46.48597
-2.0129871 15.38358 45.427036
-10.344506 15.45709 45.426998
-19.9683 16.261028 32.59996
-17.489149 20.657505 36.180824
-7.2346807 8.3986588 39.740959
-8.9558678 15.449753 45.427006
-8.7599821 6.0885072 39.722816
-21.078672 16.610638 44.24902
-13.429043 4.7220163 39.667282
-14.295419 9.6842508 34.263748
-20.496674 16.441364 28.844238
-20.159336 17.288677 45.324139
-19.279755 15.233271 40.422451
-2.9687352 7.3467345 39.596298
-20.403248 17.994286 39.660419
-20.376726 18.018784 41.297325
-14.29738 8.527648 28.834705
-9.4332466 14.349512 39.681671
-16.774271 19.267408 43.312695
-0.58630943 23.300446 36.636478
-9.6567163 24.103725 35.265106
-1.4412394 15.226861 42.400978
-6.0148854 15.229464 43.3447
-3.422699 19.8211 42.433807
-14.297451 6.3857708 28.645809
-14.294673 5.4655223 36.26062
-13.908387 11.905755 39.661583
-9.0903711 15.225479 41.899258
-11.526617 19.32818 43.229034
-19.665901 15.234352 35.738358
-10.77832 2.5534649 39.698811
-17.705397 20.460194 38.489666
-14.293819 2.1159806 38.570683
-14.677116 15.232215 44.343727
-15.88784 22.119894 27.479259
-5.7766151 4.8845925 40.009102
-15.101203 22.84005 34.474342
-19.9683 15.379362 25.999882
-20.081528 16.349974 41.039436
-8.0489101 2.4602242 39.731274
-13.959433 23.882891 29.077038
-13.909861 4.8428187 39.661564
-0.39804256 10.935028 39.789772
-5.1492558 16.52639 46.326851
-2.0770369 16.45574 46.035801
-15.444151 15.283028 45.426998
-14.657168 16.559813 46.43726
-1.6037211 21.699871 39.304352
-9.1740036 12.039171 39.717896
-14.406842 15.219611 32.538887
-18.986677 16.538523 46.145023
-12.693915 23.950493 34.854153
-7.5263271 22.228849 38.401443
-13.596175 23.877838 34.147224
-19.110622 15.232797 30.338844
-19.9683 15.609803 32.908253
-10.663727 26.895365 28.338974
-14.752684 15.230013 43.545052
-14.295258 9.2407694 34.703583
-16.785591 19.225662 43.382324
-21.07621 16.630106 29.845963
-12.934754 18.342749 44.868927
-15.734387 15.223337 38.833954
-5.5182457 16.351871 45.552422
-17.227547 17.956356 45.499271
-14.295302 3.1947064 34.486168
-19.935036 15.235107 26.880175
-13.978563 2.3990459 39.660748
-11.291338 15.227732 42.716515
-14.29715 4.3836236 29.468224
-18.928886 15.673932 43.560211
-14.293476 9.2968302 39.632206
-14.297647 9.0587292 28.114677
-14.293715 3.9525552 38.889099
-14.293702 3.8070288 38.920776
-4.0220208 10.558678 40.009102
-6.9797254 6.0468407 39.743988
-3.8390603 16.497387 46.207531
-14.297407 6.3690472 28.763498
-4.0021687 24.228643 35.075775
-15.821358 15.22358 34.503685
-14.945601 22.981846 31.671503
-21.036457 17.415747 41.425701
-19.046642 15.232616 34.072334
-9.0014496 2.9010007 39.719944
-12.449346 8.8331795 39.678936
-19.9683 15.955113 33.14069
-13.843801 5.7658358 39.662354
-14.295569 14.796535 33.909367
-11.752476 15.222178 40.701633
-13.336478 20.133041 41.879612
-19.993729 18.367945 35.305401
-16.504904 18.956861 43.831898
-14.294806 9.415864 35.95433
-19.263453 19.036434 41.383945
-9.521265 8.4337969 39.71376
-14.296053 12.059378 32.547745
-9.7469854 20.098743 41.949013
-16.741352 15.230141 43.010731
-9.097683 16.196808 45.427063
-18.52124 15.231146 38.234474
-20.703672 16.514051 44.121994
-14.296803 10.170062 24.965752
-12.161682 24.518894 33.834991
-1.5900071 9.9709568 39.596298
-17.494261 20.653032 37.457531
-15.378208 15.225211 41.743439
-14.296204 6.5162086 32.041412
-17.116642 15.227208 25.842852
-14.297029 5.795248 29.793037
-14.297025 15.076359 29.867182
-4.2129583 13.705963 39.705425
-14.293678 4.4871359 38.999718
-9.5659771 21.407022 39.766144
-12.024404 23.814783 35.739326
-3.2603226 9.1162739 39.596298
-18.714537 18.031082 44.988285
-14.294536 2.2941451 36.591171
-13.480213 15.225942 42.067036
-20.470139 16.435194 39.767067
-19.9683 15.621232 35.269131
-0.87132072 23.553429 36.213295
-2.8178055 15.222971 41.006523
-16.017653 15.224131 34.923378
-13.459033 24.340876 32.738182
-3.3991623 16.727633 46.512028
-5.6599278 19.680578 42.660759
-3.3924098 14.831188 39.697563
-18.77269 15.231851 25.799431
-11.747143 19.225594 43.399502
-9.9731522 23.498436 36.274246
-17.00293 20.257576 40.621563
-14.293909 8.2099133 38.41713
-14.294049 4.0217938 37.963631
-4.1740303 15.505081 45.427017
-14.297076 13.207701 29.717026
-19.449524 15.233747 38.944302
-20.947697 16.540207 30.509565
-20.484419 16.438303 40.298454
-12.825312 11.216356 39.674465
-2.8554707 17.77932 45.843403
-4.4717369 21.23946 40.063049
-13.264655 24.517981 29.057974
-5.2041121 22.862625 37.351555
-15.643861 18.245508 45.022041
-14.295955 14.695438 32.838356
-7.6679287 2.2132344 39.735806
-10.246189 15.228702 43.068813
-19.178743 15.232987 39.50745
-11.885855 23.303753 36.59269
-17.05332 16.476219 46.072464
-6.2916632 7.9947114 39.752174
-14.295992 10.951008 32.697392
-20.389156 16.548981 44.859131
-14.296244 12.785605 32.028183
-14.295775 12.299384 33.319614
-13.261985 23.389423 35.81731
-14.298672 12.860819 25.285519
-6.6841249 24.017006 35.41991
-18.878401 15.232147 35.832283
-2.1874652 12.703838 39.721756
-14.297447 7.627305 28.656166
-1.8362064 24.521362 34.594566
-14.41162 15.219628 36.21085
-2.2275424 12.142998 39.726921
-10.039095 2.6453581 39.707603
-18.535767 15.231187 31.560202
-9.6633358 20.86474 40.670868
-2.7651522 13.447651 39.712769
-17.960312 20.226143 31.848648
-13.076565 21.556171 39.505329
-15.552889 21.610041 38.38084
-14.1245 8.467905 26.346214
-18.538109 19.69846 34.925468
-4.4649434 16.556755 46.458725
-2.1738658 24.739746 34.228951
-4.9013448 25.977003 32.154762
-17.021816 15.226944 27.752605
-14.295098 3.0125182 35.045021
-9.9360704 15.225092 41.758713
-6.1462798 8.468483 39.8703
-8.50315 15.225532 41.918377
-10.254513 9.7681551 39.70504
-19.537708 17.781126 44.845253
-14.298214 15.093977 26.564804
-18.11466 20.085438 34.332092
-14.295591 14.236986 33.847752
-18.303608 19.842632 40.457901
-1.2064557 13.932266 39.713459
-8.1372566 1.0540371 39.730225
-0.28595829 23.480461 36.337051
-16.799791 15.226322 31.946129
-5.655139 15.23469 45.241833
-19.9683 16.104935 40.247997
-1.928103 21.457666 39.707485
-6.9039845 25.603907 32.770672
-9.5552769 4.7407408 39.713356
-10.61059 15.221912 40.604809
-14.716658 21.870342 38.508717
-4.3219748 16.158348 45.42704
-18.553169 19.683952 30.198061
-8.0895796 27.018131 30.406349
-10.201743 1.6359494 39.705669
-14.29423 12.621117 37.597115
-14.296159 7.9181685 32.191017
-18.213867 18.748287 43.5308
-9.7896814 4.8920531 39.710567
-12.846675 14.615959 39.670567
-9.5107365 25.023878 33.729893
-9.3896732 13.867745 39.687393
-1.9097915 12.938461 39.720478
-18.319895 19.898758 40.243137
-10.263465 8.462224 39.704933
-14.11862 23.738007 33.094891
-16.834373 21.25592 35.463051
-14.293577 11.824181 39.391762
-11.1707 24.780373 34.114944
-4.3056006 24.093468 35.300354
-14.1245 9.2021742 26.133202
-16.468052 21.590221 31.94063
-9.2334461 22.120451 38.576576
-6.2994971 12.390627 39.720612
-6.379343 11.972631 39.730007
-6.4455609 21.989559 38.804474
-13.319154 19.525822 42.893105
-15.45742 15.222561 35.165737
-4.2372017 25.934565 32.227837
-14.276203 18.816666 44.073429
-14.293617 5.9233732 39.188461
-14.34305 7.886168 26.914146
-4.2090993 20.102776 41.96104
-14.296446 14.825861 31.471704
-10.081056 15.221271 40.374729
-17.703188 20.462248 38.713398
-12.982951 24.642693 32.706497
-17.263128 15.227621 27.890236
-14.295165 3.3830323 34.868744
-2.6927795 15.22896 43.162605
-3.8587201 15.226345 42.213444
-9.1935902 12.21876 39.717663
-21.077541 17.005579 37.627495
-17.758221 15.229008 30.762486
-5.0609818 24.031931 35.400494
-20.665966 16.498283 43.969543
-19.9683 15.562985 29.799778
-16.356312 15.22508 37.821045
-14.296126 10.734804 32.322567
-1.903264 24.82114 34.094025
-14.29362 2.3620114 39.12542
-8.0892315 23.744995 35.869125
-19.9683 16.23868 28.859516
-13.256567 23.723698 34.909271
-9.376853 22.78693 37.463753
-14.294069 3.0005379 37.893688
-14.297213 5.3212223 29.292011
-3.406929 22.821014 37.427086
-14.295319 4.3118553 34.459545
-14.296438 9.4123192 31.437241
-20.137043 16.431143 43.69009
-12.396791 15.23359 44.842644
-10.384639 27.027256 28.81682
-4.7253423 15.22899 43.173424
-10.751824 15.868843 45.427036
-14.068457 1.9866619 39.659679
-1.281961 20.216553 41.781059
-6.6667061 23.281731 36.647121
-14.297394 5.6252794 28.802998
-3.7104101 25.568253 32.840992
-11.37817 4.6084089 39.691673
-14.293751 2.3022609 38.761993
-13.726501 15.223362 41.131256
-11.119027 11.699621 39.694759
-6.400732 15.233257 44.721992
-17.690609 15.228819 36.176773
-11.905464 25.760471 29.431641
-5.1619811 12.721983 39.713158
-14.782857 15.220661 28.054039
-11.025377 17.99614 45.453873
-14.297264 5.9015036 29.157478
-14.294223 3.5682981 37.476151
-11.616034 22.212667 38.4146
-4.7343674 23.471811 36.336426
-14.655426 15.220303 26.680704
-2.0654967 24.437338 34.734032
-3.8097844 19.74641 42.557156
-14.298889 11.034147 24.677187
-11.177089 16.874651 46.485687
-14.295322 3.6732845 34.439861
-11.728266 12.467413 39.687515
-7.106204 17.752487 45.873795
-12.594513 20.82723 40.723545
-19.932596 18.423716 34.615372
-3.1098375 10.87292 39.851707
-1.6598191 15.220808 40.238129
-5.8954544 3.0705345 40.009102
-11.287081 18.248356 45.032043
-13.646347 19.752045 42.514439
-17.626307 15.228638 27.339184
-14.295109 5.0304508 35.048622
-19.865372 15.234911 28.098503
-14.815936 23.099964 29.07719
-16.478188 15.228502 42.393898
-14.297116 5.707046 29.556265
-14.031985 21.411287 39.7439
-12.173586 17.32851 46.482315
-14.29357 14.18411 39.450069
-3.1485455 9.1886377 39.596298
-1.0418282 25.204363 33.457352
-20.383505 18.011425 33.859898
-4.9897189 26.325277 31.5732
-17.266184 20.861465 37.154346
-20.001211 18.361132 35.47607
-12.005042 15.983985 45.427055
-15.628094 15.232673 44.509548
-17.239372 15.227554 28.511196
-13.375799 15.226103 42.125519
-16.584438 21.124702 38.671921
-13.980708 23.312069 35.307419
-14.297045 5.2048559 29.750351
-8.7506762 16.115383 45.427055
-13.401484 9.1986675 39.66761
-3.5256102 24.810171 34.106831
-16.776249 15.226255 28.500345
-10.499002 9.9304876 39.702133
-14.295591 3.0495694 33.699978
-20.186823 18.192402 41.467697
-20.254333 18.129103 31.322876
-14.29447 2.2927561 36.772404
-13.169931 1.8282257 39.670364
-19.9683 16.209709 28.955029
-18.503563 15.231096 30.440956
-1.6816788 15.220519 40.134781
-14.323036 10.082525 27.66988
-1.0314512 22.222347 38.434288
-3.474623 26.446533 31.375957
-14.296246 12.720646 32.023109
-9.0550976 3.2302096 39.719307
-15.240654 15.221954 40.094826
-16.179359 15.233142 44.680199
-18.197128 20.010475 37.022224
-14.5373 7.6653419 27.224653
-12.280173 15.229643 43.410278
-20.220196 18.161591 39.512623
-16.23325 15.224732 29.239046
-4.593791 18.133556 45.246311
-14.295228 7.157012 34.752663
-14.1245 8.6723261 26.034367
-4.0815821 26.083965 31.979023
-15.168036 15.221751 38.083572
-9.4783297 5.9726353 39.714272
-14.195817 16.339962 45.496681
-12.009434 7.1533785 39.684166
-6.1169095 10.738004 39.899593
-4.6175818 3.7807794 39.596298
-15.644295 15.223085 38.684315
-14.830378 15.22846 42.981308
-18.009562 20.182343 39.658619
-13.652468 23.792152 34.324886
-14.294836 12.584616 35.920258
-7.9570732 12.719419 39.713215
-19.984665 16.328701 31.238403
-7.4353366 13.746037 39.694141
-10.163805 1.2150381 39.70612
-15.465608 17.983295 45.46027
-6.8943219 28.245962 28.361181
-18.469328 19.76096 32.539196
-20.873013 17.564022 34.201656
-20.757248 17.670813 40.417065
-0.4794569 22.787827 37.492386
-2.1022468 15.228854 43.124191
-12.19779 25.132212 32.126495
-4.0690522 15.23076 43.815887
-19.610453 18.718876 39.018456
-11.180275 15.222933 40.975262
-15.323731 15.222187 36.308559
-15.425768 15.222472 37.303406
-2.1345553 20.432554 41.417671
-7.4675312 11.175013 39.73819
-9.6850719 15.220558 40.121723
-20.863056 16.521608 31.806183
-18.722021 19.530371 35.083668
-19.9683 16.231668 31.25617
-8.7146826 22.956823 37.182446
-13.070501 22.073757 38.641514
-14.298241 14.665602 26.488201
-14.296866 12.523684 30.296043
-13.49599 17.558975 46.175121
-6.5342789 15.130475 39.684101
-14.295131 2.4993491 34.953079
-8.2871122 21.183434 40.143639
-16.414085 15.225242 30.819384
-11.692329 13.562138 39.687939
-10.049619 14.556839 39.677628
-14.294487 10.586068 36.858345
-5.5129681 4.4779248 39.888893
-11.351767 26.266392 28.094217
-10.118984 23.211588 36.752499
-14.295341 10.261432 34.48838
-11.757126 15.222219 40.716095
-16.400423 21.652851 37.132801
-18.217266 15.230294 32.315582
-14.298718 12.449987 25.154732
-3.7646999 19.449629 43.052628
-5.2026916 7.5517263 39.596298
-19.968302 16.217226 41.750477
-14.296448 3.5307128 31.373516
-19.812609 18.534565 42.08593
-2.6535745 20.285809 41.660828
-11.636915 16.526711 46.306244
-18.114555 15.230005 33.639687
-14.294424 4.1532717 36.931389
-6.649569 16.564047 46.482445
-14.297968 13.391339 27.244724
-9.1839638 15.221324 40.396965
-9.2587643 19.657394 42.687271
-14.078043 23.774483 29.156096
-2.7038202 20.222803 41.765812
-7.0881214 5.6283464 39.742702
-11.064237 15.226315 42.202526
-14.295041 4.9982157 35.235962
-14.29381 12.594481 38.760754
-9.034502 22.859055 37.344536
-2.6382887 10.170437 39.769485
-14.293928 8.6105852 38.371429
-17.748989 15.228981 28.755905
-15.243394 15.221955 30.63607
-7.4979148 11.445219 39.737827
-14.294926 3.7556083 35.536453
-11.172957 25.827438 31.251331
-16.052685 16.440033 45.92144
-12.005131 25.669485 30.206837
-1.4604406 8.3831444 39.596298
-2.9108176 14.309719 39.704124
-19.9683 15.715907 41.401154
-12.07024 14.172466 39.680542
-8.398922 24.777555 34.144764
-10.271793 6.9873252 39.704834
-15.346563 15.22225 34.150631
-3.1945939 6.7367816 39.596298
-13.893148 23.943371 28.366383
-16.722385 15.226107 31.022324
-9.5195198 18.333652 44.895676
-1.5507939 8.6710968 39.596298
-8.5829744 15.220184 39.991974
-14.296174 14.279118 32.229198
-16.434933 15.232748 44.536861
-15.976565 20.751169 40.302723
-2.8978927 15.229983 43.534126
-20.549408 16.452969 27.435703
-16.789223 21.296701 32.312809
-3.4924393 24.553162 34.535889
-2.4408803 23.334248 36.573784
-16.349699 20.227741 41.35865
-14.297703 9.3412657 27.960419
-8.948225 24.770445 34.154774
-18.679886 16.279188 43.903923
-15.229939 15.221914 26.716976
-10.686858 15.230824 43.838699
-6.0807853 17.344542 46.502945
-13.649906 24.166077 30.674019
-11.347191 2.9708357 39.692047
-14.297378 10.081839 28.850985
-8.8574591 15.230968 43.891308
-18.883921 18.858692 42.556664
-14.989535 22.942232 35.17522
-19.9683 15.640644 32.865685
-14.296 14.526011 32.713718
-20.646919 17.771053 36.50584
-2.6611571 7.37217 39.596298
-21.020811 17.429989 41.040092
-17.414854 15.228046 40.461716
-9.3215885 24.316017 34.911934
-8.9196587 19.843374 42.378017
-14.297197 8.2209969 29.33626
-14.297436 11.09301 28.704603
-14.29643 14.302687 31.515614
-13.17303 9.5224676 39.670326
-4.513227 20.695118 40.971397
-8.6022358 17.9049 45.614361
-9.206502 20.824715 40.739212
-14.80257 23.112759 32.766945
-16.896713 15.226595 33.856483
-3.8236623 26.27906 31.654287
-3.3071833 16.373178 45.652191
-3.7891536 21.943531 38.890289
-7.7103052 13.679039 39.693844
-16.140812 21.889404 32.275558
-19.072229 18.820478 42.472103
-4.3973289 15.229368 43.310402
-2.9738774 5.728786 39.596298
-4.7445378 9.5702343 39.596298
-14.295812 7.9624977 33.151245
-14.293917 11.259359 38.441078
-13.044535 15.2244 41.507454
-13.772466 14.037927 39.663197
-17.545143 20.605917 33.60743
-14.298194 12.986986 26.609888
-3.2580378 15.882647 45.42701
-19.493967 18.825487 39.877926
-4.7568521 15.224205 41.440437
-14.295995 9.158885 32.660721
-19.629505 18.701424 38.789867
-12.754698 16.42083 45.85067
-14.764377 15.220609 25.908367
-6.5880189 24.090118 35.298214
-14.295912 5.7917137 32.840004
-12.155648 20.353306 41.515995
-4.8459015 22.943861 37.217186
-18.691195 19.559254 39.579975
-2.5313027 11.267941 39.745853
-6.5327854 15.231082 43.932415
-6.251225 13.842757 39.697235
-15.549189 15.230597 43.756485
-10.169854 27.346767 28.054104
-17.276981 19.50609 42.40015
-14.909509 18.763399 44.160183
-7.7710166 26.263241 31.667322
-2.3375673 11.115848 39.749271
-0.29683155 7.4872704 39.596294
-14.296209 4.5636978 32.019821
-14.29512 8.7134552 35.076168
-14.293591 6.6884069 39.275475
-19.023479 19.254869 35.47168
-1.5009198 23.308241 36.620369
-7.8582044 17.578373 46.161839
-20.175335 18.201933 35.272709
-18.042046 20.15213 36.346241
-8.5836067 15.224079 41.391247
-20.901331 17.078213 44.579498
-11.201278 17.994637 45.45578
-21.077017 17.352591 34.566563
-10.133159 14.619536 39.67675
-14.296463 3.1270728 31.329914
-14.293728 5.2732925 38.87381
-5.4926863 15.233732 44.894348
-14.296516 10.828732 31.245155
-21.078047 17.091684 40.591362
-14.297132 13.002999 29.563248
-16.572769 15.225687 38.745235
-8.5571117 2.4005141 39.725231
-5.2975016 16.32552 45.429024
-20.655533 16.476158 30.935738
-4.3035059 12.871355 39.713013
-2.3663008 15.222984 41.012943
-5.5606456 7.2088685 40.001419
-14.296795 9.5644884 30.455837
-16.209307 15.231551 44.103157
-2.4908059 26.264975 31.682308
-20.088928 18.280882 35.036205
-21.077749 16.644346 38.83567
-8.2156181 3.4727962 39.72929
-1.9029922 5.3167934 39.596298
-4.6929197 15.229923 43.512115
-2.4907775 24.178061 35.165314
-7.2442861 17.703979 45.954285
-5.5716 21.219122 40.093269
-17.695118 15.231295 42.653416
-19.9683 15.590347 26.351776
-7.9522834 17.592836 46.137386
-2.0705249 9.6087055 39.596298
-20.193216 18.184704 29.617058
-14.297343 10.914968 28.957968
-5.2807846 18.299475 44.967072
-18.206707 20.000988 32.337563
-14.293789 9.7413607 38.771755
-18.011433 15.677227 44.506844
-19.132675 16.392654 44.250439
-14.293447 2.5212464 39.605186
-14.293748 6.6946793 38.839561
-11.662099 21.498085 39.607059
-14.297466 8.6807232 28.602732
-18.460245 19.770294 39.130978
-2.8054016 24.038612 35.396988
-12.096808 21.738865 39.203739
-6.8971195 17.330364 46.500183
-4.456789 15.226851 42.396915
-18.930788 17.226351 46.459431
-14.1245 8.4026966 25.9736
-10.518096 5.9318743 39.701904
-1.2270498 19.390596 43.159744
-12.608217 25.117825 27.771181
-14.295087 7.7696304 35.151344
-7.0383911 20.889418 40.638573
-3.3134255 5.642138 39.596298
-14.477961 10.778875 24.696918
-3.2234683 10.468879 40.009102
-5.8577042 27.675224 29.31724
-14.298194 11.108824 26.60392
-3.87765 22.27256 38.340843
-20.672272 16.47979 31.9484
-9.545042 23.837091 35.710499
-14.298153 12.901696 26.72489
-11.472258 6.5758648 39.690556
-19.485334 15.235102 42.872322
-8.8897934 2.5461493 39.721272
-21.076908 16.766279 33.921776
-14.472731 9.2219372 26.969059
-20.980928 16.547413 32.595436
-7.6829472 21.701328 39.281334
-4.4704733 15.780437 45.427006
-11.36171 11.556919 39.691872
-12.464697 3.9455292 39.678753
-7.1621904 16.29311 45.427067
-13.923447 23.916422 33.143894
-6.1271706 26.535744 31.218086
-4.89817 25.076271 33.658073
-16.245966 15.224771 37.838402
-19.353218 18.086401 44.196156
-10.211164 15.226921 42.422379
-6.2062607 5.9639626 39.810486
-4.1687365 26.02249 32.081329
-20.746809 16.495966 36.210808
-3.9460874 9.9246168 39.596298
-6.6212077 25.024738 33.738243
-2.1761403 22.337997 38.237396
-14.296766 4.4624453 30.509178
-19.411898 18.900232 38.130009
-13.203972 24.573322 28.226303
-14.294796 10.861223 36.00333
-11.912085 25.382019 31.730738
-19.464878 18.850931 32.535152
-15.368887 15.222313 34.02494
-17.125822 20.989902 37.979301
-14.294611 9.1614666 36.491299
-14.293718 3.2974226 38.867538
-1.9527624 25.336292 33.234077
-18.9498 15.232346 32.284557
-15.973712 18.183233 45.124863
-1.7997003 19.845699 42.398251
-18.558485 15.231249 38.4925
-3.1349387 5.9429274 39.596298
-7.9557266 27.081419 30.301174
-14.294409 4.416873 36.973572
-3.3293295 12.646484 39.718437
-19.804386 15.234741 40.596169
-19.310682 18.992586 37.042015
-5.1384888 8.0567045 39.596298
-1.224622 15.231724 44.165783
-19.301729 17.464815 45.946457
-20.93257 17.509876 36.079052
-15.051944 22.884262 29.274349
-4.1882858 22.061785 38.691574
-2.1539967 5.8117194 39.596298
-13.282501 21.729212 39.215832
-9.5691156 24.888138 33.956245
-16.834673 21.254942 30.959539
-15.711455 22.244328 36.518734
-19.9683 15.471566 40.278545
-14.295982 14.369924 32.758301
-17.983021 20.20475 27.799961
-16.425619 15.228266 42.319817
-11.679312 8.6601562 39.688095
-16.93235 21.045595 38.548111
-1.9145452 9.5391617 39.596298
-20.855804 16.51981 37.404255
-2.5555711 21.180817 40.167412
-9.7602835 26.09771 31.93045
-19.9683 15.392992 37.589993
-11.719734 24.445162 34.480003
-18.467079 19.762644 30.169069
-12.490203 14.162856 39.678452
-14.099589 23.754749 28.924381
-11.842978 1.9268793 39.68615
-3.3844681 14.912588 39.696823
-7.1327653 26.663704 31.00112
-1.9644241 16.433344 45.933918
-19.898808 15.235005 27.532089
-11.432621 26.192631 29.041199
-9.6711445 15.222544 40.834553
-8.4010754 13.832927 39.690052
-5.6642437 21.188005 40.14489
-14.293559 11.093891 39.432487
-21.076609 16.64592 32.178196
-16.560181 21.505775 30.473759
-15.844583 15.232121 44.309669
-12.266835 13.114964 39.681107
-14.294001 8.7734966 38.173439
-0.73011553 15.226616 42.315376
-20.80562 17.625813 35.398632
-8.2877188 27.445818 29.691885
-14.420037 23.462124 30.796558
-14.296991 9.196166 29.904522
-15.39793 15.224107 41.124397
-12.278558 25.41931 28.690212
-8.3281822 24.578602 34.477051
-1.4453073 21.288639 39.991222
-12.720503 10.500318 39.675709
-6.7410593 22.418789 38.087097
-8.9096918 25.58806 32.790321
-3.5564058 25.042747 33.718567
-19.988317 16.329504 40.068398
-3.256566 25.879316 32.323372
-3.4073844 25.837515 32.392624
-11.257154 23.562943 36.162243
-13.537332 19.174755 43.478287
-18.372326 19.850435 37.705326
-12.717457 15.270827 45.42701
-15.961889 20.290203 41.577148
-20.36133 18.033157 43.211758
-18.088011 15.232141 42.706928
-19.9683 15.403316 29.779497
-17.344088 17.987736 45.446503
-1.5242112 24.790585 34.146297
-0.1481967 22.514658 37.949425
-13.185337 20.042774 42.030781
-8.3369169 27.153402 30.179745
-14.293771 15.03318 38.902039
-14.294624 13.644498 36.523148
-14.295273 7.5678568 34.636673
-18.898327 19.369421 36.4282
-14.5373 10.057095 27.252254
-16.735912 15.226144 37.594368
-19.786875 15.234691 31.438915
-14.293605 12.106787 39.318481
-19.9683 15.628368 41.747501
-12.188157 19.616169 42.746151
-18.518791 19.715029 27.943329
-17.687494 20.475815 33.714981
-11.633686 9.1481781 39.688637
-17.68647 15.228806 28.492523
-14.294031 6.2052546 38.048264
-15.986298 15.224043 36.298359
-0.52106142 23.140438 36.903748
-12.159314 20.405846 41.428303
-12.790284 16.518967 46.269291
-12.728202 21.099236 40.269123
-4.3511825 5.1969433 39.596298
-18.38159 19.841316 33.551338
-18.725872 15.231718 28.95137
-9.3220329 6.502152 39.716133
-18.310251 19.907459 39.520782
-14.296852 6.3181367 30.272171
-10.879494 7.7451005 39.697609
-19.07172 16.838955 46.415627
-17.01873 19.513685 42.638569
-17.795084 18.878201 43.596058
-1.1231828 14.750333 39.706009
-3.7125974 22.880947 37.326023
-13.886526 15.226171 42.150299
-7.200809 3.6829464 39.74136
-20.854692 17.581099 36.303986
-2.0330434 10.103235 39.610786
-14.297316 14.269884 29.055424
-14.294064 4.1377864 37.928284
-6.7604103 26.698162 30.944868
-12.628834 23.403999 36.412891
-11.316988 5.815351 39.692406
-10.044686 18.771477 44.163177
-12.656505 20.589621 41.119896
-9.0038881 17.745125 45.879658
-18.595768 15.231354 38.118889
-7.5705528 2.1105056 39.736961
-5.1937475 22.146828 38.546234
-5.1960225 13.627452 39.702843
-13.78367 12.542112 39.663063
-1.6667383 24.912737 33.941948
-3.4752886 26.555653 31.19384
-4.7861166 23.943031 35.549801
-16.94529 21.154129 32.876335
-19.575542 15.234159 42.268333
-12.624704 15.223729 41.264137
-18.330439 16.202692 44.253761
-11.227435 4.2071681 39.693466
-21.075665 16.605486 26.653465
-14.297106 4.9255381 29.582512
-11.191586 23.540096 36.200592
-21.078571 16.67522 43.650543
-15.045446 22.889908 27.399942
-20.750597 16.565357 44.694046
-3.0058146 7.1168027 39.596298
-15.615677 19.910082 42.244011
-13.480507 15.224388 41.502995
-5.6495361 14.516441 39.692902
-20.733032 17.690948 27.619747
-11.956554 25.71373 29.176708
-18.729177 19.523981 36.059139
-14.5373 10.427077 26.890104
-3.8840733 14.610853 39.697983
-14.347053 10.919646 25.835815
-8.3390675 22.49337 37.957214
-2.6074753 10.128639 39.67078
-4.2506099 18.529379 44.586853
-14.1245 9.7500525 26.099886
-19.296389 15.234582 42.784962
-20.890089 17.549387 40.433186
-13.842368 1.844256 39.662369
-20.409248 17.988167 35.618797
-18.779568 15.231871 32.747688
-9.6059837 1.4301584 39.712753
-12.085532 16.504158 46.208492
-10.16028 14.672483 39.676163
-18.856216 15.232084 35.14217
-14.296387 6.6253881 31.541807
-9.2001352 21.547321 39.533226
-3.2123406 15.2267 42.342216
-7.0225449 23.539967 36.214928
-18.994488 15.232472 36.681629
-14.276589 21.525274 39.552834
-17.284714 15.22768 39.046059
-17.160221 18.63353 44.369312
-13.775848 15.222034 40.648697
-13.768986 16.386509 45.70079
-21.077568 17.144508 37.784225
-12.433768 16.336205 45.479084
-17.54138 20.610031 37.899651
-7.3735256 22.076202 38.656719
-19.474888 16.427944 44.31881
-2.2153466 5.9572554 39.596298
-9.6509209 15.233044 44.644859
-15.46623 22.505451 28.534908
-14.295238 2.7634521 34.659336
-14.297184 15.105725 29.42535
-4.9490771 23.528505 36.241077
-17.198299 20.823067 38.890724
-13.898196 17.818911 45.739937
-13.020168 7.163269 39.672146
-1.1070008 15.232569 44.472069
-19.940706 18.415968 32.46693
-17.937199 19.398411 42.031837
-13.526743 5.9261975 39.666122
-16.832912 15.226416 37.391808
-10.493578 22.279785 38.306385
-19.458729 15.494838 42.989082
-9.8995981 4.6979666 39.709259
-16.2309 20.412777 40.972221
-6.1869783 15.233973 44.981804
-5.2245045 26.976007 30.486355
-19.131054 18.819584 42.415516
-9.9731703 18.723906 44.242813
-16.340082 21.707489 33.806995
-13.038092 5.0882807 39.671936
-2.9400291 21.146441 40.223484
-21.076014 16.939756 28.69879
-20.130642 18.243826 41.916965
-15.093966 22.846241 31.789021
-13.052265 20.657444 41.005367
-13.782341 16.392931 45.728142
-15.384237 17.835123 45.707844
-8.4773941 17.602436 46.119583
-19.404566 15.233622 27.730652
-9.3017473 3.3359065 39.716373
-11.957148 15.231932 44.240578
-13.325076 14.293052 39.668522
-6.7200122 23.716354 35.92157
-10.507928 24.773958 34.143627
-15.693966 22.298008 33.206608
-12.274796 17.559557 46.178291
-18.211613 16.221458 44.379238
-0.30162573 12.548563 39.729607
-19.650061 15.234308 31.850739
-14.294325 8.3280668 37.268799
-5.3891168 6.109273 39.596577
-8.8846312 12.210814 39.721336
-4.9255581 9.2617731 39.596298
-7.4582987 19.596378 42.795197
-5.2701306 20.546194 41.217388
-14.296831 6.1780844 30.332064
-4.6121092 19.461555 43.02985
-13.749958 24.074669 30.984196
-14.765391 21.392838 39.764702
-20.243896 16.385742 30.017273
-15.046856 19.405561 43.087971
-14.600686 21.054192 40.337963
-3.5657272 22.204098 38.456165
-1.1838946 15.233191 44.698029
-3.619679 21.850214 39.046604
-16.50016 21.561407 35.357662
-13.878741 21.09926 40.265182
-14.296651 14.405198 30.905138
-20.366266 16.467815 43.902622
-14.045823 15.220102 39.948147
-17.451031 20.691542 31.019085
-20.721292 17.702362 31.979782
-14.294412 4.4630799 36.967606
-4.7344933 11.360816 39.743767
-5.4542093 3.4511604 39.750206
-14.294205 4.1357198 37.537338
-17.221809 15.227505 39.331345
-21.07655 17.059366 31.827612
-9.7980442 16.032482 45.427052
-16.491333 15.225454 26.712645
-10.75667 15.232084 44.29665
-0.76903248 23.701118 35.967148
-1.928113 23.726603 35.920692
-15.656807 19.207689 43.416149
-14.293619 6.7272182 39.195091
-10.777956 13.378572 39.698395
-13.756018 6.3329182 39.663395
-11.333343 10.983088 39.692211
-14.293507 10.37064 39.562206
-19.9683 15.93766 27.276545
-4.8385134 26.217266 31.753984
-18.966623 19.307121 37.255402
-11.606957 22.321022 38.233784
-14.296002 12.498097 32.693539
-20.7117 17.712889 43.239773
-10.268973 15.232011 44.269684
-8.4142208 20.341257 41.548775
-19.859636 15.234895 31.673529
-18.415123 19.810295 31.183384
-18.306324 15.230543 27.609432
-14.294648 8.6042805 36.380733
-10.667076 15.223684 41.248352
-14.295059 4.9586115 35.184406
-6.6371818 4.1641798 39.748066
-13.439636 23.335014 35.787712
-15.087265 15.221524 38.01252
-9.3739748 7.9355068 39.715515
-11.825688 7.1693811 39.686352
-21.077236 17.276966 35.858585
-20.218716 16.380201 29.719788
-8.0215693 1.3542886 39.731598
-4.9074564 15.221976 40.644554
-18.402184 15.232703 42.688416
-13.241116 24.539654 30.048716
-4.7822728 25.036541 33.724773
-6.8303523 15.530321 45.427006
-4.2389975 18.608601 44.454674
-19.328108 15.233406 40.114433
-14.132727 6.5671005 39.658913
-15.74665 18.841143 44.027599
-20.958193 16.542303 35.97525
-18.284138 19.929741 29.34009
-9.865984 23.827513 35.725391
-11.915999 15.229849 43.484856
-21.053028 16.563171 33.811848
-9.9338045 19.766865 42.502281
-9.2128096 9.0859623 39.71743
-14.294445 14.040136 37.024502
-17.85047 15.229265 38.410835
-6.9003515 11.163133 39.744934
-14.395996 18.786318 44.123672
-20.50301 17.90333 41.181877
-2.4211159 14.442166 39.704533
-9.8636084 12.203072 39.709686
-20.945202 16.53923 42.036793
-19.295712 19.005222 30.328522
-14.29768 6.3440571 28.022545
-2.7484453 15.230408 43.688072
-21.07645 17.219917 31.256466
-16.74444 21.337051 28.586147
-6.3824515 6.9050446 39.751095
-16.934076 15.226698 38.936859
-13.829541 15.226559 42.291168
-5.3324647 15.22609 42.120865
-0.47349882 21.141209 40.24057
-20.128775 18.245375 40.905354
-21.077271 17.036911 36.045502
-0.50704074 15.22316 41.081779
-6.4146419 19.306528 43.282486
-11.365242 10.063526 39.69183
-14.297773 12.317395 27.780216
-9.9701405 16.385754 45.710438
-14.298294 14.765549 26.342388
-5.6211519 7.3292794 40.009102
-20.23152 18.150383 34.052738
-14.060262 3.0807304 39.659775
-1.7689171 9.2659817 39.596298
-14.29766 8.9022064 28.079372
-11.572904 17.902597 45.608139
-20.303753 18.084135 32.642891
-12.752354 24.986275 29.062155
-2.4764972 21.032305 40.415546
-15.03651 15.221382 37.621113
-21.077789 17.278625 39.086708
-14.295704 14.664255 33.534435
-14.296209 5.4146852 32.021812
-14.294192 12.621791 37.702404
-11.250053 19.574442 42.81897
-16.582981 21.484619 28.457958
-18.427677 15.230883 34.449562
-6.2827635 26.925167 30.567621
-14.297418 8.3251028 28.734138
-5.1784868 15.231993 44.26329
-2.4409964 9.2391644 39.596298
-16.396309 15.225193 33.305534
-20.953724 17.489166 27.310501
-6.2542043 19.918682 42.261356
-14.294223 13.079187 37.624786
-14.294518 3.6692705 36.660934
-19.268747 15.23468 42.867081
-14.023011 15.22295 40.981628
-8.4802551 17.459084 46.358826
-10.435287 12.128656 39.702892
-14.29355 11.496552 39.461845
-5.5346451 25.207211 33.437378
-12.808903 24.934807 30.496099
-11.987771 19.760832 42.505386
-21.077309 16.971722 36.273827
-10.500982 11.279132 39.70211
-5.4647603 15.222454 40.81295
-13.316236 3.275275 39.668625
-14.294411 7.8605161 37.022358
-15.634083 22.352951 34.526615
-9.9421644 25.792236 32.44606
-15.796837 21.290602 39.008968
-18.542377 15.231204 26.818829
-16.797747 20.609552 39.86562
-14.294847 9.73948 35.842278
-5.7597189 9.0386295 40.009102
-11.198919 19.927214 42.230377
-14.297205 9.8293667 29.323103
-6.7793655 25.9109 32.258724
-20.273003 16.391865 43.032158
-14.298766 12.262622 25.019709
-4.274776 26.824831 30.741879
-14.399242 15.219587 31.704704
-18.364622 15.231232 41.928825
-14.813074 15.220747 27.074566
0.028739929 24.748665 34.221519
-20.134064 16.361574 31.077265
-14.294508 14.470219 36.854351
-14.343794 15.219437 35.192383
-12.133412 25.349812 31.621643
-16.630838 15.225849 30.065861
-14.854443 16.134769 45.427078
-20.116886 18.25536 35.261909
-13.415137 5.5118265 39.66745
-20.326281 16.403736 37.85622
-19.40815 15.233629 27.909615
-1.365054 9.0406542 39.596298
-20.694969 16.484724 33.014282
-11.343863 5.5268135 39.692085
-5.6775913 26.413269 31.424017
-19.429415 18.883396 32.830822
-20.808134 16.509224 41.094055
-16.857607 15.226484 39.784203
-21.001705 16.55201 31.495745
-14.296977 11.352309 29.98082
-12.833129 4.2336111 39.67437
-14.694922 22.331518 37.270248
-15.503985 19.751505 42.509045
-6.0754242 4.7282386 39.94096
-5.9038076 22.849739 37.370686
-2.1969323 21.570101 39.518925
-8.550561 23.149817 36.860905
-20.695007 16.484489 39.524864
-4.9647164 15.22887 43.130089
-17.342909 15.227844 31.049381
-16.981136 20.71295 39.399025
-14.145105 23.713013 28.080915
-14.993113 19.665936 42.653587
-18.574614 19.665117 35.100014
-12.793121 15.22562 41.950218
-10.474916 5.5022049 39.702415
-14.296062 13.224796 32.534992
-14.295458 8.382432 34.137497
-11.267954 25.877331 31.01965
-17.424011 15.228071 34.054787
-3.3901763 20.688786 40.985779
-14.294875 10.703625 35.782043
-18.458527 15.23097 25.609398
-2.9568105 22.984806 37.155243
-19.856138 18.206568 43.36306
-5.5007572 12.737725 39.712803
-10.209508 15.220891 40.238659
-14.295202 2.4483159 34.757572
-14.948225 15.230437 43.698616
-12.74471 22.621494 37.728458
-5.552969 21.459248 39.69257
-11.088548 26.50708 28.623392
-5.8988876 11.459875 39.741539
-15.766128 22.231503 29.736
-1.8867466 10.113179 39.63427
-10.032972 26.055019 31.773447
-4.7499576 15.22548 41.899269
-11.673716 10.616595 39.688164
-0.40315533 23.924271 35.595951
-6.8515625 18.534147 44.570091
-5.5871801 17.795296 45.807495
-4.8670335 17.308743 46.507057
-16.103258 15.231699 44.156612
-7.5916791 16.421648 45.871647
-14.294941 14.02251 35.652649
-6.8800831 24.468639 34.665478
-5.4584789 14.306751 39.695534
-9.6130791 26.839584 30.050835
-10.879827 15.231876 44.220673
-2.5300841 22.928518 37.250633
-11.751583 23.612293 36.078201
-20.2735 16.391975 43.002785
-14.295407 10.690234 34.310528
-9.9634266 7.0281072 39.7085
-7.5997753 20.022427 42.083656
-13.280716 24.02092 34.072803
-5.6227121 20.49852 41.295765
-21.07634 16.946205 30.611305
-21.077478 17.323053 37.264126
-3.7127757 22.745388 37.552269
-12.531667 23.596939 35.98315
-14.297188 8.3207264 29.360893
-14.2957 11.942619 33.519283
-14.298788 12.424868 24.961342
-3.7905242 25.730371 32.570145
-5.7747488 8.7418184 40.009102
-11.682735 18.528088 44.563843
-6.6504664 2.3552785 39.747906
-6.6132851 21.398605 39.790192
-8.1290207 23.338062 36.548149
-2.8268566 22.342804 38.227165
-20.931175 17.510334 30.857813
-16.074841 18.42474 44.721451
-14.296715 11.900435 30.710302
-20.279736 16.393402 41.409832
-1.8107027 10.853712 39.870865
-15.138184 15.221664 33.814362
-3.9418278 15.484991 45.427017
-9.2373209 3.7524655 39.71714
-14.298467 11.137571 25.848202
-12.212225 18.321272 44.907219
-14.322927 8.238656 26.905622
-14.297532 6.4355278 28.427303
-14.297734 12.106232 27.888582
-12.489557 19.847837 42.358482
-15.188227 19.200117 43.43037
-4.4766932 24.298317 34.957886
-14.047056 20.038952 42.034241
-10.57377 20.720903 40.907845
-15.448915 18.367184 44.81963
-14.298941 11.257658 24.535038
-14.29657 4.8848014 31.04154
-1.7951832 8.6960669 39.596298
-13.039127 24.724276 29.953354
-16.118961 20.282183 41.441433
-19.7281 15.234527 31.288242
-1.6653123 14.690283 39.704742
-12.150041 20.680649 40.969692
-20.512846 17.892952 32.306694
-18.277973 19.936436 36.126839
-21.078585 16.695841 43.740021
-4.2048697 15.23293 44.60323
-4.1663399 23.528454 36.243816
-13.398668 17.149761 46.478165
-16.427599 21.626841 29.646709
-14.295355 13.898277 34.498478
-10.864019 18.586132 44.469734
-15.993378 15.224062 31.290874
-11.758064 15.230387 43.680534
-1.7122234 10.689789 40.009102
-5.396328 23.53289 36.232246
-13.236055 20.139132 41.869785
-4.7063766 11.514198 39.740318
-13.092088 17.716116 45.91423
-19.525993 15.233959 37.747707
-14.294777 8.3634748 36.020317
-8.4268703 4.5007339 39.726776
-16.742012 17.758568 45.831017
-14.297362 10.895048 28.903957
-14.2948 10.020922 35.981144
-8.3424377 20.741043 40.88179
-13.890589 22.471743 37.694252
-15.275189 21.356342 39.352818
-7.5498586 10.75564 39.737209
-19.209961 15.233076 25.956049
-5.892046 15.231764 44.179939
-14.294162 5.2124968 37.670982
-14.295183 10.139097 34.923882
-9.7863569 13.939686 39.685776
-12.301089 16.201389 45.427071
-14.296947 6.9436688 30.014954
-19.767691 15.234639 28.890789
-14.296335 14.576864 31.780264
-14.298605 13.772196 25.47233
-14.994509 15.22219 40.50111
-14.298006 13.614662 27.132759
-19.748907 15.234584 38.915684
-19.076488 19.205383 28.869251
-2.5523667 21.006008 40.459179
-1.7987714 9.695322 39.596298
-20.054459 18.312052 32.885433
-9.8782568 7.3453574 39.709518
-14.29349 10.52431 39.610725
-0.20445168 6.5910902 39.596298
-14.296419 13.862581 31.545891
-20.795267 16.506924 27.175587
-11.280905 20.407364 41.428738
-17.586494 16.362408 45.486053
-5.5701694 21.361118 39.856285
-9.422637 16.440571 45.946182
-6.0128918 15.221656 40.525906
-15.575687 15.222889 30.30117
-14.295503 7.498333 33.998657
-16.37253 21.677464 31.443962
-8.3990011 22.664192 37.671917
-14.294281 13.238519 37.468319
-17.175032 18.866957 43.979679
-14.295277 11.075028 34.679523
-13.185749 18.850924 44.019951
-15.968464 22.046303 28.170317
-19.9683 15.874287 41.248283
-20.831703 16.514763 31.096453
-11.09906 3.082335 39.694996
-14.294061 5.0689492 37.951019
-9.0965023 17.949207 45.538734
-17.400076 20.738977 36.51017
-15.809181 22.191803 27.538069
-7.8174119 15.220116 39.970161
-11.849363 21.210535 40.086346
-2.813622 15.220621 40.167603
-6.784596 27.724922 29.231155
-5.8697567 22.4403 38.054146
-14.296242 10.620239 32.003456
-4.3353024 22.155325 38.534958
-4.8692493 15.230177 43.604122
-19.564976 15.997297 42.949684
-20.485554 17.918444 35.790421
-10.899773 11.976628 39.697369
-18.184744 15.230202 26.353737
-20.739628 17.686674 38.835293
-10.63268 18.182718 45.14381
-14.375934 15.97865 45.427055
-14.494946 10.253964 25.204556
-7.0736532 3.0207632 39.742874
-20.81883 16.511978 30.162308
-10.748574 23.681093 35.966774
-10.549845 26.013472 31.368279
-18.431015 15.230892 26.68391
-12.874831 2.0532041 39.673874
-19.9683 15.896993 41.189255
-19.9683 15.537624 39.944313
-13.320506 20.186506 41.79044
-9.5691042 22.408566 38.094589
-4.9137583 18.392233 44.813499
-14.034267 11.900589 39.660084
-4.8356433 19.768297 42.517151
-19.368938 18.939232 36.393227
-3.1954634 8.3930149 39.596298
-19.55381 18.768858 27.558531
-6.3582678 17.831257 45.744865
-14.643679 23.258238 34.288795
-16.003456 15.224091 34.43256
-3.041698 22.017113 38.770012
-7.1175427 25.541048 32.874855
-2.3933115 6.171988 39.596298
-10.054023 13.293652 39.700302
-11.920072 17.801453 45.775772
-19.035744 19.242559 28.438089
-18.505083 19.727404 26.97279
-13.666257 15.230951 43.884872
-8.993351 15.205774 39.675068
-14.298119 12.021891 26.815716
-14.659316 17.672586 45.981571
-17.760117 15.229013 28.987137
-12.319422 17.570091 46.160557
-2.6300075 15.228998 43.176262
-2.420042 19.942898 42.233925
-19.271664 15.233249 36.286945
-13.411713 4.5026712 39.667488
-20.123428 18.248163 27.475296
-14.293702 12.737373 39.060997
-10.780593 2.5714452 39.698784
-8.8140402 10.027566 39.722172
-14.413934 18.472425 44.647488
-19.9683 16.160755 35.652046
-21.078442 16.828211 42.894089
-15.376793 15.222336 37.008274
-2.7302113 14.836179 39.69976
-7.1104598 25.303793 33.270851
-9.7544441 27.517845 28.099577
-6.2576165 4.3447027 39.759262
-14.296167 13.834487 32.242424
-14.297735 10.430449 27.872766
-15.575109 15.222885 27.956259
-19.594765 18.733107 38.31942
-17.975225 18.711729 43.870193
-14.294308 3.6865203 37.244526
-10.220011 26.128319 31.385437
-0.65967071 6.4174986 39.596298
-7.9099178 15.22958 43.387566
-14.294165 12.799497 37.780895
-20.800674 17.630646 37.397953
-13.922929 23.916893 33.129116
-10.912939 26.667671 29.047554
-7.0673223 9.6986761 39.742947
-19.976606 18.38422 39.305611
-17.034174 21.073635 37.699806
-14.293587 6.6042252 39.284737
-14.297329 9.4336052 28.974808
-6.7736444 20.788029 40.808685
-15.100873 15.221561 35.594612
-17.790592 20.382057 36.814182
-12.747551 22.653009 37.67585
-5.0801396 20.307032 41.617188
-15.981005 15.224028 34.224346
-15.560605 21.51782 38.625107
-2.2916503 12.450831 39.723797
-19.202723 15.233056 40.134296
-16.15517 15.224921 40.785568
-11.284971 13.441586 39.692783
-14.29361 12.677847 39.315716
-14.297091 4.7402401 29.626797
-8.7752972 18.968525 43.838608
-11.190858 22.540703 37.868561
-14.62995 23.27067 33.526474
-8.0008221 4.9314098 39.731846
-14.297303 9.759882 29.051758
-19.338276 18.967304 36.676407
-14.297188 4.8263731 29.359781
-5.5373454 4.1339397 39.946426
-14.294388 6.0205212 37.05785
-8.1224937 15.233198 44.700386
-17.090441 15.227137 27.282486
-17.059471 19.72884 42.00972
-1.2897472 24.319475 34.933365
-14.275765 23.594231 32.26796
-4.9350543 17.684895 45.993958
-14.443394 17.543039 46.198513
-9.0008926 15.375506 45.42701
-3.0098982 20.706657 40.957233
-2.9368925 18.543837 44.567177
-19.440264 15.233721 38.38065
-18.288666 15.230494 28.365093
-19.9683 15.335608 28.682768
-5.7868595 24.831509 34.063564
-15.234324 20.108885 41.913506
-14.29548 13.296983 34.151421
-7.9788685 24.218519 35.079205
-21.073326 16.567518 36.507107
-3.9779587 15.234184 45.058655
-8.155447 13.210571 39.702171
-0.49790144 24.884766 33.992588
-5.9561934 20.466093 41.348755
-2.8264956 15.225832 42.028
-14.1245 9.5016279 26.096191
-14.296 7.8777065 32.624283
-10.771414 26.255383 30.484838
-5.3129759 10.532001 40.009102
-14.295012 9.7115088 35.391151
-14.295949 13.974792 32.851639
-5.9717388 15.230887 43.862
-0.83382607 13.45785 39.719208
-5.0794325 23.773016 35.832558
-11.734055 20.533445 41.216774
-0.32954824 10.777588 39.946785
-3.8733635 15.007538 39.694271
-8.2812157 1.0881032 39.728512
-10.171268 9.724638 39.706032
-7.0099373 25.298941 33.279289
-14.296474 5.417799 31.302608
-16.166578 21.865597 30.649097
-5.7875915 5.763051 40.009102
-14.29364 3.6412852 39.092426
-14.294014 6.621376 38.101326
-6.4782791 16.455078 46.018059
-4.1515918 15.219351 39.709892
-14.296906 13.521736 30.191774
-20.804531 16.508806 31.14049
-20.63987 16.548872 44.606243
-17.355738 15.22788 29.131947
-18.03783 15.229792 29.586094
-1.5540634 15.229098 43.212917
-4.5745587 15.219692 39.830017
-11.451709 16.499123 46.189152
-14.293876 13.589843 38.594627
-14.060993 23.790379 31.135468
-9.8846388 15.223207 41.074753
-14.295634 12.355574 33.710197
-9.3951168 22.26318 38.337822
-6.6018138 26.831675 30.722578
-18.863693 18.616806 43.237976
-14.293463 6.8865786 39.630306
-7.4991407 19.353107 43.201073
-19.5166 18.80275 26.757618
-21.047903 16.562311 26.776112
-8.1306934 27.678848 29.245003
-14.294091 14.479712 38.012218
-14.29518 11.595675 34.951435
-12.929762 15.234526 45.182274
-4.8430815 23.867533 35.67561
-10.914055 18.293633 44.957741
-11.607429 15.233782 44.912598
-8.1313858 12.043167 39.72842
-4.9541922 16.029951 45.427032
-12.666395 15.228565 43.019272
-11.75869 6.1850004 39.687149
-8.1013784 16.354563 45.565033
-10.298304 18.099316 45.284138
-5.2156258 15.988379 45.427029
-14.059783 15.223268 41.096958
-18.343693 19.87631 35.792744
-16.366667 21.683193 33.822956
-8.2120686 6.6540213 39.729332
-17.73064 15.705795 44.801048
-2.9833555 20.700167 40.968155
-15.35921 15.222286 38.440399
-18.05492 15.229839 27.324133
-12.391232 16.458309 46.011826
-1.8402972 25.364393 33.187557
-9.8014355 15.22112 40.321869
-15.133821 21.183783 39.966248
-17.309845 20.820074 27.659384
-9.213213 27.034105 29.920547
-11.212245 18.65707 44.350166
-3.0404916 16.574905 46.513245
