# .PCD v0.7 - Point Cloud Data file format
VERSION 0.7
FIELDS x y z
SIZE 4 4 4
TYPE F F F
COUNT 1 1 1
WIDTH 1473
HEIGHT 1
VIEWPOINT 0 0 0 1 0 0 0
POINTS 1473
DATA ascii
-31.651901 -39.077778 -5.8502274
-36.610134 -37.887798 9.3773727
-39.151718 -45.255157 -0.31574795
-38.359253 -45.649578 -0.31575662
-32.103649 -37.36401 0.2283591
-31.651901 -47.088512 -7.2989602
-34.604527 -36.296539 -0.18080002
-35.157497 -37.887798 7.3090901
-32.176346 -35.131737 9.0753822
-33.542866 -38.284405 -0.90282929
-33.789684 -36.952362 -0.095499992
-32.103378 -35.583351 -7.5695534
-31.651901 -46.285168 -2.7608047
-31.651899 -39.516949 7.0418606
-38.520714 -37.887798 2.3096924
-32.103378 -37.978413 -8.2548571
-35.657753 -39.638214 -0.78308856
-31.651897 -40.170387 4.7724829
-38.233795 -36.388107 -0.18080001
-38.529861 -36.360401 -0.18080001
-31.651899 -39.569305 -7.3498898
-32.467522 -38.443878 -0.82800001
-31.651897 -42.19939 11.434364
-34.199562 -44.682732 -0.56604594
-31.651899 -38.559486 6.994658
-31.651897 -48.302204 6.7347441
-38.311298 -36.607059 -0.18080002
-31.651899 -41.036942 1.7058463
-31.651901 -40.405762 4.5168796
-32.103775 -34.577084 4.6250668
-31.651899 -41.535316 -0.36141682
-32.1133 -35.11599 13.723055
-31.651899 -43.500275 13.780096
-31.651897 -38.660927 2.6188345
-34.013222 -38.261635 -0.95042419
-32.103413 -35.03199 -6.4752207
-31.651899 -40.449547 13.795349
-34.326199 -37.887798 2.3651855
-31.651901 -38.879391 4.4521785
-31.651897 -41.924053 9.1439829
-38.743858 -42.269001 -0.31575242
-38.343052 -41.421036 -0.3157568
-31.651901 -47.705814 -3.0321989
-32.159348 -33.004456 10.083799
-31.651901 -47.082993 -5.2185879
-32.103596 -36.252686 -1.3931124
-31.651899 -42.072762 11.85135
-34.912991 -37.887798 5.3564425
-31.651899 -46.969093 1.2264051
-31.822414 -38.300472 8.2649117
-32.103603 -37.924801 -1.2880079
-40.468807 -47.818394 -0.73992157
-31.651899 -39.921089 2.8675725
-31.651899 -48.103821 9.1549063
-31.651901 -43.220615 7.8276601
-41.673542 -47.759163 -0.62819749
-31.651899 -39.998299 14.976003
-40.537804 -47.733246 -0.57933283
-31.651897 -47.013618 11.551604
-32.103619 -35.251144 -0.71410757
-31.651901 -38.547386 13.407208
-31.651901 -46.032986 -4.7094011
-31.651899 -48.346806 8.8327208
-33.546097 -37.520565 -0.0955
-32.103485 -34.551994 -4.4002657
-31.651897 -39.532463 8.3166122
-31.651901 -44.118828 7.2220898
-31.651899 -47.259533 -3.3441749
-39.163269 -44.864349 -0.31574783
-32.954708 -37.887798 8.1704435
-35.152855 -47.728874 -0.57109427
-31.651901 -46.735355 -6.6353807
-31.651899 -46.095417 -0.4462781
-31.651897 -43.40551 10.495874
-31.793684 -38.338737 -4.6863194
-32.104012 -37.339653 12.014936
-35.32272 -37.887798 0.9601481
-32.607723 -37.887798 9.8235016
-34.336292 -37.887798 2.4500189
-31.651899 -43.386238 13.830437
-38.582333 -37.887798 5.0275192
-34.030407 -37.887798 12.212151
-31.651897 -42.228302 -5.0778313
-33.509392 -35.152969 -0.0955
-31.651899 -46.486412 -2.6112583
-31.651897 -40.343346 13.078945
-31.651897 -41.434814 15.210945
-31.651899 -39.089561 15.017118
-31.651897 -46.849525 -1.401242
-31.651899 -45.080582 -4.365262
-40.863197 -44.76273 -0.31572923
-31.651899 -45.0387 10.508554
-37.957405 -47.343563 -0.31576103
-37.822659 -47.530899 -0.31576252
-32.103748 -36.473663 3.6856127
-40.498371 -44.263462 -0.31573322
-32.1133 -33.740067 10.76148
-31.651901 -48.620529 -6.2356563
-31.651897 -43.412102 7.3122168
-31.651897 -46.207191 -2.5810308
-31.651897 -41.513428 10.874721
-31.651897 -43.206696 -4.4891944
-31.651899 -42.635342 -6.0537004
-31.651897 -43.188591 11.483765
-32.103706 -37.709862 2.252763
-31.651899 -40.861668 -1.3163905
-32.248215 -39.551884 -0.82800001
-32.10347 -37.684036 -5.324832
-32.103588 -36.545609 -1.7495261
-32.3218 -35.605618 9.6736174
-31.651899 -48.010624 -0.053170204
-31.651897 -47.843452 0.28341234
-35.412865 -37.887798 3.4362574
-33.210236 -37.887798 9.7219572
-32.103615 -33.856319 -0.62124711
-32.10371 -37.103226 2.3612938
-39.03286 -48.162697 -0.82800007
-32.986801 -38.055687 0.51105231
-31.651897 -43.934505 -5.9794483
-36.13929 -37.887798 9.4478931
-31.651899 -45.304985 9.6124144
-31.651899 -43.214577 -7.0601006
-36.371407 -37.887798 -0.42344853
-35.254532 -37.887798 -0.5878467
-38.204849 -37.887798 4.198916
-32.103687 -36.489193 1.6222159
-31.651901 -39.614597 15.120611
-36.337414 -36.311234 0.077100001
-31.651897 -45.154259 -9.3686838
-31.651901 -46.871586 11.411697
-32.103767 -33.573544 4.4521523
-32.103699 -34.831062 2.043057
-33.854603 -37.887794 2.0596881
-34.953159 -37.887798 7.5128746
-31.651901 -40.826611 5.1973743
-36.90617 -36.402473 0.077100009
-31.651899 -42.216614 -3.649188
-31.651901 -45.238834 16.011726
-39.649181 -37.887798 0.78476858
-31.651897 -39.236687 8.3246012
-36.791046 -35.181938 0.081799999
-31.651897 -44.108833 12.524115
-39.907814 -44.667381 -0.31573969
-34.32132 -37.887798 6.5017271
-36.79055 -34.208523 0.081799999
-32.103889 -34.283245 8.7230997
-37.859993 -37.887798 7.6411457
-34.674583 -37.887798 1.1692213
-31.651901 -44.653145 5.7455673
-33.070957 -37.887794 10.820509
-31.651897 -39.040337 0.67844117
-31.651899 -46.657612 -3.4337406
-31.651897 -48.197643 -4.4839864
-36.65205 -45.069893 -0.31577533
-39.317215 -45.012318 -0.31574613
-33.982044 -37.887798 6.1378059
-31.651901 -45.306599 -0.45091248
-31.651897 -44.70118 -0.19517517
-32.82164 -40.638554 -0.82800001
-32.103767 -36.818214 4.3921738
-31.651897 -43.767666 9.1236286
-31.651897 -46.955021 -1.4750388
-32.103542 -35.684235 -2.9254789
-32.718155 -37.887798 -0.28559721
-36.032516 -47.423313 -0.3157821
-36.626476 -37.887798 2.1817813
-38.046043 -36.626301 0.058407437
-32.103767 -33.699215 4.3400278
-39.42411 -45.430393 -0.31574497
-33.84639 -37.887798 9.2147255
-33.05682 -37.887798 13.489858
-31.651899 -44.642563 13.022203
-37.644951 -44.268143 -0.31576443
-32.986801 -35.982231 0.84600836
-32.103756 -37.734097 3.7035725
-31.651897 -48.28545 -2.3274736
-31.651901 -45.758846 -5.1616907
-33.781998 -42.363224 -0.82800001
-31.719791 -38.423519 -4.1521015
-31.651899 -38.666817 13.744263
-31.651899 -38.763699 5.5268722
-34.946022 -38.837742 -0.82799995
-31.651897 -41.824738 12.910094
-32.1133 -33.94968 11.623691
-31.651899 -46.88961 -0.4146502
-32.361912 -41.480701 -0.82800001
-38.483917 -45.919411 -0.31575525
-31.651901 -45.070667 -8.2697773
-31.651897 -45.280731 -2.5603075
-32.103493 -35.797791 -4.3034582
-34.394165 -39.352081 -0.82799995
-36.084637 -47.072475 -0.3157815
-36.289501 -37.887798 10.656848
-32.103664 -35.269638 0.76522505
-31.651901 -42.111839 15.063268
-34.439754 -34.326363 0.081799999
-31.934807 -38.176838 -4.2150722
-32.10358 -34.599564 -1.7109349
-31.651901 -43.208275 11.541746
-32.1133 -34.06554 10.935138
-32.00919 -38.087463 8.7252216
-31.651899 -44.629448 5.5618916
-31.651899 -47.85144 7.3753281
-31.651897 -47.166145 14.537495
-34.530319 -41.932461 -0.31579852
-34.876442 -37.887798 -0.25053445
-37.974525 -36.316498 0.077100001
-36.308643 -39.76638 -0.54139018
-36.048332 -33.871487 0.081799999
-31.651901 -44.546352 12.257051
-31.651899 -38.640713 5.2233415
-32.103539 -35.46833 -3.0515528
-36.176189 -37.887798 1.613657
-31.651901 -47.789951 8.4013119
-31.651901 -41.52042 6.0931468
-32.103649 -35.133545 0.21967494
-40.218975 -44.113388 -0.31573629
-32.031815 -38.062164 12.648933
-36.341835 -37.887798 8.4322958
-39.446861 -39.264557 -0.82800001
-33.648911 -37.887798 4.6714129
-31.986082 -40.541763 -0.82800001
-31.651901 -42.039547 0.3764782
-31.651899 -44.025467 7.8585215
-31.651899 -43.921497 8.8589535
-39.394444 -48.400501 -0.82800001
-31.651897 -46.794796 4.1332502
-31.651899 -46.747196 16.132383
-31.651901 -40.350372 0.87863588
-31.651899 -44.582291 15.710546
-32.103893 -36.091385 8.6881542
-31.651899 -42.00272 -5.855587
-32.125477 -37.227367 12.446302
-31.651897 -41.23632 -4.4864254
-37.641613 -37.887798 3.9633551
-31.651897 -41.714455 -2.8965693
-32.103886 -33.364639 8.4688463
-39.524635 -39.095371 -0.82800001
-32.103813 -36.009476 5.915319
-31.71797 -38.425598 -4.9479599
-31.651901 -39.25095 9.7072239
-31.651899 -41.406921 -1.4425468
-32.103931 -37.485588 9.3038816
-31.651897 -47.794064 -2.8436003
-32.103691 -37.777359 1.7092601
-31.651899 -39.914886 -1.8765783
-31.651899 -46.451538 -1.6894114
-31.651899 -45.416756 9.4593935
-31.651901 -42.581497 15.165973
-31.651897 -41.381874 14.204954
-34.564907 -37.887798 14.723867
-31.651897 -45.400162 6.4707928
-32.1133 -33.961842 11.563721
-35.013863 -37.887798 11.739101
-31.651897 -41.386753 14.918407
-31.651897 -43.389038 -6.7615356
-31.997952 -41.33099 -0.82800001
-31.651901 -44.123856 -9.1971731
-32.103855 -36.706604 7.4103041
-32.1133 -35.766788 11.27958
-31.651899 -39.999847 11.095071
-31.651897 -47.261204 2.196579
-33.302895 -42.359612 -0.82800007
-32.103844 -33.737057 7.0009766
-36.930096 -37.887798 3.7032676
-31.651899 -39.680733 -1.4637372
-31.651897 -47.582962 -2.2400784
-31.651897 -47.738388 5.6807938
-31.651899 -39.624817 -5.791254
-31.651897 -43.031662 7.8674622
-31.651901 -43.749222 -1.8166885
-31.651899 -43.181931 3.5598068
-31.651899 -46.141174 7.7343121
-31.651897 -39.28907 -3.8518217
-37.598064 -42.152748 -0.31576496
-31.651897 -45.880432 3.2856293
-32.774734 -41.936821 -0.82800001
-31.651897 -45.110626 -3.1084652
-40.139389 -38.031456 -1.0176001
-31.651899 -44.943321 2.9377766
-32.803383 -45.15218 -0.82800007
-31.651899 -45.470932 -7.8329983
-32.103855 -36.402359 7.3507438
-31.651901 -47.390797 0.12640953
-33.412231 -37.887794 1.4399407
-31.651899 -43.625092 4.0796604
-31.651899 -44.475479 14.513567
-34.338596 -37.887798 12.574088
-34.591782 -48.303864 -0.82800007
-34.020565 -37.887798 4.0627623
-32.103821 -33.456223 6.2362742
-31.651901 -45.658089 -4.4883738
-38.48814 -34.090477 0.081799999
-32.326916 -37.887798 8.0318699
-40.20927 -44.545815 -0.31573638
-31.651901 -42.755833 3.944149
-31.651901 -42.050957 -0.83183289
-31.651897 -42.609482 -6.000299
-33.985588 -41.579483 -0.82800001
-37.565567 -48.129284 -0.82800007
-32.103691 -34.76112 1.7489905
-31.651897 -41.570831 13.272141
-31.651899 -39.126472 5.7202044
-32.1133 -34.022312 12.136597
-31.651899 -45.702705 -9.1620989
-31.651899 -39.747868 -4.7848406
-31.651899 -42.589592 -6.0246034
-34.415932 -36.129799 0.081799999
-40.116005 -44.644196 -0.3157374
-31.651901 -40.562233 4.0135345
-31.651901 -43.167053 -5.6804657
-31.651899 -46.803131 15.273085
-33.071205 -37.887794 -0.41879112
-31.651897 -44.621704 -6.4221153
-31.651897 -48.496983 -2.0515091
-35.011024 -41.963257 -0.31579328
-31.651897 -43.038811 15.442696
-33.882507 -36.084641 -0.095499992
-32.837334 -41.600327 -0.82799995
-37.042721 -37.887798 7.1361256
-32.1133 -36.067768 10.427334
-31.651899 -43.414047 -1.2164927
-31.651899 -43.790985 8.6593447
-32.103783 -35.457268 4.8567491
-31.703186 -38.442566 -3.6847312
-38.419579 -45.917255 -0.31575596
-38.346024 -44.61821 -0.3157568
-37.431843 -36.268929 0.077100001
-31.892828 -38.224983 -5.7663665
-34.824577 -37.887798 2.5088534
-31.651897 -47.436726 10.796385
-31.651901 -47.726315 11.543566
-36.211281 -37.887798 0.5825184
-33.596733 -37.887798 14.796064
-31.97893 -38.126205 -6.0296955
-33.314873 -46.098595 -0.82799995
-32.01009 -38.086548 7.0222769
-31.651899 -46.932343 9.012804
-33.556679 -37.887802 2.7637541
-31.651899 -45.45211 -6.4688768
-34.089993 -37.887798 11.268231
-32.103729 -34.420792 2.9615655
-36.411972 -44.848534 -0.31577796
-31.651901 -41.130619 -1.5869007
-34.166878 -40.796989 -0.60798538
-31.651899 -39.565735 12.409796
-32.103794 -34.824581 5.2906523
-35.244328 -37.887794 8.2318077
-32.10363 -35.915501 -0.35499275
-39.788746 -46.382858 -0.31574097
-31.651897 -40.317093 4.0255361
-36.021275 -37.887794 0.53663671
-31.651899 -43.525444 3.711812
-32.103855 -36.314919 7.4302921
-31.651897 -42.628075 -4.4269266
-40.71442 -45.861305 -0.31573087
-32.103596 -33.676876 -1.0815005
-31.651897 -43.340691 6.1498899
-34.78743 -37.887798 11.570784
-35.548336 -39.750202 -0.57190228
-32.103985 -37.873093 11.407787
-31.651897 -39.580341 6.2643914
-31.651901 -46.797562 8.2480087
-31.651897 -44.759781 13.700106
-32.008152 -47.474323 -0.82800001
-32.103687 -37.181389 1.5666527
-33.685139 -37.887798 1.2768455
-31.651897 -44.625065 -9.1489811
-32.103745 -34.339626 3.5388589
-31.651899 -45.106434 3.4802504
-33.897095 -36.111649 0.99525404
-31.899569 -38.214142 4.2617016
-31.651901 -45.359818 -7.2595444
-32.864304 -37.887798 5.9250245
-36.670883 -34.841545 0.081799999
-32.104046 -37.770264 13.153731
-32.103783 -33.574059 4.7537441
-34.568684 -46.806011 -0.3157981
-33.27515 -42.984058 -0.82800001
-31.651901 -39.810955 2.7379298
-36.671806 -41.075172 -0.3157751
-31.651901 -38.815861 4.6403856
-34.631134 -37.887798 3.9471188
-31.651901 -42.126343 8.2848034
-32.103706 -37.235039 2.2846968
-31.651897 -39.36681 8.9353485
-37.765236 -37.887798 8.2718945
-38.851471 -46.84877 -0.31575122
-31.651899 -44.691502 14.248931
-31.651899 -45.988529 -6.608386
-31.651897 -45.735451 11.080427
-31.651899 -47.804291 -0.061252356
-33.027374 -36.243866 -0.0955
-31.651897 -48.59774 7.4462461
-31.651901 -46.294353 1.1228967
-38.629997 -44.957058 -0.31575367
-32.217243 -37.887798 -0.14414617
-32.103863 -36.265316 7.6681328
-32.103615 -37.783245 -0.91128075
-31.651899 -43.456161 12.368494
-39.346436 -36.235001 0.044832859
-31.651897 -38.820255 -6.2152529
-31.651899 -38.576706 4.7351499
-31.651897 -46.992577 -7.5747652
-32.103664 -35.691505 0.7755847
-31.651897 -40.536591 -5.2894092
-37.427883 -37.887798 0.056041807
-35.142029 -37.887798 8.2630339
-31.651899 -40.88533 -7.4734478
-35.491489 -36.451874 0.077099994
-32.103794 -36.40213 5.350174
-31.651899 -42.505829 -1.7204609
-31.651899 -47.28965 7.6406918
-31.651897 -47.145012 -4.6495771
-32.103443 -37.788445 -6.1582799
-35.957352 -38.323494 -0.82799995
-32.103584 -36.882725 -1.8151455
-33.688213 -37.887798 10.968495
-31.651899 -39.102417 13.119627
-36.613079 -43.075775 -0.31577572
-33.898228 -37.887798 12.60359
-32.103622 -37.048725 -0.63133377
-31.651901 -42.755157 -2.4703484
-31.651899 -39.606564 -8.2383137
-31.651901 -44.462738 -3.6400027
-31.651899 -43.212475 -8.959815
-31.651901 -48.06665 8.4226665
-31.651899 -45.847176 15.999924
-32.032784 -38.061695 3.5592146
-31.651901 -43.744888 -3.2618861
-32.103588 -35.972191 -1.5507005
-32.647945 -37.887798 -0.17765689
-32.986801 -37.043827 0.87870973
-31.651899 -48.678719 -1.2146626
-33.122116 -37.932911 -0.92230201
-31.651897 -45.859077 9.2162495
-31.651897 -43.071423 5.1929426
-31.651899 -46.090733 10.036622
-31.651899 -44.748623 10.627872
-32.107143 -35.273895 9.0067167
-31.651897 -40.043648 6.2055368
-38.295296 -41.795052 -0.31575733
-31.651901 -43.454906 13.984238
-31.651897 -42.006531 12.519131
-31.651901 -46.482635 4.2768092
-31.651899 -42.058174 3.6757193
-32.103855 -36.00267 7.4751821
-36.525322 -41.340725 -0.31577671
-36.452168 -36.235001 0.029777445
-39.164795 -41.532757 -0.31574783
-40.038467 -39.673126 -0.71725321
-32.518711 -37.887798 7.3999691
-31.651899 -44.905785 5.0176096
-34.435768 -41.132206 -0.31579956
-31.651901 -47.877998 -1.5221746
-32.103821 -34.833443 6.190134
-31.651901 -42.681698 -4.9551287
-31.651901 -44.560486 2.0764971
-32.1133 -35.335052 12.700881
-34.555321 -37.887798 2.66681
-32.32267 -47.023788 -0.82800001
-32.103458 -37.956066 -5.73314
-32.103542 -35.600643 -2.9294062
-31.651901 -44.928589 0.058956146
-32.548771 -39.883511 -0.82799995
-35.215939 -37.887802 8.4477539
-31.651899 -43.932255 8.213398
-31.651901 -40.336769 -7.3822455
-32.3218 -33.981796 9.4631195
-31.651899 -45.468727 11.336234
-32.104073 -37.88821 14.465999
-31.651897 -48.523037 -7.1814294
-31.651899 -39.445885 -4.8823433
-33.428158 -37.887798 13.333904
-31.651901 -38.651535 -3.7818375
-38.678761 -40.587997 -0.31575313
-34.15078 -37.887798 10.535723
-39.201141 -47.10598 -0.31574741
-31.651899 -38.966778 -7.0510459
-32.103642 -37.54874 -0.00072550774
-32.3218 -35.990658 9.8795795
-31.651897 -40.765575 9.8104057
-31.651897 -39.058365 -6.7661643
-36.95182 -37.887794 0.7540015
-36.245071 -35.22366 0.081799999
-36.96299 -37.887794 6.7085824
-31.651901 -45.472237 9.0141373
-39.269268 -35.350899 0.081799999
-35.013607 -37.887798 11.877079
-39.504303 -42.162052 -0.3157441
-32.1133 -35.225376 13.79907
-31.651899 -48.11742 2.1577475
-35.800323 -38.533417 -0.82799995
-31.651899 -38.531891 2.5015471
-32.103615 -35.761719 -0.7598815
-31.989161 -38.114433 -7.7698994
-31.999107 -38.103008 -7.7039247
-31.651897 -46.066635 12.17704
-31.651899 -47.272514 12.721958
-31.651899 -39.153656 -0.18364596
-31.651899 -45.445499 -6.3233967
-31.651901 -43.723434 13.892159
-31.651897 -48.597054 -7.2292714
-31.651899 -41.43317 4.0050507
-31.651897 -41.798447 9.9722509
-39.761589 -45.615604 -0.3157413
-31.651897 -39.680077 8.6056423
-31.651899 -42.796692 -4.1836443
-31.651897 -44.363068 -5.5509434
-39.134712 -38.31398 -0.84100044
-33.724335 -37.887798 0.82255083
-34.964554 -38.451088 -0.82799995
-31.651901 -40.325439 10.931613
-31.651899 -42.737473 13.56848
-31.651901 -40.637165 -1.4039912
-31.651899 -47.759346 14.155991
-31.651901 -38.946781 8.5281048
-40.895859 -46.804806 -0.31572887
-31.651899 -40.096966 12.016657
-37.603432 -39.375538 -0.82800001
-31.651901 -45.874786 13.693495
-36.994408 -43.556671 -0.31577155
-31.651901 -46.089142 -7.0671272
-31.853174 -38.262093 13.910025
-36.618847 -47.866299 -0.82800001
-33.740452 -42.288509 -0.82800001
-33.230061 -36.20723 1.1485
-31.651901 -46.731144 11.694613
-35.138836 -37.887798 14.860708
-31.651897 -47.846531 2.4029646
-31.651897 -43.209492 1.6588306
-37.236652 -37.887798 3.6578701
-31.651897 -39.327213 -2.4483981
-33.69017 -33.906769 -0.0955
-31.651899 -45.066109 12.629238
-34.796597 -37.887798 11.23283
-32.103477 -35.346745 -4.6912541
-31.651901 -43.22224 -0.31742668
-32.450073 -37.887798 1.384997
-33.393959 -35.456032 1.1485
-32.907257 -37.887798 6.5735316
-39.908478 -47.639442 -0.40239573
-32.988365 -37.887794 9.7656136
-32.3218 -36.980934 11.464561
-38.325413 -36.626305 -0.17929345
-31.651901 -43.78513 2.8706121
-31.651899 -46.50119 5.4131427
-31.651901 -38.533955 3.1691689
-31.651899 -39.6898 -4.7919416
-32.103489 -37.505318 -4.6267576
-39.452831 -46.105293 -0.31574467
-33.67358 -46.628803 -0.82800001
-31.651901 -45.883102 3.3791542
-32.385857 -37.887802 2.2864757
-32.3218 -36.850151 9.959753
-32.103783 -36.764526 4.9633603
-34.643944 -44.180462 -0.31579727
-31.651897 -43.406898 -2.9450741
-35.787567 -44.87178 -0.31578475
-32.103401 -34.47683 -6.6831121
-31.651897 -40.355446 4.0685349
-31.651901 -40.841927 11.661718
-33.897099 -34.505215 0.40697828
-31.651899 -41.552177 6.7017546
-31.651899 -39.852417 -6.5612731
-41.75161 -47.841103 -0.78273642
-32.983521 -37.887798 7.3893218
-36.774258 -42.117336 -0.31577396
-31.651901 -45.785927 5.994772
-37.733574 -48.425198 -0.82800001
-31.651899 -45.742111 11.989552
-31.651897 -40.333973 13.221258
-32.1133 -34.705109 12.508888
-31.651897 -39.613434 5.5756674
-32.103661 -33.785568 0.62030828
-31.651897 -47.479473 -6.563724
-33.716213 -34.20372 -0.095499992
-33.47007 -36.298416 -0.095500007
-36.359436 -37.887798 9.3585291
-32.168449 -42.212196 -0.82800001
-31.651901 -43.820984 8.1055784
-34.888 -37.887798 3.3856435
-38.088276 -35.115631 0.081799999
-32.1133 -33.332596 13.359606
-40.680569 -46.446568 -0.31573123
-34.691238 -37.887794 1.5094712
-33.181961 -42.324276 -0.82800001
-33.536343 -45.735958 -0.82799995
-32.3218 -34.551502 9.8512907
-31.651897 -46.849998 -0.67133141
-34.117775 -38.380493 -0.82800001
-34.211372 -37.887798 10.862633
-35.447147 -33.84156 0.081799999
-32.103703 -35.495293 2.1153667
-32.103706 -36.3829 2.1664562
-39.082417 -37.887798 -0.50671607
-33.589054 -38.02636 -1.0176001
-31.651899 -42.249588 4.9917016
-31.651901 -44.065048 -5.2801557
-37.359051 -37.887798 8.1134148
-31.651897 -39.107002 -6.5859437
-38.070011 -35.853985 0.081799999
-40.540947 -44.192024 -0.31573275
-31.99822 -39.429447 -0.82800001
-37.755146 -42.767685 -0.31576324
-32.103828 -37.275696 6.4816403
-38.586441 -34.753952 0.081799999
-31.651899 -47.155205 -8.0588827
-32.103771 -35.946747 4.4806824
-31.651899 -43.299629 -2.1665497
-31.651899 -41.477451 -2.9479809
-34.869518 -40.735451 -0.3157948
-31.651899 -45.898666 16.189571
-32.824043 -43.846992 -0.82799995
-31.651899 -45.497437 -5.1504574
-31.651899 -46.361095 15.76625
-31.651897 -47.195629 14.956995
-31.651901 -42.855381 0.174016
-31.651901 -44.073643 -8.101387
-34.988663 -37.887798 13.199235
-32.10339 -37.762768 -7.7385683
-31.651899 -44.432297 -5.5014653
-32.398571 -39.863655 -0.82800001
-31.651901 -45.803535 7.7415113
-34.763905 -47.50024 -0.31579596
-40.416008 -39.28463 -0.82800001
-34.564354 -37.887798 0.60679507
-32.3218 -36.617146 12.744463
-31.651901 -46.138592 6.9313941
-33.363045 -37.887798 12.680007
-31.651901 -41.081406 -7.1307573
-33.187607 -43.079514 -0.82800001
-36.549202 -41.222893 -0.31577647
-31.651897 -47.411415 -7.0167079
-31.651901 -40.466045 6.2268777
-36.34288 -44.297752 -0.3157787
-31.651897 -44.829636 11.883953
-33.346413 -37.887798 -0.30688739
-31.651897 -44.141998 -0.036178589
-33.897099 -37.924644 0.047943398
-35.158638 -40.713058 -0.31579164
-32.1133 -32.709839 12.391706
-37.260525 -43.899334 -0.31576863
-35.764267 -37.887798 4.5328722
-33.897099 -36.949188 0.97514582
-31.651901 -39.962345 -0.77662468
-31.651901 -47.511219 -7.9312062
-36.632336 -41.834347 -0.31577551
-37.521809 -37.887798 7.4183683
-31.651899 -44.693111 13.197947
-31.651899 -41.421711 14.175127
-32.431618 -44.078545 -0.82800007
-32.986801 -33.743851 1.0665059
-32.103626 -36.526402 -0.47272283
-31.651897 -45.815208 2.1979728
-32.103699 -33.657574 2.0612402
-31.651899 -41.704224 0.63758945
-31.651897 -46.7966 -9.4296875
-31.651897 -42.06955 -6.0118494
-31.651901 -45.039726 6.1594067
-31.651899 -48.566574 14.079776
-31.651897 -40.842308 6.6635523
-31.651901 -47.788937 13.797565
-31.651899 -46.837662 5.1221943
-32.103451 -35.273594 -5.4984727
-31.651897 -44.025124 -6.0550513
-38.810516 -45.324585 -0.3157517
-38.347527 -41.614571 -0.31575677
-32.3218 -36.552547 13.866325
-31.651897 -43.252823 11.411964
-36.086807 -37.887794 -0.42838669
-31.651897 -39.46719 -3.4328892
-36.181038 -37.887798 1.4088857
-34.342949 -38.266712 -0.93980837
-31.651897 -44.88459 9.8157501
-32.103931 -37.536655 9.2283382
-32.103397 -36.880348 -7.3804512
-31.651901 -46.741058 2.8164225
-31.651899 -39.949764 4.2925887
-37.114525 -40.375435 -0.31577027
-33.897469 -45.08144 -0.82799995
-32.111038 -37.241749 13.08993
-32.484612 -37.887798 9.9542427
-32.202995 -37.150379 14.232834
-31.651901 -43.236057 2.0393019
-38.604805 -41.010834 -0.31575394
-31.651901 -47.478912 6.882659
-31.651897 -46.411549 0.685359
-31.651897 -40.078754 -1.0692372
-32.103516 -37.714203 -3.897788
-32.103855 -35.095249 7.4210443
-32.590084 -48.513306 -0.82799995
-40.036709 -48.136452 -0.82800007
-31.651899 -45.059196 4.6046472
-32.29845 -45.93412 -0.82800001
-31.651897 -42.254013 -5.7780476
-31.651899 -44.689583 3.0314817
-37.240601 -37.887798 1.9306107
-31.651899 -44.178631 5.3828621
-41.08839 -44.407997 -0.31572676
-35.786831 -46.1647 -0.31578478
-31.651901 -38.716217 -6.3656831
-31.651901 -41.023064 14.939213
-31.651899 -46.589176 4.5467305
-31.651897 -46.511703 3.2998924
-31.651901 -43.020061 11.509847
-31.651899 -39.3853 -6.6682291
-36.462811 -38.998615 -0.82800001
-31.651901 -46.522625 15.928417
-32.103535 -36.633503 -3.1219878
-31.651899 -42.930679 3.0931673
-40.047592 -37.887798 -0.45958963
-34.200943 -44.70018 -0.56427681
-31.651899 -47.212353 -4.1846905
-36.762608 -36.423515 0.077100001
-32.995693 -37.887802 10.183141
-37.045921 -39.22855 -0.82800007
-38.339821 -47.000626 -0.31575683
-39.218262 -37.887798 0.13964882
-32.103714 -36.143639 2.5572934
-31.651901 -46.013248 -3.6677155
-38.801243 -37.887802 1.5700413
-31.651901 -40.449547 10.671671
-32.103893 -35.491425 8.7346773
-32.1133 -33.026733 13.089519
-32.10363 -37.795193 -0.38152742
-31.651897 -40.259457 -5.1412396
-32.103813 -37.777275 5.3352513
-32.103462 -36.178448 -5.2511396
-32.945702 -40.412075 -0.82800001
-31.651899 -44.362877 -3.4586339
-32.88015 -37.887798 12.714739
-35.02248 -37.887798 12.411736
-32.501297 -37.887798 9.0210743
-31.651899 -42.660133 7.9333186
-37.416203 -37.887798 2.9570827
-32.103512 -36.903027 -3.9068451
-31.651901 -44.54261 -9.1606979
-32.103645 -36.396381 0.058079839
-31.651901 -44.779079 9.0375652
-32.1036 -36.372322 -1.2878244
-33.218948 -37.887798 -0.053848237
-34.00988 -37.887798 14.55377
-32.103626 -34.782436 -0.3772046
-32.103428 -34.799038 -5.9880285
-31.651899 -48.216473 7.8401494
-31.651899 -45.104427 -1.0700297
-31.803385 -38.327621 -2.2218566
-31.651901 -48.204639 -0.73253906
-31.651899 -38.867718 1.8696978
-32.103371 -36.427799 -8.0737982
-34.104843 -37.887802 13.565135
-31.651899 -42.923489 -4.2066174
-32.103756 -37.682465 3.7924354
-31.651897 -47.674122 3.3901842
-31.651901 -39.38829 5.694459
-32.103874 -37.947491 7.8559484
-34.35392 -42.243767 -0.36799833
-34.52198 -37.887798 7.5419636
-32.103767 -35.685013 4.3968954
-31.651899 -41.694729 -6.0029078
-32.830429 -47.52116 -0.82800001
-33.967125 -37.887798 13.410783
-38.223938 -41.758221 -0.31575811
-31.651901 -48.237175 5.3067107
-32.92926 -38.236698 -1.002553
-36.232712 -37.887798 9.1265354
-38.29998 -37.887794 3.0274906
-31.651897 -40.35743 4.2231965
-33.897099 -34.921337 0.05641032
-32.103771 -34.609276 4.5068202
-36.36478 -37.887798 0.49993187
-39.713783 -43.906605 -0.31574181
-32.211536 -36.217403 12.485624
-32.103554 -36.565701 -2.6040077
-32.103714 -33.822334 2.5151308
-31.651897 -43.136818 4.7444668
-36.685658 -34.510426 0.081799999
-34.150551 -37.887798 8.9759102
-33.189106 -34.92931 -0.0955
-32.103844 -33.521393 7.0637522
-32.103458 -35.542072 -5.2368717
-32.131119 -36.141926 11.018259
-35.939209 -47.701797 -0.52003312
-37.423965 -47.701237 -0.5189752
-31.651901 -48.180504 12.984486
-31.651899 -40.369339 12.410868
-31.651899 -41.907738 -7.4177151
-32.103859 -37.454041 7.2958841
-37.864925 -37.887802 3.5210299
-38.104172 -37.887802 6.0026174
-35.588432 -37.887798 3.9127936
-31.651897 -43.046902 -6.9677386
-31.651901 -42.131134 -5.4782591
-32.103401 -37.331463 -7.3921032
-31.651899 -45.07254 12.423647
-35.578781 -37.887798 -0.51935035
-32.103554 -35.408783 -2.6087687
-31.651901 -44.432365 -6.4152126
-35.031002 -38.811771 -0.82800007
-31.974495 -38.127098 6.2408228
-39.80085 -46.115631 -0.31574085
-34.133816 -48.346668 -0.82799995
-32.103664 -37.909626 0.58680928
-32.383923 -37.887798 5.3213854
-31.651901 -41.63509 9.5645924
-31.710955 -38.430233 4.8201823
-31.651899 -38.967537 3.0117283
-31.855103 -38.261063 11.747062
-31.651897 -43.443871 3.2140636
-37.907146 -39.806202 -0.46628225
-31.808126 -38.317924 6.3208866
-31.651899 -47.813786 -1.7466407
-31.752064 -38.377567 14.860943
-35.674259 -42.70322 -0.315786
-32.880943 -37.887798 5.7462244
-32.1133 -34.604012 14.170593
-31.651897 -40.522964 10.555704
-36.337189 -39.050804 -0.82800001
-33.014332 -36.107574 -0.095500007
-32.131069 -45.064083 -0.82800001
-32.395992 -37.887798 11.471802
-31.651897 -41.717972 -4.2592993
-31.651901 -45.471046 8.0924549
-31.651899 -47.275898 2.8062747
-32.1133 -34.659573 11.992705
-32.986801 -35.138367 0.80134994
-31.651897 -47.800949 -4.7386665
-31.651901 -41.832001 -7.6282034
-31.819237 -38.301247 13.502144
-31.651901 -41.956299 -3.6900434
-36.360455 -38.327293 -0.82800001
-31.651897 -45.785049 -7.2856665
-38.491985 -47.146011 -0.31575519
-35.678963 -40.09705 -0.31578594
-32.90274 -42.411964 -0.82800001
-31.651901 -40.727165 -4.2418051
-34.021984 -37.887798 0.034458429
-31.651901 -43.786018 5.0119066
-32.3218 -36.798508 11.41733
-32.786953 -45.676697 -0.82800007
-31.651899 -39.652718 -3.429235
-31.651897 -40.850986 11.787933
-35.26582 -37.887798 8.3842039
-31.651901 -46.87722 -7.1381712
-39.278988 -36.612389 0.077100001
-32.103783 -34.600292 4.9279366
-41.345665 -47.613556 -0.35355437
-31.651899 -39.72662 2.8620119
-32.103649 -36.430008 0.22367656
-32.684319 -39.102631 -0.82800001
-35.945786 -37.887794 14.3218
-31.651899 -42.196182 1.6178513
-37.552483 -39.640266 -0.77921849
-39.469101 -43.592541 -0.31574449
-31.881962 -38.23415 4.6198463
-31.651897 -43.668861 6.0197754
-32.3218 -36.399139 9.7535334
-31.651899 -43.477333 -8.6952534
-33.217949 -45.698784 -0.82799995
-36.74918 -37.887798 0.6612711
-38.70224 -36.626301 -0.068738289
-31.651901 -44.661922 -9.1770248
-31.651899 -40.362587 -7.8889718
-31.651899 -45.158035 -1.6753168
-31.651897 -40.270191 -0.6025486
-31.651901 -48.278385 1.9445075
-32.10339 -35.168098 -7.2515802
-32.969547 -40.11459 -0.82799995
-38.315216 -42.545074 -0.3157571
-32.103859 -37.395626 7.4427571
-36.012741 -43.604191 -0.31578231
-38.102432 -47.443798 -0.31575942
-38.446198 -44.799728 -0.31575567
-33.693169 -37.887798 13.407933
-34.526581 -37.887798 7.2311974
-31.651899 -45.898285 11.363804
-32.103619 -34.464035 -0.51397955
-31.651901 -39.213783 11.025933
-31.651901 -47.168343 -8.6292315
-31.651901 -45.2103 -5.3548918
-39.620113 -36.54628 -0.18079999
-32.103622 -33.923355 -0.36509657
-32.103737 -34.98571 3.3292551
-32.103893 -33.059765 8.945528
-33.281906 -44.025227 -0.82799995
-31.941883 -37.887798 3.7664578
-38.508038 -47.637157 -0.39810511
-31.651899 -40.627171 -3.483428
-31.651897 -41.580502 10.189726
-39.466995 -42.553978 -0.31574452
-31.651899 -46.690434 11.102057
-38.672771 -37.887798 0.38765606
-32.103508 -35.473763 -3.8398111
-31.651899 -38.955727 -8.1734161
-36.549606 -37.887798 5.9495406
-32.1133 -33.074188 10.916431
-31.651899 -42.829697 -4.589674
-31.651901 -42.768677 13.255923
-32.653152 -41.309895 -0.82800001
-31.651897 -41.685509 11.749167
-32.1133 -34.129314 11.547858
-32.103596 -37.593895 -1.4673767
-31.651899 -44.969788 4.1594839
-31.651901 -40.506432 14.831539
-32.103596 -35.653019 -1.2827091
-36.733147 -40.230503 -0.31577441
-31.651899 -46.611137 -3.484561
-31.651899 -40.999329 -1.6874971
-33.671795 -37.786236 -0.0955
-32.1133 -35.670135 11.954887
-31.651901 -38.676888 12.405877
-31.651901 -43.721146 12.09161
-32.202026 -44.906361 -0.82800001
-31.651899 -42.942837 -3.0743837
-36.574242 -39.810703 -0.45780498
-31.651899 -43.512001 0.88972187
-31.651901 -45.65435 1.5580206
-35.726326 -37.887798 1.9104905
-31.651901 -41.160507 8.8242092
-31.651899 -41.874832 8.8102379
-31.651899 -44.715542 2.0357714
-31.651897 -41.279549 12.896643
-31.651897 -47.284714 -4.7056046
-37.640675 -43.749344 -0.31576449
-36.264404 -42.597824 -0.31577957
-32.103573 -33.899582 -1.8820372
-31.651897 -41.790951 8.7718067
-31.651901 -45.99667 6.8872166
-35.451134 -37.887798 4.0056806
-31.651901 -45.633186 11.770599
-37.618576 -48.491489 -0.82800001
-31.651897 -47.142071 7.9794674
-37.799099 -35.472614 0.081799999
-32.009186 -37.887798 3.0279732
-31.651897 -41.661388 -1.1772823
-31.651899 -43.361313 4.2502604
-31.651901 -39.670761 -3.7489285
-31.651899 -44.96793 -5.1908922
-31.651897 -47.133865 4.8314543
-33.517609 -47.442848 -0.82800001
-37.051411 -42.584354 -0.31577095
-32.869007 -45.475643 -0.82800007
-33.371597 -41.928738 -0.82800001
-31.651897 -39.008171 9.8746681
-31.651899 -46.314041 0.64645433
-31.651899 -38.859524 1.3404367
-31.651897 -46.456467 14.449874
-31.651901 -41.577019 11.043082
-33.897099 -34.63224 0.27813482
-34.259842 -37.887798 4.9493399
-32.986801 -34.360588 0.48674911
-35.450001 -37.887798 12.704122
-31.691751 -38.454315 1.0569767
-32.103848 -36.781326 7.1790867
-32.730026 -37.887798 11.981335
-32.085495 -38.002945 5.5740108
-31.981781 -37.887802 11.146012
-32.103615 -35.087112 -0.74942714
-34.782558 -37.887794 3.0214527
-32.3218 -36.735245 9.5451469
-38.838253 -37.887794 2.5941243
-32.563835 -39.122803 -0.82800001
-32.061817 -38.031105 -3.9866543
-31.651901 -47.520927 -7.3091345
-31.651897 -44.94767 -7.6995821
-32.103477 -34.348114 -4.6981106
-33.384476 -44.126648 -0.82800007
-36.491127 -37.887798 9.1944113
-32.3218 -36.771194 13.064232
-31.651897 -44.71653 0.09692955
-41.53051 -48.126823 -0.82800001
-32.10379 -36.152374 5.2091346
-31.651897 -41.770531 8.437624
-32.103737 -37.040184 3.2177424
-31.651901 -47.300282 2.2050638
-32.419941 -37.887798 -0.1409691
-31.651897 -46.053913 6.7928267
-31.651897 -41.685921 7.9574027
-37.211288 -44.874313 -0.31576917
-31.651897 -39.91814 -2.8892388
-31.651901 -40.564774 10.868208
-31.651901 -46.138206 -1.0168128
-36.782616 -47.814316 -0.7322185
-31.651897 -45.832115 1.1636772
-37.232597 -37.887794 1.0444833
-38.250057 -44.252472 -0.31575781
-31.651899 -41.455078 -0.99735165
-35.466251 -37.887798 11.284584
-38.776291 -35.55785 0.081799999
-31.651901 -46.678482 -7.5490012
-32.423115 -37.887798 13.787031
-31.651899 -46.127708 5.7496262
-32.103546 -34.343136 -2.7747066
-37.910973 -34.893578 0.081799999
-41.718369 -48.184383 -0.82800001
-31.651901 -44.452438 -8.052083
-31.651897 -45.876282 15.672419
-31.651897 -47.973103 13.870565
-35.870369 -37.887798 8.0767479
-31.651901 -46.672848 6.6377778
-31.651899 -45.369823 -5.7190161
-31.651897 -46.372025 13.666281
-40.361034 -47.670219 -0.46044832
-31.651901 -41.25013 -3.9200373
-31.936378 -37.887798 3.7557111
-35.541069 -37.887798 11.601425
-34.751919 -43.300972 -0.31579614
-31.651899 -39.486565 9.6856241
-36.348778 -36.39386 -0.18080001
-31.651901 -44.525684 -6.2494621
-32.310913 -43.849205 -0.82799995
-35.009682 -37.887798 11.879592
-31.651901 -41.862408 8.6724005
-32.103477 -37.032539 -5.0095873
-40.398155 -46.332958 -0.31573433
-31.651897 -42.751907 6.9313855
-32.103725 -37.339508 2.8819427
-31.651901 -44.162891 -0.59892654
-31.651899 -44.753212 5.0278358
-31.651901 -46.234344 10.052046
-31.651899 -48.071892 -9.3677368
-31.651901 -43.967697 11.023424
-31.651897 -43.049252 -5.9255171
-31.651901 -42.803253 0.8649931
-40.614059 -43.526024 -0.31573194
-39.17569 -37.887798 -0.270722
-31.959553 -38.142612 9.2271643
-33.484428 -38.096714 -1.0176001
-31.651899 -39.894558 -0.39549398
-32.103424 -37.1674 -6.5870638
-32.103489 -36.645905 -4.5168552
-34.006577 -48.072075 -0.82799995
-33.36134 -38.311321 -0.8465631
-31.651897 -41.71209 -7.9148769
-31.651901 -42.844856 5.7675161
-39.697876 -38.892685 -0.82800001
-33.897099 -36.586182 -0.08074256
-35.069881 -37.887802 11.859374
-31.651899 -44.530628 -2.4430618
-38.471092 -44.894173 -0.3157554
-32.028946 -43.120918 -0.82800001
-35.083931 -35.72723 0.081799999
-35.579273 -37.887798 10.473596
-31.651897 -44.360382 9.4689388
-35.184624 -37.887798 2.2979517
-31.651901 -43.641335 11.364717
-35.935837 -41.050011 -0.31578314
-33.555984 -37.887798 6.0774531
-31.651897 -41.811798 13.692182
-33.98629 -37.887798 9.0103741
-36.421829 -37.887798 4.8018827
-31.651899 -46.318493 5.1534657
-33.290009 -36.219982 -0.095499992
-32.103893 -37.571892 8.0724764
-32.113304 -35.702007 13.58757
-33.106335 -37.887798 3.0970664
-32.444397 -43.401493 -0.82800001
-31.651899 -39.772274 0.95802999
-31.651899 -39.49818 0.53290653
-31.651897 -47.88028 0.45110881
-35.051609 -37.887798 13.920876
-31.651899 -48.457615 -1.266993
-33.76252 -37.887802 3.6486814
-31.651901 -47.480541 9.4978485
-31.751827 -38.378883 12.961508
-31.651897 -40.339424 11.321764
-37.055149 -47.519348 -0.31577092
-31.651899 -43.82933 6.9967394
-33.897099 -36.472084 0.094311312
-37.219791 -37.887798 7.0707326
-31.651897 -43.803299 10.153261
-31.651901 -45.836361 8.9042645
-31.651897 -47.976425 10.789476
-31.651899 -47.566708 12.587837
-32.1133 -34.073624 14.196985
-31.651897 -47.875904 2.3646035
-33.594742 -43.727139 -0.82800001
-32.103424 -37.978954 -6.8100157
-31.651901 -39.783955 2.470057
-31.651899 -42.628841 10.643951
-32.103588 -35.7495 -1.6322961
-32.103825 -33.839153 6.352757
-33.15987 -48.096985 -0.82799995
-33.596279 -34.941555 1.1485
-31.651901 -39.244156 -3.9323087
-31.651899 -41.744827 5.9213219
-31.651901 -46.939938 5.0079947
-32.1133 -34.440357 13.980773
-36.502777 -37.887798 3.0500927
-31.651901 -42.417549 -0.79431343
-32.103878 -35.444992 8.1813316
-31.651901 -45.694054 9.4890938
-38.127071 -37.887802 1.8037399
-31.651899 -40.488075 4.7054224
-32.103725 -34.406681 2.8561225
-35.613293 -37.887798 8.8416462
-31.651899 -41.446411 10.787439
-32.104042 -37.452248 12.591984
-39.706619 -38.836327 -0.82800001
-35.404457 -40.543732 -0.31578892
-31.651901 -40.721657 13.740419
-31.651899 -48.398163 -7.2103953
-40.384109 -39.88205 -0.32318407
-31.651901 -48.552498 -7.5764718
-35.640049 -35.400005 0.081799999
-31.651899 -48.119225 14.704644
-31.651899 -41.155937 -4.0819626
-33.530182 -37.887802 3.352704
-31.651897 -42.254467 -0.73534679
-32.303658 -36.303871 13.840692
-31.651897 -43.092087 -3.7713213
-33.998569 -37.887798 3.9907196
-33.163597 -38.966728 -0.82800001
-33.853542 -44.08078 -0.82799995
-31.651899 -48.634945 1.9030186
-35.371948 -37.887798 8.3568535
-31.651899 -44.397232 14.626221
-31.651899 -43.27055 -0.75187397
-33.744061 -42.196827 -0.82800001
-32.103775 -36.522686 4.6683326
-32.103619 -37.921558 -0.79679555
-31.651897 -43.295853 7.1142006
-40.674694 -41.494186 -0.31573129
-31.651899 -44.061043 12.495378
-31.651897 -43.163437 12.93912
-40.603149 -41.914986 -0.31573209
-32.103649 -33.854233 0.41162634
-32.103798 -33.498135 5.4682269
-39.231365 -37.887798 0.016897708
-32.103382 -35.142647 -7.4013128
-32.103596 -34.657883 -1.2012799
-34.275467 -37.887798 7.4725814
-32.103634 -34.131145 -0.12794614
-31.651899 -42.490227 -0.29792023
-33.067833 -43.191895 -0.82800001
-39.100121 -40.307499 -0.31574854
-32.103516 -35.192703 -3.6459746
-31.651901 -46.256393 2.1718917
-31.651899 -43.290844 -5.1543679
-31.651897 -46.472637 -6.9632483
-31.651901 -38.538284 11.615327
-36.931576 -43.761822 -0.31577224
-32.103577 -34.404572 -1.8596039
-33.897099 -34.396675 1.0631707
-31.651899 -46.560081 -8.4270658
-38.439735 -35.044926 0.081799999
-36.4496 -34.203201 0.081799999
-41.086632 -48.374126 -0.82800001
-31.651897 -40.629913 -8.5999746
-31.651897 -39.733429 14.264731
-31.651899 -46.46312 9.4874811
-31.651897 -46.800171 -8.2563725
-31.651899 -48.645287 8.6316042
-31.651901 -46.971336 14.217613
-31.651899 -40.233425 -1.7869058
-37.291161 -37.887798 -0.2477352
-37.301334 -37.887798 7.2704182
-39.683823 -44.909683 -0.31574214
-32.064011 -37.887798 11.193162
-31.651899 -44.159691 6.3682165
-34.493393 -35.61002 0.081799999
-32.05172 -37.887798 11.001863
-31.651901 -47.107403 -5.9434657
-31.651899 -47.884724 6.6047769
-36.145168 -46.650883 -0.31578085
-31.651899 -48.306816 7.3911214
-32.986801 -34.152893 0.22764651
-39.072178 -42.542473 -0.31574884
-32.1133 -34.142708 13.169023
-36.846321 -43.869713 -0.31577319
-35.656593 -46.603577 -0.31578618
-31.651899 -41.590881 -4.6166391
-33.495552 -39.43185 -0.82800001
-31.651897 -44.47744 5.7448931
-36.735012 -34.264183 0.081799999
-31.651899 -48.294258 -6.1864214
-32.1133 -35.899529 11.540407
-32.258179 -37.095627 13.524462
-32.103493 -35.231129 -4.2489285
-32.103832 -34.600502 6.5510845
-31.651897 -42.377106 6.8693342
-31.651899 -39.919647 -5.3241506
-37.952591 -37.887798 1.1037655
-31.651897 -38.907211 -5.5982809
-32.103409 -34.768097 -6.5486507
-34.747868 -35.899078 0.081799999
-32.103813 -37.046463 6.0022621
-32.10379 -37.491074 5.1839371
-31.651901 -42.309181 2.3200474
-32.916565 -37.887798 3.6371496
-31.651899 -43.309479 4.3676004
-32.103401 -37.167809 -7.328186
-31.651897 -41.481491 11.076458
-35.738167 -37.887798 12.392488
-32.103413 -37.518295 -7.0468669
-33.081955 -34.223122 1.1485
-32.175392 -37.177765 11.891365
-31.651897 -48.319412 -4.4138598
-39.32106 -36.051086 0.081799999
-31.651899 -44.579216 10.412447
-36.747494 -37.887794 12.01595
-31.651899 -41.767479 8.4802265
-39.810802 -45.80825 -0.31574076
-32.103775 -33.948116 4.6079073
-32.264503 -37.887798 9.6384068
-33.103771 -37.887798 5.4335027
-40.183495 -38.592068 -0.82800007
-31.821953 -38.30632 -2.1026964
-34.477207 -37.887798 8.1498909
-32.103878 -35.37347 8.1465244
-40.937515 -47.449299 -0.31572843
-31.651901 -40.197594 15.178856
-31.651897 -40.46035 9.7876959
-32.103626 -35.291275 -0.37981153
-37.56786 -36.133587 0.081799999
-32.103683 -37.581921 1.5470819
-31.651901 -46.641018 12.464096
-37.858902 -43.18829 -0.3157621
-34.195087 -37.887802 10.120092
-32.113304 -33.124405 13.788578
-32.712154 -37.887798 12.785685
-37.22974 -43.20496 -0.31576899
-31.651901 -48.29649 2.4109993
-31.651897 -44.28347 -0.82217121
-36.039196 -37.887798 13.207159
-31.651897 -44.209396 3.2888107
-32.1133 -34.444283 12.956273
-35.391861 -37.887798 2.0577483
-31.651899 -43.461563 8.2247028
-32.486389 -37.887798 12.843222
-36.512402 -35.187737 0.081799999
-31.651899 -45.340683 -4.2860737
-31.651901 -44.765736 13.408733
-32.103584 -35.606846 -1.7745638
-34.173496 -39.082973 -0.82800001
-31.651901 -42.30233 0.71853828
-31.651899 -48.313717 3.9025273
-35.287983 -46.123978 -0.31579024
-32.3218 -36.624065 10.956369
-37.557495 -37.887798 0.22902238
-31.651897 -42.980499 7.889554
-31.651897 -42.647366 4.6575594
-32.986801 -34.670444 0.53268737
-32.103367 -36.108406 -8.0604467
-36.787704 -37.887798 6.1281061
-38.241074 -39.733597 -0.60320705
-32.10355 -35.137646 -2.717515
-31.651897 -45.016232 4.065918
-31.651899 -42.817406 6.9893498
-31.651899 -43.639168 2.8541393
-37.338451 -37.887798 8.0556145
-32.103649 -35.616985 0.2666887
-38.91349 -47.815552 -0.73456228
-34.095001 -36.344513 -0.11482725
-32.103477 -35.409138 -4.5762625
-31.651901 -44.39695 -7.1388454
-31.651897 -41.06892 13.265051
-31.775827 -38.359211 -7.0745831
-36.084644 -37.887798 8.5617256
-38.821007 -37.887798 1.7339866
-32.091682 -37.996658 -7.4558477
-34.95731 -37.887794 9.4538364
-40.110352 -39.049492 -0.82799995
-31.651897 -43.506107 -3.6722231
-31.651899 -43.655991 0.81059265
-31.651901 -40.063084 11.134735
-35.802238 -37.887798 15.028637
-31.651899 -46.544174 3.3755016
-35.175694 -47.762909 -0.63527668
-34.828484 -43.199726 -0.31579527
-34.689445 -36.491306 0.077100009
-32.103905 -37.632393 8.2645292
-31.651901 -43.062836 -8.7481937
-37.111572 -37.887798 2.5973401
-34.146881 -37.887798 2.0996287
-31.651897 -41.484802 -6.1305361
-31.98872 -38.110008 12.092189
-31.651899 -39.611053 -8.2935581
-31.651899 -42.707954 -5.0999031
-31.651901 -42.813198 0.14478588
-31.651897 -42.309753 9.0809193
-31.651899 -45.617477 -9.0519447
-31.651899 -48.301178 11.99417
-32.103794 -34.35181 5.3167181
-31.651897 -42.120918 -4.4184246
-37.352734 -40.00071 -0.31576768
-31.651899 -39.726719 14.953057
-38.397041 -39.374657 -0.82799995
-32.427273 -39.838013 -0.82799995
-31.651899 -47.902443 10.122396
-37.458942 -40.757271 -0.31576645
-32.48732 -45.429771 -0.82800007
-39.068535 -36.314529 0.077100001
-37.048904 -37.887802 3.7783904
-31.651899 -44.220009 14.53013
-31.651897 -42.107689 -3.5964165
-36.053005 -37.887798 4.8948736
-31.651899 -42.500458 -7.4146719
-31.651897 -39.747463 14.206446
-31.651899 -38.959885 1.8119714
-31.651897 -45.178917 -6.5228195
-35.127094 -35.882904 0.081799999
-31.651901 -44.919487 9.3929415
-31.651897 -40.44408 1.7841635
-35.433983 -37.887798 3.5488896
-38.261066 -45.515022 -0.31575769
-36.296074 -41.419449 -0.31577918
-31.651897 -43.522469 -2.430418
-31.651899 -40.431942 14.861878
-32.103897 -35.284786 8.8512516
-31.651899 -44.698807 -3.5270333
-40.846813 -44.805305 -0.31572941
-31.651899 -39.153881 0.36755598
-38.583351 -43.963684 -0.31575418
-31.651901 -47.319618 12.681436
-31.651899 -47.841576 0.40759969
-31.651901 -44.112297 3.3903713
-32.10339 -37.895367 -7.8050318
-34.092613 -46.363987 -0.70326811
-32.103596 -36.630653 -1.5224919
-36.821285 -37.887798 4.3990974
-32.103577 -34.180813 -1.8363621
-31.651897 -47.290077 13.140013
-40.109337 -41.51635 -0.31573746
-32.103603 -35.528358 -1.0750712
-31.651899 -41.897743 -3.245923
-31.651897 -48.649994 -1.9313009
-38.100006 -46.275181 -0.31575945
-39.799679 -40.660843 -0.31574088
-33.648163 -37.6432 1.1485
-33.812553 -37.887798 6.5942135
-31.651899 -41.748055 -1.6184988
-33.760307 -37.887802 2.0931234
-32.103706 -34.448185 2.1805413
-38.13488 -45.299789 -0.31575906
-34.970596 -38.094463 -1.0176001
-32.264492 -37.089363 13.108843
-31.651899 -40.890938 -0.88628912
-31.651897 -42.231117 5.9611793
-33.312462 -42.362793 -0.82799995
-34.067688 -37.887798 11.314979
-34.517197 -41.073784 -0.31579867
-39.518921 -46.158894 -0.31574392
-35.05051 -37.887798 8.6250238
-34.88929 -37.887798 -0.30131403
-37.434593 -41.717579 -0.31576675
-33.897099 -34.701843 0.73654717
-31.651897 -46.381901 1.5149298
-33.897099 -36.769112 0.42853817
-38.188297 -39.013374 -0.82799995
-38.04966 -41.045025 -0.31576002
-31.672375 -38.471786 9.7584229
-31.651899 -44.142262 2.9847422
-31.651899 -44.091423 -9.0050735
-37.669495 -43.557007 -0.31576419
-36.809887 -40.752716 -0.31577361
-40.590714 -44.299953 -0.31573221
-32.103764 -34.429779 4.2613907
-31.651901 -39.829433 2.5794287
-32.1133 -35.222767 12.739365
-35.855286 -40.462799 -0.31578404
-35.767094 -37.887798 10.934651
-32.153122 -35.151897 9.0523357
-34.687904 -44.599335 -0.31579682
-34.385231 -37.887798 4.8794322
-32.103424 -35.945717 -6.2648773
-31.651897 -47.068493 -5.5450864
-33.525135 -37.887798 6.9506431
-31.651899 -44.798702 8.3704224
-32.103603 -35.45586 -1.0601445
-31.683004 -38.460247 8.5567122
-31.651899 -40.71389 2.6786633
-32.103466 -37.16724 -5.3695145
-32.103718 -37.565376 2.6456757
-38.878181 -43.745483 -0.31575096
-31.651899 -46.233589 14.962465
-31.651899 -44.747448 -3.4473128
-31.651899 -39.379208 11.336775
-37.968475 -35.124062 0.081799999
-37.180489 -37.887798 -0.068013221
-31.651897 -39.65543 8.6979666
-31.651899 -44.234203 11.769341
-33.897099 -34.404469 0.73955619
-32.1133 -32.840637 11.948609
-32.374733 -41.274826 -0.82799995
-31.651899 -38.958988 4.0573773
-36.646915 -47.638737 -0.40110967
-31.651899 -38.518875 0.78889591
-38.221855 -37.887794 2.6807117
-32.986801 -34.324303 0.18121403
-32.103661 -34.79565 0.64265645
-31.651899 -47.138683 0.95255041
-32.103542 -33.801044 -2.9503169
-32.104042 -37.605976 12.71268
-35.658955 -37.887798 14.03953
-31.651899 -48.132759 -9.4499331
-31.651899 -41.950836 9.2890329
-31.651901 -47.969666 8.6555452
-38.942623 -37.887798 1.0310555
-32.103428 -37.630009 -6.5881052
-31.651899 -45.350384 -6.3372021
-31.651899 -39.052559 1.6001967
-32.103573 -37.274555 -2.1003356
-33.477684 -37.887802 -0.57717204
-31.651899 -48.599453 -8.79597
-31.651901 -44.752373 3.4580402
-31.651897 -42.664726 12.518937
-31.651901 -46.526588 -7.7127333
-34.715576 -37.887794 4.5994883
-33.76408 -37.887798 3.3889883
-31.651897 -39.461468 11.653986
-31.651897 -45.788227 -6.8353047
-32.103439 -36.111706 -5.8355579
-32.031006 -37.887798 8.6016417
-32.862335 -37.887798 13.50503
-33.283985 -35.12965 1.1485
-31.651899 -42.09008 -1.8489141
-31.651897 -44.692978 11.057126
-32.103889 -34.78157 8.5616245
-33.897099 -35.292759 1.1209126
-31.651899 -46.846024 0.029111862
-31.651899 -47.729172 14.590853
-34.893749 -37.887798 4.1604986
-33.897099 -34.079681 0.3350926
-32.10368 -33.71294 1.3226408
-32.103558 -33.902042 -2.4301205
-31.651899 -42.81411 15.654819
-31.651899 -45.472271 1.505681
-32.103642 -36.754768 0.068153858
-31.651897 -46.219776 3.4901748
-35.430435 -48.302151 -0.82800007
-31.651897 -42.140129 -6.847003
-34.368572 -40.77821 -0.34919885
-32.103809 -37.290314 5.7904229
-32.505253 -37.887798 7.0114861
-32.3218 -36.557541 9.5795994
-31.651897 -46.005215 3.8385172
-32.103649 -36.511288 0.33647227
-31.948887 -40.540428 -0.82800001
-33.683342 -40.66787 -0.82800001
-33.640327 -41.485359 -0.82800007
-36.89468 -37.887798 8.9115067
-31.651899 -41.188431 4.1241078
-36.670593 -36.086525 0.081799999
-31.784931 -38.346069 3.5208404
-31.651901 -41.527023 5.0041227
-32.3218 -36.820854 13.54314
-32.103813 -37.116394 5.8459187
-39.064953 -44.009785 -0.3157489
-38.875122 -39.822056 -0.43636924
-31.651899 -39.667419 4.9108353
-37.482452 -37.887798 9.2304115
-32.135082 -36.145645 14.500761
-33.016083 -36.20821 -0.0955
-31.651899 -47.169132 -1.6205776
-31.651899 -48.26862 4.0248995
-31.651901 -38.586704 -1.9351906
-31.651899 -43.718353 8.1916189
-31.651901 -40.695625 6.733654
-32.402073 -38.635456 -0.82800001
-32.103493 -37.768738 -4.7214065
-33.897099 -36.271881 0.73810345
-31.651897 -40.161926 -2.4191966
-31.651899 -48.492565 10.646601
-32.1133 -34.762505 11.357738
-31.651901 -46.639351 1.8195801
-31.966585 -45.464352 -0.82800007
-31.651901 -46.577374 11.427044
-38.920998 -45.974419 -0.31575048
-32.866043 -37.887802 1.6378459
-31.651899 -40.823364 1.7962651
-31.651901 -45.699036 0.44760275
