# .PCD v0.7 - Point Cloud Data file format
VERSION 0.7
FIELDS x y z
SIZE 4 4 4
TYPE F F F
COUNT 1 1 1
WIDTH 1463
HEIGHT 1
VIEWPOINT 0 0 0 1 0 0 0
POINTS 1463
DATA ascii
1.2021861 -15.161346 -29.978001
-0.86334085 -8.578516 -29.978001
-1.6569663 -6.596344 -29.978001
6.197495 -7.0682187 -29.978001
-3.2289894 -18.30542 -30.184399
1.8047363 1.1512806 -31.670902
4.5296493 1.609 -30.172306
7.6611013 -8.499155 -29.978001
-1.8956335 -17.36729 -29.978001
-7.7202411 -1.6552416 -30.019133
-5.2869315 4.0405078 -30.000301
-0.36307192 -15.245512 -29.978001
-2.4962814 1.2020285 -29.978701
-1.3423622 4.2421732 -29.821699
0.058623195 -0.86950362 -29.821699
9.5770369 1.6584426 -29.978001
-6.5977221 2.5657449 -30.010445
5.882113 -10.250139 -29.978001
0.72684574 -1.7101002 -30.345474
1.1547956 -15.090361 -29.978001
6.854074 -23.325497 -29.9296
13.440248 -7.4068694 -29.978001
2.6645665 -19.913715 -29.9296
2.4425581 -18.396427 -30.184399
12.501189 -4.2781 -29.978001
-3.3092947 -2.6857493 -29.984966
6.2736897 -14.078754 -29.978001
-3.0473149 -8.9643288 -29.978001
-4.6712236 -0.80926776 -29.995533
1.4216089 1.5043792 -29.821699
-3.5201712 -12.284408 -29.978001
8.5959072 -8.2695522 -29.978001
0.93292284 -19.416693 -30.184399
7.0394564 -4.861742 -29.978001
2.446032 4.4584379 -29.821697
2.0438917 -1.7666838 -29.821699
11.12006 1.8858217 -29.978001
9.1146021 -12.6967 -29.978001
8.4872475 -12.222295 -29.978001
5.4480014 -20.951057 -29.9296
8.4604321 -11.998226 -29.978001
0.37540543 -13.127365 -29.978001
3.1112802 1.3644528 -29.821701
1.6813824 1.609 -31.262636
0.76187074 -12.954722 -29.978001
-0.50891304 0.76939625 -31.6709
5.0320215 -17.291729 -29.978001
-1.1927716 -4.5828586 -29.978001
9.3411808 3.5262594 -29.978001
-4.395082 -9.7659054 -29.980436
4.9686518 -2.7842972 -29.978001
3.0873895 -16.510143 -29.978001
4.6389999 0.72048509 -29.901608
-1.9134119 -4.8484182 -29.978001
4.0180278 2.788002 -29.821699
3.5817997 5.8440189 -29.821699
11.010328 0.05878377 -29.978001
9.8705006 3.4057806 -29.978001
7.822257 -18.312065 -30.184402
7.1705289 -18.579062 -29.999531
4.6389999 -1.6235473 -30.046255
8.5658894 -0.32817155 -29.978001
-4.3156586 0.18727612 -29.992783
-6.2513628 -1.3850874 -30.007765
-1.330578 -3.7031484 -29.978001
0.065420628 6.3902769 -29.821701
-6.1897659 -0.078391314 -30.007288
2.4330201 -6.219038 -29.978001
0.27705318 -20.864044 -29.929602
-2.2423701 -5.7202349 -29.978001
0.29234362 -16.478806 -29.978001
3.1872652 -11.517568 -29.978001
-0.90649605 -12.047802 -29.978001
0.54103017 4.042583 -29.821699
7.050456 1.8550537 -29.978001
-0.99244803 1.0170358 -31.6709
-0.12036622 -11.61001 -29.978001
6.4091253 -23.415802 -29.929602
2.958811 -4.0605865 -29.978001
0.57847941 -1.7100999 -31.340538
-6.639153 -0.2951988 -30.010765
14.065322 -0.49543774 -29.978001
1.7585839 -21.669949 -30.069273
12.429386 -12.210588 -29.978001
3.1119642 -5.0952301 -29.978001
5.344738 -18.243586 -30.184399
5.7146716 -5.9860301 -29.978001
12.838599 0.92740226 -29.978001
9.2469168 -12.903571 -29.978001
12.136615 -3.6575274 -29.978001
1.72088 -20.862902 -30.144915
10.649136 -15.813176 -29.977999
5.5272717 -16.679789 -29.978001
3.1990733 2.2198403 -29.821699
9.9241161 -13.052026 -29.978001
1.1159112 -1.7101001 -29.867643
7.9021201 -14.9512 -29.978001
1.2501378 -8.1566753 -29.978001
2.5855563 4.8544354 -29.821697
16.404116 0.60426712 -29.978001
5.2489676 -10.838792 -29.978001
4.8753848 -21.621929 -29.9296
0.23657715 0.6825735 -29.821697
14.331677 -2.8794627 -29.978001
-4.9767647 3.5777817 -29.997898
1.6729796 1.609 -30.152061
-2.566453 -6.5480399 -29.978001
10.62347 1.3603264 -29.978001
4.9525537 -16.043377 -29.978001
-1.6146092 5.6201224 -30.020613
0.50208288 -0.084382057 -31.670902
3.3210235 -7.2989082 -29.978001
6.6648684 4.8937755 -29.978001
7.0212145 -0.53343427 -29.978001
-5.3660221 -6.9178886 -29.99316
4.3388653 -3.9518809 -29.978001
7.6871257 -22.517338 -30.184401
-2.655077 -7.0234981 -29.978001
0.16807437 5.1194592 -29.821699
-1.1161451 1.609 -30.214151
-2.2704124 -19.484554 -29.929565
7.8374786 -4.045877 -29.978001
4.6389999 -1.1347449 -30.756794
-4.9968266 3.6671605 -29.998055
2.7137859 -0.89447486 -29.821701
11.232903 -3.7698517 -29.978001
8.6570902 -17.857134 -29.978001
-5.6255007 3.5291901 -30.00292
4.3629255 -5.2787552 -29.977999
12.286041 1.5844926 -29.978001
4.7066345 1.5130837 -29.821697
-4.3853807 0.47428274 -29.993322
5.8428478 -10.301433 -29.978001
-1.2314 -0.70634329 -31.103083
4.4054599 -1.9182881 -30.114174
14.08752 -7.60746 -29.978001
8.164876 -8.7073412 -29.978001
-0.88076472 -4.4693861 -29.978001
0.23673284 4.1855741 -29.821699
9.4870625 0.67956662 -29.978001
-1.8733488 -16.068504 -29.977999
-1.0858744 -1.7100999 -30.9422
13.256124 2.2930739 -29.978001
6.9100518 -9.6756124 -29.978001
0.92689979 -13.045994 -29.978001
-5.6464128 -7.2050729 -29.994804
-3.1589847 3.6510553 -29.983829
-7.6476274 -1.0253078 -30.01857
-1.3728278 -2.9814391 -29.978001
0.98431671 -10.643175 -29.978001
2.7001803 -2.1277142 -30.2346
7.4372039 -11.380065 -29.978001
8.0502987 -7.7743425 -29.978001
12.275011 -12.471173 -29.978001
8.5899935 -4.9280353 -29.978001
3.9294007 -4.466764 -29.978001
16.183117 -1.7366426 -29.978001
6.8986149 -1.8905228 -29.978001
10.122953 -7.2145023 -29.978001
-5.1978631 -11.616522 -29.983269
-2.9410267 -5.9821501 -29.977999
5.991116 -15.380548 -29.978001
-0.93836087 -7.8848128 -29.978001
11.419115 -12.848629 -29.978001
1.9036736 -3.4462576 -29.978001
-4.6452332 -4.2112722 -29.992523
5.0811768 -7.5575585 -29.978001
13.645436 -4.0588541 -29.978001
2.3663707 -4.9556971 -29.978001
-1.4243795 -14.985528 -29.978001
-0.89606524 -12.420352 -29.978001
0.699929 -6.079608 -29.978001
6.5797539 -18.768511 -29.929598
-3.3508534 -14.742868 -29.978001
8.1927328 -10.778511 -29.978001
7.1061201 -20.541166 -29.9296
16.285114 -1.5669589 -29.977999
6.6390586 -1.7598587 -29.978001
15.381147 1.5205055 -29.978001
-3.3711629 -3.2401497 -29.984434
1.3571426 1.609 -30.938541
1.4392934 -1.2661552 -31.6709
0.50031519 -0.4085834 -31.670902
4.3339462 -14.774791 -29.978001
-0.48074031 -0.66495961 -31.670902
1.7538635 -18.888103 -30.078739
2.9060409 -3.7792602 -29.978001
-4.2350078 -7.7688785 -29.982845
-2.6640859 -4.9003115 -29.978001
0.70732808 -5.9193196 -29.978001
13.484396 -0.30686951 -29.978001
2.5119023 3.5581715 -29.821697
9.4078169 0.25596768 -29.978001
-5.1671767 -0.16464734 -29.999374
-3.0102124 -8.7635727 -29.977999
7.9411678 -6.297801 -29.978001
9.2111397 -9.3082285 -29.978001
-6.6365824 -1.1689761 -30.010744
-0.47352865 -7.0863419 -29.978001
1.3536406 -17.778208 -30.165293
5.1598759 -5.3503566 -29.977999
0.4323574 -7.1048379 -29.978001
-3.1887672 -9.1611347 -29.978001
-0.65219957 6.7435064 -29.821699
-0.55213475 -17.567375 -30.044649
-3.5136271 -1.3838526 -29.986574
14.703505 -4.9572191 -29.978001
8.458477 -1.649266 -29.978001
4.7304993 -22.517803 -29.9296
1.8862737 -9.3742285 -29.978001
5.107285 3.3510628 -29.975203
12.15821 -8.5019178 -29.978001
-0.58760262 -17.131979 -29.978001
0.36540198 -16.929186 -29.978001
8.2591705 -12.009572 -29.978001
12.000792 -8.0015984 -29.978001
8.0880108 -4.5629721 -29.978001
5.2134056 2.318953 -30.225872
7.0440993 -11.951771 -29.978001
-3.1738174 2.8655438 -29.983946
0.25971067 2.9184566 -29.821697
4.2288456 -1.7101002 -29.827707
6.0508456 -3.408484 -29.978003
0.38390359 -7.0991621 -29.978001
13.444416 -9.6906128 -29.978001
3.765348 -3.3442929 -29.978001
-6.0475101 -3.5747576 -30.004543
-1.9977275 -3.6956882 -29.978001
8.6047087 -18.842548 -29.978001
0.49509406 -10.752807 -29.978001
-2.223525 -5.7864609 -29.978001
6.1022782 2.7893913 -29.978001
11.240474 -14.837048 -31.366228
-5.2427168 -3.85811 -29.997795
3.2467117 -9.7461567 -29.978001
1.2055326 -15.978312 -29.978001
5.2242723 -5.1027365 -29.978001
1.9171026 1.609 -30.227581
2.3078299 -12.765547 -29.978001
1.7170013 -5.7132521 -29.978001
-0.91236186 1.609 -30.267992
9.9184914 1.5367721 -29.978001
2.3757231 1.5368512 -31.670898
-6.1427422 -6.0060096 -30.000839
9.0586634 2.8487082 -29.978001
2.3529692 -1.7101002 -30.367676
3.4512374 -1.9506383 -30.190542
3.5744004 -21.657204 -29.9296
-0.56110823 -1.7101001 -30.968525
4.768383 -12.642576 -29.978001
9.4517488 -6.9918175 -29.978001
8.8086166 -1.8411607 -29.978001
10.775576 -13.80911 -29.978001
12.172345 -5.5605173 -29.978001
6.3974919 -16.358723 -29.978001
9.8837795 -15.217367 -29.978001
0.51043797 -13.461658 -29.978001
7.3678627 4.7977858 -29.978001
8.8375216 -4.9271469 -29.978001
-4.5864019 -7.8018456 -29.985506
8.4683199 -2.6353102 -29.977999
7.5525699 -3.2593107 -29.978001
7.924284 4.4449472 -29.978001
-1.4415368 -7.6534681 -29.978001
15.915938 -1.5729479 -29.978003
-0.45701307 -20.715828 -29.9296
-2.6087792 -0.024754763 -29.979572
12.956831 2.3839376 -29.978001
9.4202757 3.8371797 -29.978001
4.6497798 -1.2518213 -29.821697
6.6874495 -5.5587244 -29.978001
-1.1124024 -2.7170138 -29.977999
12.34478 -9.4784393 -29.978001
-0.059244752 3.0743237 -29.821697
-4.1197987 4.4251556 -29.991268
6.6692891 -15.676827 -29.978001
2.4824913 -18.983501 -29.9296
-1.9828136 6.5212379 -30.2346
1.2979715 2.2481616 -29.821701
-0.47246522 -1.7101002 -30.582054
4.4842958 -18.026392 -30.184402
1.951198 5.0868254 -29.821697
-1.7420548 -8.0048923 -29.978001
5.1392765 -1.183612 -30.05077
-2.9002361 -18.972548 -29.929546
8.3449554 -8.1646996 -29.978001
0.38870668 7.4439998 -29.821699
-1.3128343 -20.265289 -29.9296
-0.8384155 -10.459766 -29.978001
12.829393 -6.9761553 -29.978001
5.49296 -15.204426 -29.978001
4.7449527 -3.8668046 -29.978001
-1.8594049 1.3530556 -30.2346
5.2542114 -10.854435 -29.978001
-0.76250696 -3.4727378 -29.978001
0.76927108 6.99651 -29.821697
-2.6984751 -18.299791 -30.184399
-7.0573325 -0.87638867 -30.014
-1.7258242 -10.255893 -29.978001
-7.2264466 2.2517986 -30.01531
-1.8542798 2.5177321 -30.2346
9.6309557 0.09492898 -29.978001
12.316102 -1.7224199 -29.978001
5.0918989 1.5454303 -29.938858
9.5680847 -3.0844877 -29.978001
-5.3213615 -9.4155855 -29.988247
9.7422047 -3.8073859 -29.978001
4.373661 2.2924972 -29.821697
-1.1872547 -2.4048879 -30.2346
-6.9438677 -4.3677855 -30.010036
1.9527506 -22.467676 -29.9296
5.9329209 -23.807718 -30.184401
3.7580829 -1.7100999 -30.923561
9.2993927 -6.3267984 -29.978001
5.8175035 -9.2532587 -29.978001
-1.8156021 -19.110933 -29.929567
14.766449 0.51948476 -29.978001
8.2216654 -18.529369 -29.983746
5.9063287 -8.6735754 -29.978001
3.3262382 -15.552187 -29.978001
6.7099609 -6.7544112 -29.978001
6.607594 -23.084528 -29.9296
4.6389999 0.33436441 -30.009155
0.071896553 -2.8721516 -29.978001
5.528336 -23.643755 -30.127316
-2.309598 -2.8672869 -29.978001
-0.56085205 6.4545088 -29.821697
11.07413 -14.976893 -30.443054
4.6389999 1.3750666 -30.572813
1.5382214 -4.9016795 -29.978001
4.0295095 -14.350806 -29.978001
-2.8127458 -2.3419759 -29.981152
-0.48259729 3.0518041 -29.821699
3.7386451 -18.834208 -29.9296
15.377359 -4.2836914 -29.978001
4.6389995 -1.6965816 -29.725388
9.5541372 -0.91775912 -29.978001
-1.2047707 -1.7101002 -31.502941
5.9682512 -6.3183064 -29.978001
1.7474368 -3.3530898 -29.978001
5.6189704 -20.663486 -29.9296
-4.5779424 -8.6537418 -29.983885
8.2330933 -15.571484 -29.978001
6.3454041 -16.236187 -29.978001
-0.83780026 -1.5051916 -29.821701
9.622612 -12.975089 -29.978001
4.1824908 4.096858 -29.821701
4.9134932 3.9061885 -29.821699
3.8884516 0.44325066 -29.821699
4.5517025 -14.591148 -29.978001
3.5742693 -5.4932318 -29.978001
2.7082424 -0.52383453 -29.821699
-7.5702972 -1.2117468 -30.017973
10.996244 -13.986151 -29.978001
7.1841979 -16.253126 -29.978001
7.2622108 -1.4693546 -29.978001
4.6286583 -14.912281 -29.978001
7.2511597 -4.3094559 -29.978003
3.3294895 -11.885704 -29.978001
-0.37682888 -6.7895689 -29.978001
-1.4217081 -13.858581 -29.978001
1.663198 6.106782 -29.821701
-3.530241 -5.0149341 -29.982422
-1.5396661 6.3938041 -29.843588
3.7856572 -20.182573 -29.9296
-7.364656 0.46270704 -30.01638
4.0290022 -10.264201 -29.978001
11.561249 -13.942233 -29.978001
1.6170557 0.28892833 -29.821699
1.4802282 -0.59220123 -29.821701
11.084875 -14.967158 -30.357874
4.1520514 -2.4019625 -30.234602
12.692999 -1.7570204 -29.978001
11.509459 2.1973865 -29.978001
10.811489 -6.6116982 -29.978001
3.1939158 3.9298105 -29.821699
9.7301064 -1.0776992 -29.978001
7.0283527 -9.3583126 -29.978003
8.477973 -16.843405 -29.978001
8.2836628 -18.766218 -29.978001
-1.1675999 -5.7717772 -29.978001
6.5365362 -3.9162533 -29.978001
-0.50900984 -18.078211 -30.184402
0.69799435 3.766907 -29.821697
7.9875536 3.6844471 -29.978001
2.1162539 -0.97275651 -31.670902
-4.8311129 -2.9600332 -29.99625
-1.298806 -1.8185884 -29.878803
0.52304018 -11.870906 -29.978001
-5.424294 0.81375861 -30.001362
3.1880319 0.26463664 -31.670898
13.918758 -7.2176261 -29.978001
4.244803 5.2007132 -29.821699
11.095535 -5.6417494 -29.978001
-0.72136176 -8.0321865 -29.978001
6.4799542 0.39278615 -29.978001
12.260243 -5.9542489 -29.977999
-5.196588 -9.6651688 -29.986826
9.0053139 -7.7060328 -29.978001
11.333518 -4.6799822 -29.978001
9.6559162 -15.294588 -29.978001
-2.3017383 -16.298143 -29.978001
6.7115483 -22.975695 -29.9296
6.0009818 -17.987217 -30.184402
5.8866386 -0.40052915 -30.008965
10.368137 -3.3148932 -29.978001
0.27067018 -16.89233 -29.978001
2.0994558 0.38474736 -31.6709
3.8203492 -17.669594 -30.103142
4.492362 -2.1798019 -30.2346
11.058899 -14.031269 -29.978001
12.458803 -11.203983 -29.978001
14.519876 -2.9205904 -29.978001
-3.7015471 -2.5332887 -29.988031
5.0962949 -15.818865 -29.978001
-2.5166502 -1.713712 -29.978859
-4.8313789 -7.9095936 -29.987206
2.3419302 0.56510746 -29.821699
1.7312866 -7.593749 -29.978001
-1.0861171 6.346498 -29.821697
7.8583956 -11.184505 -29.978001
10.434757 0.77691269 -29.978001
-5.0665064 -0.89435625 -29.998596
2.4051566 2.1642992 -29.821699
3.8730681 -14.384298 -29.978001
-1.5095087 -10.310139 -29.978001
0.62104195 0.30540645 -31.6709
2.7524316 -13.929982 -29.978001
-1.7290767 -14.224653 -29.978001
3.4933608 -1.7101001 -31.029621
8.0873594 1.1851717 -29.978001
-4.3021355 -6.353735 -29.985952
7.9040017 -23.190226 -30.165569
-3.3797171 -13.371608 -29.978003
-0.1875369 -0.44614476 -31.670898
-0.65206003 -4.6445084 -29.978001
-0.35174358 -1.0032767 -31.670902
-1.3951081 -4.8887358 -29.978001
7.6523781 -1.3870051 -29.978001
0.27945042 6.3093066 -29.821697
-1.7048554 -5.6166735 -29.978001
-4.0873857 0.46425128 -29.991016
6.5206766 -1.8573196 -29.978001
4.6389999 1.246331 -30.317013
-0.29222989 -17.716728 -30.130112
2.334595 -1.4698645 -29.821699
7.2084417 -9.4924707 -29.978001
11.040419 -14.128021 -29.978001
8.5413857 -7.1914358 -29.978001
-3.0798888 3.9555228 -29.983219
0.93964934 -15.718203 -29.978001
4.2379656 -18.561914 -29.9296
8.7787991 -0.6180951 -29.978001
10.10156 -1.9140973 -29.978001
-3.5352614 4.6069851 -29.986744
-4.6350193 -7.3001895 -29.986799
11.701893 1.5083615 -29.978001
2.7561915 1.0234475 -31.670898
6.2359042 -12.171597 -29.978001
0.065310121 0.58207071 -31.6709
0.81668788 -2.0879416 -30.2346
2.939009 -0.03109622 -29.821699
0.22320271 -16.093489 -29.978001
5.9500546 -16.720675 -29.978001
2.0875838 4.0045033 -29.821701
-2.9467938 2.2477393 -29.982187
1.0344048 -5.7228384 -29.978001
-0.082770824 -16.371552 -29.978001
2.4524548 -3.0556803 -29.978001
2.9346218 -20.787266 -29.9296
7.5467634 0.96593773 -29.978001
4.5482035 -0.51350677 -31.670902
0.94624066 -16.039837 -29.978001
-3.2307024 -18.546761 -29.953468
10.13706 -9.1680937 -29.978001
-4.3276591 2.3612905 -29.992874
5.2019973 -5.7214375 -29.978001
6.3356795 -15.068027 -29.978001
-4.0955648 -2.337286 -29.991079
8.893939 -1.8109748 -29.978001
-0.75749773 7.0003619 -29.821699
8.7055054 1.7660666 -29.978001
5.2141771 2.6165299 -30.227695
-1.4538937 -16.29248 -29.978001
-4.5626488 -7.5594726 -29.985765
7.469821 4.8762002 -29.978001
-2.2018557 0.70977354 -30.18129
14.367731 -4.411489 -29.978001
1.5239587 -7.7885962 -29.978001
8.6527939 -0.69221604 -29.978001
-7.3218913 2.5275958 -30.01605
1.6914353 -16.734669 -29.978001
9.8024654 -15.997293 -29.978001
9.9572945 -0.18680346 -29.978001
-7.3825183 -2.6801302 -30.016514
9.3833218 1.7538843 -29.978001
-0.64421105 -17.382206 -29.978001
-2.6029801 -11.700752 -29.978001
0.36213923 -15.426788 -29.978001
-2.5618157 5.2968836 -29.97921
-0.070692122 -20.215672 -29.9296
10.712903 -9.1503096 -29.978001
17.069416 0.66850328 -29.977999
-4.4314938 -7.4954224 -29.984867
6.1797576 -5.3263474 -29.978001
0.91249508 1.844873 -29.821701
0.73289961 -0.16710794 -31.6709
-0.21695209 -18.084404 -30.184401
-1.066245 1.2910659 -29.821701
3.6265819 -16.947361 -29.978001
-5.729754 -3.2107458 -30.00275
-4.6011057 3.8659029 -29.994991
8.6340046 -7.5774388 -29.978001
5.8799877 -1.2966094 -30.015596
-4.2375536 3.9603076 -29.99218
6.5259748 -7.1199613 -29.978001
7.0282531 0.047424287 -29.978001
4.9289579 -13.252371 -29.978001
10.797314 -15.523795 -29.978001
9.4156294 -6.5194454 -29.978001
12.228817 -2.4524755 -29.977999
2.3355355 -1.7101001 -30.803513
-0.70367932 -0.20870179 -31.670898
9.1826324 -4.2710934 -29.978001
3.4737546 -8.4969664 -29.978001
-6.9134111 3.1944232 -30.012886
7.6420827 2.5360489 -29.978001
12.317368 -6.5711794 -29.978001
-4.5259972 -1.5846219 -29.994411
2.5039792 -16.771641 -29.978001
0.58561695 -1.7101002 -30.43956
9.7315941 -16.51293 -29.978001
15.298527 -2.1333671 -29.978001
10.301523 -14.890927 -29.978001
0.59824431 -2.5360961 -30.11134
12.33863 -3.9570303 -29.978003
8.0277987 -2.504971 -29.977999
7.8892498 -11.245173 -29.978001
8.7735167 1.9021449 -29.978001
5.3332815 -21.794817 -29.929602
-1.5930169 -3.5162239 -29.978001
0.92598301 1.609 -29.685192
4.6389999 0.60126245 -31.09304
5.4884391 -8.5311241 -29.978001
-0.51079375 -7.7898874 -29.978001
3.1084824 -2.2629676 -30.2346
5.3315744 -19.462294 -29.9296
10.820491 -9.1246805 -29.978001
1.8029764 -4.6923251 -29.978001
0.10376799 -12.361357 -29.978001
4.6036606 -0.050258756 -31.6709
-3.2227743 -7.2660246 -29.978001
7.8223433 1.1439528 -29.978001
11.072048 -2.6327581 -29.978001
7.7061768 -12.938817 -29.978001
13.423105 -0.09739089 -29.978001
11.010117 -15.133795 -33.039371
10.10989 -16.979269 -29.978001
7.980372 -17.62619 -30.078304
1.0547216 -9.1115637 -29.978001
2.369658 0.40870988 -31.670902
3.9096284 -1.7101001 -30.881958
-2.5941343 -4.9199357 -29.978001
-0.86882752 2.6709249 -29.821701
0.03154695 1.609 -30.60384
3.1446736 -1.2172456 -31.6709
0.054578185 0.68520141 -31.670902
5.0415368 -9.3235807 -29.978001
2.9942367 -22.384693 -29.9296
-3.5675619 -5.5429668 -29.981745
4.3944712 -6.2723904 -29.978001
3.4860735 1.609 -31.49906
8.3764248 -0.15390396 -29.978001
1.6414175 -0.47228444 -31.6709
1.7280694 -20.525045 -30.130491
-2.1062212 -15.114516 -29.978001
-0.31901097 -1.7101001 -30.02914
9.8630829 2.480125 -29.978001
1.4132769 -8.4087343 -29.978001
-3.882741 -16.506958 -29.978001
7.8913016 -15.743425 -29.978001
1.3231633 -6.4474015 -29.978001
2.0399766 -1.7101001 -29.750366
-0.77399755 0.33263963 -31.6709
0.23492444 -7.4121952 -29.978001
8.252634 -17.51017 -29.978001
7.8551378 -22.472672 -30.184402
-2.9074879 -6.8262577 -29.978001
-4.1999407 1.5613719 -29.991886
4.6389999 0.38742009 -30.757441
11.530705 -10.800196 -29.978001
-4.0817728 -8.5608311 -29.980213
0.76342833 -0.97360396 -29.821699
8.3219461 -8.3680038 -29.978001
9.1927834 1.9678237 -29.978001
7.2169008 -18.343254 -30.184401
1.9944149 6.2942963 -29.821701
1.6643277 -18.012894 -30.184399
-0.32946196 -8.2964535 -29.978001
-1.6220771 6.6146522 -30.038254
0.90198284 0.97168458 -29.821701
1.4605398 4.2784638 -29.821701
-1.4043972 -13.759098 -29.978001
4.7100134 -15.897402 -29.978001
10.108987 1.2355647 -29.978001
4.5936499 -0.18820608 -31.670898
0.77324224 -2.7521286 -29.978001
-0.81728953 4.0677891 -29.821699
5.7554545 4.7773018 -30.139742
-2.7227135 -15.253643 -29.978001
14.680673 -5.3148556 -29.978001
-0.26833397 -7.984777 -29.978001
4.9327698 0.99706078 -29.821699
1.5490851 -1.5983679 -29.821699
8.3169327 -10.145041 -29.978001
13.17628 0.93618774 -29.978001
0.82002056 -22.037621 -30.184401
8.0800762 3.8320415 -29.978001
1.4045371 -11.816849 -29.978001
-0.6720795 -10.484285 -29.978001
7.267334 -0.68793333 -29.977999
10.027714 1.8569595 -29.978001
0.82947302 4.0258226 -29.821699
12.229543 -9.7200565 -29.978001
-0.90339738 -2.6694064 -29.978394
4.4311118 -21.319246 -29.9296
14.137784 -2.9429629 -29.978001
2.2114608 -7.5510783 -29.978001
6.0293202 -9.7136698 -29.978001
5.4073954 5.6189451 -30.2346
4.2261024 -10.147708 -29.978001
0.35890985 -6.2775183 -29.978001
1.3387152 -2.6866984 -29.978001
1.9023585 1.609 -30.726215
14.983267 -0.29800344 -29.978001
7.2577381 -22.805248 -30.174639
7.0362482 -10.76267 -29.978001
2.7839465 -5.3042679 -29.978001
1.922762 -3.4968567 -29.978001
1.3180978 -7.1823926 -29.978001
7.78651 -16.552494 -29.978001
6.085094 -12.124445 -29.978001
-2.916137 -7.6714516 -29.977999
12.256269 -0.59311175 -29.978001
5.662487 -3.139015 -29.978001
-0.69673085 -11.970198 -29.978001
4.6389999 0.64431876 -30.812464
4.8836966 -0.68250668 -29.821699
0.43382168 1.609 -30.562374
12.941428 -3.8785911 -29.978003
-6.9886246 -1.2387832 -30.01347
12.406588 -2.3831267 -29.978001
14.35653 -4.1963873 -29.978001
0.4850533 -1.7101002 -30.257401
-2.2281802 -1.9662118 -30.155035
6.2279382 0.037205175 -29.978001
10.151454 3.1340334 -29.978001
4.6443748 -19.5257 -29.9296
0.30967808 -8.7633982 -29.978001
11.522417 3.0716977 -29.978001
0.4703027 -2.988878 -29.977999
-0.13430837 -20.857262 -29.9296
-5.9159212 1.4584218 -30.005169
-3.0949266 -5.6921186 -29.978001
2.6751962 -21.349646 -29.9296
9.5790834 -11.160491 -29.978001
-1.6385002 6.180202 -30.077045
8.9483948 2.7007954 -29.978001
-3.9648643 -13.700449 -29.978001
-3.7478163 -13.143526 -29.978001
9.7773933 -4.8429403 -29.978001
-1.2314 0.74107635 -31.453876
13.727501 -4.28686 -29.978001
3.0168958 -22.074661 -29.9296
1.1312618 0.61805314 -29.821699
8.1925182 2.1401083 -29.978001
13.427013 2.4301825 -29.978001
-2.3260317 -20.432905 -29.929585
-3.0993855 -16.699333 -29.978001
9.7768145 -9.521966 -29.978001
6.1086497 -14.673026 -29.978001
13.889042 -4.0584741 -29.978001
5.3023949 5.2243657 -30.2346
2.449811 -8.5405302 -29.978001
8.2505379 -16.726469 -29.978001
-2.109684 -6.5420361 -29.978001
-5.8387151 -7.9882712 -29.994862
5.2203236 -5.9768777 -29.978001
6.8580513 -16.44232 -29.978001
-4.3538203 -5.7364349 -29.98748
2.5716763 -4.1469221 -29.978001
7.4738464 -8.912571 -29.978001
-0.60207683 1.6032634 -31.6709
12.140368 1.7419702 -29.978001
10.998363 -15.157608 -30.933331
7.3865757 -11.540558 -29.978001
-4.8468628 -9.2266884 -29.984921
6.1584601 4.9576879 -29.978001
2.4557703 -2.2539709 -30.2346
6.9957695 -15.121312 -29.978001
10.071826 -3.0482831 -29.978001
8.3386612 -2.7142756 -29.977999
-0.52600551 5.6065845 -29.821699
-0.14035046 -12.588648 -29.978001
-1.0990547 0.87483931 -31.6709
0.86904156 1.8343565 -29.821697
17.278263 0.55983853 -29.978001
7.3864489 -3.5650861 -29.978001
-0.35228777 -16.777887 -29.978001
6.0297408 -23.304764 -29.9296
13.380873 2.3131292 -29.978001
2.6524212 4.2631164 -29.821699
-3.5299351 4.0008526 -29.986702
8.5074368 -21.586243 -29.978001
-7.7742848 1.3920332 -30.01955
-2.5285013 -17.456978 -29.98148
1.0681376 -0.13685411 -31.6709
7.191505 -4.6415339 -29.978001
6.4173126 -17.192707 -29.978001
10.186243 -5.0512547 -29.978001
-0.47449034 -8.6669254 -29.978001
13.423838 -9.2810526 -29.978001
6.1004286 -9.628746 -29.978001
5.5532017 -15.052859 -29.978001
-0.26907128 3.0969861 -29.821701
2.7077379 3.4556036 -29.821699
-0.78170609 -19.276659 -29.92959
-4.3787327 4.9387436 -29.993271
10.692425 -4.3836627 -29.978001
12.970521 -6.8273005 -29.978001
3.2093585 5.4122448 -29.821697
-7.7380323 1.2891117 -30.019272
8.2169666 4.0632248 -29.978001
-5.1708698 -1.0697687 -29.999401
-0.27565926 3.5855145 -29.821697
0.63116872 -6.7690744 -29.978001
11.168408 -1.6063377 -29.978001
9.9691782 -6.3514462 -29.978001
0.27912873 -21.738693 -29.9296
10.183339 -8.3678589 -29.978001
-5.3936872 -10.855535 -29.986176
1.9793901 -3.8449559 -29.978001
8.8280096 -11.06522 -29.978001
11.078207 -1.1317606 -29.977999
-2.0950763 -4.1642165 -29.978001
-1.2705544 -4.5232859 -29.978001
6.1179795 1.4549907 -29.978001
1.9737396 -1.7101001 -31.249517
-1.4298505 -2.9922478 -29.978001
-3.0154228 -2.8904414 -29.982319
-4.873168 1.3243572 -29.997097
8.2927713 -7.510313 -29.978001
-0.52495444 -6.4274783 -29.978001
-4.6854467 3.1041846 -29.995646
-0.47258162 -13.592333 -29.978001
10.8622 2.9430861 -29.978001
2.4284465 4.3854389 -29.821699
-1.8045328 -16.24939 -29.978001
-2.2966883 -2.4450414 -30.086718
14.201427 -4.2187648 -29.978001
-1.3026474 -9.3331451 -29.978001
4.1324835 -0.24424583 -31.670902
1.3158634 -20.78688 -30.184402
1.1170256 -2.4789929 -30.168287
6.2433348 -19.045908 -29.9296
15.263962 -3.7883122 -29.978001
-4.4276485 -4.0565925 -29.991121
4.3740306 -1.7101001 -31.668283
7.6163402 -20.619656 -30.184401
15.398245 0.57194537 -29.978001
5.0498343 1.3812361 -29.839497
0.019604683 2.9751911 -29.821699
-7.7088237 1.854285 -30.019043
14.168106 1.1762155 -29.978001
2.7742085 4.102797 -29.821697
-7.4798541 -1.2088104 -30.017271
-4.3711734 -0.27361524 -29.993214
5.9603672 0.82564646 -29.978001
-3.0478761 -8.5025406 -29.978003
-0.26444674 -14.041076 -29.978001
-3.2174301 -13.234097 -29.978001
-4.3648286 0.24952412 -29.993164
-0.64870769 4.8703341 -29.821701
11.549706 -3.5505691 -29.978001
7.4324007 -10.644723 -29.978001
1.8103651 -21.595535 -29.965382
5.8138442 -23.449667 -29.9296
7.0082273 4.007133 -29.978001
0.43746156 1.0121045 -31.670898
-2.2511849 -11.715811 -29.978001
0.86788023 -19.777611 -30.184401
-3.5782402 -1.5401691 -29.987076
4.5650449 -9.6044817 -29.978001
-2.0677776 1.9743475 -30.2346
8.7473221 -21.281651 -29.978001
0.97716367 -18.973377 -30.184402
2.2320595 1.609 -29.759243
-5.9683137 1.9527069 -30.005573
3.6736095 0.81217194 -31.670902
-4.5762234 3.2334418 -29.994797
-1.2314 -1.633513 -29.771946
1.1441245 -17.860847 -30.184399
4.6389999 1.3981689 -31.002796
-7.4884162 -0.48166144 -30.017338
13.799759 2.2217853 -29.978001
10.526316 -8.7058592 -29.978001
1.2086285 -7.094265 -29.978001
0.72785306 -13.94355 -29.978001
10.024652 0.93374944 -29.978001
5.5301661 -11.130783 -29.978001
14.557772 -1.811601 -29.978001
6.5493383 1.5061283 -29.978001
-3.5749264 -0.5546813 -29.987049
11.004072 -15.123452 -31.956087
3.0512462 -9.9375324 -29.978001
2.9992788 4.4663177 -29.821697
3.3931842 -20.263863 -29.9296
-0.75872946 3.0703964 -29.821699
10.665707 -8.8710232 -29.978001
2.0893693 -1.8360653 -29.920059
1.3316956 1.609 -31.547451
6.7941694 -21.274357 -29.9296
5.8127136 3.3318968 -30.082661
6.0193624 -13.078408 -29.978001
5.2552619 4.2446074 -30.2346
3.8829243 -1.7100999 -30.484341
-0.10315371 -13.661743 -29.978001
9.0853424 -12.958457 -29.978001
3.8050265 -0.59808683 -31.6709
-4.7811122 -11.057468 -29.981064
1.3268445 -1.7101001 -31.347694
2.773077 -16.052774 -29.978001
1.2592785 -2.9867263 -29.978001
9.7283401 -3.1817298 -29.978001
7.9004431 -20.411053 -30.167606
9.5838852 -1.4806082 -29.978001
-0.031438768 1.609 -30.486944
1.2166479 -21.744041 -30.184399
4.6389999 -0.50378966 -30.738159
-3.8455057 -14.55521 -29.978001
-7.4819202 2.2839932 -30.017288
1.5868399 -6.6147404 -29.978001
4.6567531 -12.247558 -29.978001
-6.1125851 -8.1812792 -29.99663
8.6789989 -5.6642704 -29.978001
5.9763331 -10.746839 -29.978001
8.9941864 -15.980508 -29.978001
-1.9997685 -6.9336224 -29.978001
-2.1869681 -3.3309095 -29.978003
10.361153 -6.2161155 -29.978001
10.999394 -15.320025 -31.118088
-2.1036928 0.51764536 -30.2346
12.027269 1.47743 -29.978001
5.0482893 1.9131716 -29.835846
5.6182566 3.8808169 -30.2346
4.8668313 1.6047159 -29.821699
1.9033413 -15.915415 -29.978001
-5.2545848 1.8299114 -30.00005
2.3692656 -10.081971 -29.978001
-1.1510229 6.3348479 -29.821701
2.2471542 -22.662251 -29.9296
15.52269 -2.3350122 -29.978001
8.4856415 2.8471909 -29.978001
14.826198 -2.9837987 -29.978001
1.9077339 -18.933487 -29.9296
-7.4184303 -0.50011456 -30.016796
1.5421256 4.5573173 -29.821697
-0.0055404902 -4.2628522 -29.978001
3.8188 1.1856948 -31.6709
-1.1487082 -6.7588081 -29.978001
7.3738756 -17.750198 -30.149265
7.4014297 -7.9694629 -29.978001
-1.6034305 -0.91954708 -29.994207
-2.3168073 -12.769601 -29.978001
-1.5742164 -2.9731736 -29.978001
-7.1738071 -1.3655697 -30.014906
12.662755 -1.0943222 -29.978001
3.0430088 0.32875586 -31.6709
0.56456554 -0.90254515 -31.670898
7.157649 -16.26433 -29.978001
3.0712419 2.0538845 -29.821697
-2.3157928 1.0663316 -30.067661
-7.4904261 -2.5838559 -30.017357
3.3294244 -22.734734 -29.9296
-0.84175849 -4.5884552 -29.978001
0.97583902 -21.58395 -30.184399
2.9811554 -9.7825756 -29.978001
-1.8357205 -13.354739 -29.978001
-3.260854 -10.467534 -29.978001
13.632117 -0.61318827 -29.978001
-4.8889074 -0.078727007 -29.997219
-2.4332016 -0.71010661 -29.978214
0.51376176 -13.257539 -29.978001
-5.8699074 -0.22892427 -30.004812
13.387765 -7.5866547 -29.978001
0.64579165 -5.1183329 -29.978001
11.372186 -3.1170831 -29.978001
-6.8169188 -1.3552179 -30.012142
0.2583859 -15.509943 -29.978001
4.3381386 -3.6539571 -29.978001
3.7197065 -0.3880007 -31.6709
10.106988 -8.7027645 -29.978001
0.19697744 -7.6507454 -29.978001
-3.2967379 -12.679725 -29.978001
13.23305 1.2897388 -29.978001
2.5450037 1.5414234 -31.670902
-0.66300619 -1.7101001 -31.315159
-1.5013295 -18.4657 -30.101166
1.0947173 -0.48895961 -29.821699
8.4833527 -7.0082521 -29.978001
3.7724674 -18.199488 -30.184401
-1.4850123 -2.1594179 -30.2346
4.7270603 -17.089697 -29.978001
-1.646486 4.9250312 -30.095909
6.023808 -18.587502 -29.9296
2.8734205 -6.5444899 -29.978001
15.362818 -3.923892 -29.978001
7.1787729 -19.387644 -30.016083
11.444674 -13.92104 -29.978001
-0.51444924 1.609 -29.990059
2.5327899 -0.48604852 -29.821701
13.725801 0.2368263 -29.978001
12.766895 -10.79339 -29.978001
3.9786391 -8.1614208 -29.978001
2.6270452 1.609 -29.797382
-4.3107452 -2.0584223 -29.992744
5.4050422 -20.409794 -29.9296
2.3979337 4.5223975 -29.821699
-1.4151624 1.019886 -29.821699
6.3872528 -2.264818 -29.978001
1.2378983 6.5355244 -29.821697
7.9926901 -4.3917756 -29.978001
7.0668263 -9.7976456 -29.978001
0.89274609 -10.872784 -29.978001
-0.39212108 4.4749527 -29.821699
-3.0766451 -17.124744 -29.978001
6.6722279 -17.090893 -29.978001
2.5352867 -18.976723 -29.9296
-0.73489988 -9.3395529 -29.978001
0.95799685 2.8788233 -29.821699
-1.2314 -1.3011686 -31.084257
2.7027869 -6.2958355 -29.978001
-1.8456128 -0.032365322 -30.2346
0.32838088 1.609 -30.985605
6.9113727 -13.045143 -29.978001
3.3413057 -21.829206 -29.9296
1.891474 -1.6108468 -31.6709
-3.861244 -9.2225847 -29.978001
-0.56820935 5.2649951 -29.821701
0.22182722 -18.925106 -29.929602
-3.850127 2.9441199 -29.989182
7.6099062 -19.564537 -30.184399
3.4193213 -16.4266 -29.978001
10.937948 1.7143955 -29.978001
1.1905328 0.46162218 -29.821699
-0.40366781 -18.396631 -30.184399
6.040638 -20.930193 -29.9296
-3.2810645 5.2771444 -29.984776
3.4959824 -9.0905066 -29.978001
4.6389999 0.82491565 -30.159319
0.35652888 1.4964442 -31.670902
3.235785 2.847162 -29.821699
10.80044 -7.230536 -29.977999
-4.8914881 -7.4923615 -29.988432
-3.0330913 4.6328077 -29.982857
-0.73371208 -1.7100999 -30.729799
0.30118042 0.59235299 -31.670902
-4.8005266 -11.885457 -29.9797
16.623501 -0.5639838 -29.978001
5.3295794 -15.832272 -29.978001
15.064571 -4.5253067 -29.978001
5.2233157 -4.8890219 -29.978001
-1.5504684 3.3236709 -29.869104
8.6760654 1.9081823 -29.978001
4.849216 -17.501844 -30.007153
14.750888 -1.1587794 -29.978001
9.8165445 -12.485876 -29.978001
3.6140027 0.27159566 -31.670898
7.0299826 -13.104061 -29.978001
-0.44153261 -9.6689472 -29.978001
3.6277239 2.9151466 -29.821697
0.52807999 1.3537978 -29.821701
8.8473415 -13.870131 -29.978001
7.8646607 -10.057966 -29.978001
4.5301285 -18.118238 -30.184401
2.3792229 -19.692965 -29.9296
9.4154892 -16.503813 -29.978001
13.076636 -4.2180147 -29.978001
1.461657 3.2928159 -29.821699
-5.8319263 -4.000948 -30.002096
-1.0765138 -17.629097 -30.079967
3.4817903 1.4193095 -29.821701
-1.2314 -1.6628898 -31.489222
12.248313 0.94278741 -29.978001
-6.4168777 3.3507156 -30.009045
9.1077499 -1.1279769 -29.978001
2.4828935 -3.8191695 -29.978001
9.6055565 -9.9934072 -29.978001
6.5683374 0.87291473 -29.978001
-4.625268 -9.8403292 -29.982082
10.614193 -0.85789996 -29.978001
0.2235598 -8.3052855 -29.978001
3.779928 -1.3968748 -31.6709
7.4386153 -4.2400126 -29.978001
3.2961311 -2.9826503 -29.978001
2.7173154 -4.0917931 -29.978001
6.3863335 -21.253483 -29.9296
1.8703332 -1.7101001 -31.421152
14.341333 -1.1365 -29.978001
15.813996 0.26519442 -29.978001
-5.3491201 -6.9683652 -29.992933
9.0631685 -15.59497 -29.978001
4.4447956 -1.852089 -29.95789
5.9835792 -3.3818812 -29.978001
-8.2982998 0.87265325 -30.023607
12.363311 -7.4266067 -29.978001
0.6895985 -0.73639214 -31.670898
-2.3571763 -1.2728593 -30.026392
6.4295487 -3.9882188 -29.978001
-4.7556996 0.78628325 -29.996189
0.097337767 -21.527065 -29.9296
8.9864855 -13.771866 -29.978001
10.154571 -12.979426 -29.978001
-5.3276649 1.2072586 -30.000618
9.603857 -4.3777452 -29.978001
4.7117777 2.146836 -29.821699
9.0335875 -6.173728 -29.978001
6.78229 3.4846387 -29.978001
0.42057157 -17.309422 -29.978001
3.4958799 0.4359138 -29.821699
8.2494574 1.4446285 -29.978003
8.6604652 3.4703357 -29.978001
10.917531 -8.4984913 -29.978001
-0.59076327 -9.1080236 -29.978001
6.211956 -0.13120921 -29.978001
1.855737 -22.180092 -29.9296
11.010453 -11.530474 -29.978001
14.611517 -5.8198891 -29.978001
-0.084501505 -3.3112867 -29.978003
15.067703 -2.1545584 -29.978001
14.892755 -3.0386152 -29.978003
7.98277 2.0480998 -29.978001
4.5992842 1.609 -30.279716
1.2100102 -4.9942131 -29.978001
-5.0358915 -8.7334309 -29.987284
-0.76463294 -3.3012877 -29.978001
7.8027592 4.0438457 -29.978001
4.8974085 -23.056072 -29.9296
11.146309 -13.657845 -29.978001
0.19507152 1.609 -30.002996
1.4226718 2.7166877 -29.821697
0.22690058 -17.871948 -30.184401
6.5007281 -18.873379 -29.9296
-1.5649272 -13.620574 -29.978001
-6.2367172 2.4327183 -30.007652
-2.3231413 3.9843991 -30.060333
1.2064468 -11.219005 -29.978001
8.8231106 -0.44205123 -29.978001
-6.451436 2.6601462 -30.009312
0.11602318 5.4208884 -29.821699
-1.7471732 5.1824722 -30.2346
6.8079977 -19.018227 -29.9296
8.7026939 -10.719146 -29.978001
9.405632 -19.035759 -29.978001
12.379532 -11.710765 -29.978001
-2.7581701 -19.273624 -29.929554
-5.3851085 -10.817698 -29.986177
0.85430038 -18.770758 -30.184401
5.2907391 0.28954437 -30.2346
9.3423777 -16.197119 -29.978001
11.474275 -3.1032398 -29.978001
13.197548 -6.1112514 -29.978001
8.4884796 -4.0209398 -29.978001
-1.5980272 4.0065131 -29.981445
7.2406082 -7.6842051 -29.978001
7.0401225 4.634439 -29.978001
-2.8241274 -1.5393747 -29.981239
2.852417 2.1215315 -29.821699
0.018235922 4.8802891 -29.821699
14.318619 -4.4245906 -29.978001
-1.0852275 -10.62474 -29.978001
7.7766685 -6.834187 -29.978001
-3.8280692 -11.792931 -29.978001
7.2240458 -8.1175938 -29.978001
11.373094 -3.1497836 -29.978001
-0.15948462 -14.233246 -29.978001
3.4154778 6.3119349 -29.821697
-3.5237174 3.6594071 -29.986652
1.6998074 -0.19154078 -29.821699
6.428122 -10.58248 -29.978001
0.041199595 -21.087114 -29.9296
6.9839411 -13.762671 -29.978001
-5.0504465 2.6345513 -29.99847
3.6164353 -22.279581 -29.9296
9.3321028 -11.359439 -29.978001
-7.3321371 0.51766586 -30.016129
15.813835 -3.6492941 -29.978001
-0.98269314 3.620028 -29.821699
1.1877997 -14.05646 -29.978001
9.0259495 3.9898841 -29.978001
5.6320367 0.8138541 -30.2346
1.2675012 -11.002596 -29.978001
7.81319 -15.119682 -29.978001
-0.24023438 1.0895036 -29.821697
12.60383 -6.1151066 -29.978001
14.666874 -4.973835 -29.978001
4.6426196 -14.158078 -29.978001
-4.6826687 1.5735745 -29.995625
13.876632 -6.9709616 -29.978001
8.6552906 -2.2683606 -29.978001
2.5094213 -1.7101001 -31.06646
7.2363987 -20.495125 -30.13179
6.4446535 -8.2547913 -29.978001
-6.399044 2.0459762 -30.008907
-4.6994171 -9.9989576 -29.982367
6.0464578 -12.618038 -29.978001
3.4544015 -16.776466 -29.978001
-0.9682169 -15.449345 -29.978001
6.4960084 -23.577118 -30.005947
0.14200497 1.3547149 -29.821697
-4.9152236 -2.1423161 -29.997423
11.180607 -7.8659668 -29.978001
-6.5484662 -4.0346079 -30.007584
-4.9065175 1.0580963 -29.997356
-3.1863432 -3.5703049 -29.982401
2.154135 -18.483936 -30.067957
5.4921184 1.196335 -30.2346
-3.9496031 -16.165194 -29.978001
2.4979591 -0.70225191 -29.821699
-6.6217718 -3.6250701 -30.008902
-1.6488003 -10.8549 -29.978001
-5.2851195 1.4486035 -30.000286
6.4122047 -6.199492 -29.978001
-5.4770975 -0.12973881 -30.001772
-3.7355096 -15.636048 -29.978001
-1.3166164 -13.0664 -29.978001
3.4698792 1.609 -29.760084
-3.0078371 -13.438465 -29.978003
3.155787 -7.237577 -29.978001
9.1702433 4.1766272 -29.978001
-5.4357719 -5.9698811 -29.99543
-0.54551107 0.4196406 -29.821697
13.532535 -2.9003973 -29.978001
4.6389999 1.1966044 -31.641735
7.6203403 -14.136348 -29.978001
7.7703705 1.9272196 -29.978001
11.093884 -14.96929 -32.412384
7.4613643 -5.8357491 -29.978001
-0.76763701 -2.2013817 -30.2346
2.0331268 -13.396395 -29.978001
3.5870137 -21.385365 -29.9296
9.484457 -10.607677 -29.978001
4.8745999 -9.6810799 -29.978001
12.01093 -2.5892224 -29.978001
-5.3312478 -7.266849 -29.992252
-2.6693451 -15.076376 -29.978001
-6.3404474 3.3881841 -30.008453
6.6248641 1.7104906 -29.978001
-3.0242383 -1.3153127 -29.982788
-4.2427464 -0.15926242 -29.992218
2.9181147 -8.0983276 -29.978001
-2.5716064 -10.240942 -29.978003
-1.2314 -0.84763896 -31.161798
-1.7139248 -3.0424311 -29.978001
10.453665 -13.413678 -29.978001
0.66346449 -0.37369931 -31.670902
-3.2672398 -0.71665776 -29.984669
9.0695162 -11.601874 -29.978001
-7.0781059 1.5544351 -30.014164
14.66752 -3.7120788 -29.978001
-5.6663485 -1.3227127 -30.003235
12.838919 -2.5738847 -29.978001
3.6711013 1.609 -31.013927
4.0427837 -11.296307 -29.978001
-1.6569543 -1.8856659 -30.120638
0.53622317 -16.404179 -29.978001
0.49262238 -11.131076 -29.978001
4.6389999 -0.7213769 -31.424723
1.8583474 -12.93293 -29.978001
11.453689 -1.0774428 -29.977999
-3.5711627 5.0378933 -29.987022
5.1602826 -15.051187 -29.978001
4.4279342 -1.6238468 -29.821701
10.992053 2.537034 -29.978001
4.6389999 0.67532802 -30.884598
4.1411109 -18.439528 -30.148834
8.5101728 1.621125 -29.978001
10.183955 -13.232864 -29.978001
4.8908811 -14.240507 -29.978001
-0.83765042 -12.055461 -29.978001
4.2647467 0.18972421 -29.821699
5.6288166 -11.369813 -29.978001
1.0852263 -16.493908 -29.978001
11.521654 -11.53441 -29.978001
-5.7070622 -0.8622098 -30.003551
3.516048 1.609 -30.324499
7.2446499 -1.1420319 -29.978001
6.8645325 -9.4581156 -29.978003
2.8591688 -7.0924892 -29.978001
6.1198626 4.1932402 -29.978001
8.7697191 -18.368185 -29.978001
5.2606645 -20.922546 -29.9296
4.824295 -13.924648 -29.978001
-1.2314 1.1017931 -30.815781
3.1441736 -15.428339 -29.978001
-0.61681819 -16.770092 -29.978001
3.346734 -7.6483059 -29.978001
2.6454024 -1.0517672 -31.6709
-2.3475599 -17.738892 -30.142796
8.7473049 -18.129684 -29.978001
-2.74879 1.2824993 -29.980656
2.3432152 -19.234337 -29.9296
1.7085319 1.3990171 -29.821699
7.9689946 -6.671463 -29.978003
-0.36345422 6.4976182 -29.821699
4.6390004 -1.5960613 -31.569386
-1.670176 0.18194711 -30.151869
-6.248415 -4.3867798 -30.004616
-6.3495445 -5.7717023 -30.002869
3.4048519 -18.544809 -29.957085
0.53873396 1.609 -30.601641
10.870586 -1.3950045 -29.978001
10.048183 -6.3240299 -29.978001
7.6172428 -21.952206 -30.184401
4.5641632 -0.38236278 -31.670902
-1.2314 -1.5652642 -30.22658
-1.2314 1.4334527 -29.892395
9.0620985 -3.4749882 -29.978001
7.4581094 -21.961493 -30.184402
1.0111773 -20.226185 -30.184401
2.1556025 -15.298088 -29.978001
12.814638 -1.8182368 -29.978001
5.5580535 -16.758017 -29.978001
0.94411707 2.7043355 -29.821697
12.356893 -9.3035679 -29.978001
-3.3411653 -13.36965 -29.977999
-4.3661637 0.02631402 -29.993176
5.7131548 -18.136667 -30.184399
13.138093 -6.6914415 -29.978001
4.6389999 0.34716612 -30.750851
4.6389999 0.079285383 -29.893185
0.4715628 -19.64303 -29.9296
2.4507475 -16.027544 -29.978001
6.4911165 -18.514822 -30.0117
10.678369 -9.6296749 -29.978001
5.4089789 0.090610385 -30.2346
1.1816258 -1.9940823 -30.2346
0.095684648 -6.1450019 -29.978001
8.3065767 -7.6170902 -29.978001
-2.1787503 2.0745921 -30.204332
0.6436708 6.5219622 -29.821697
1.363534 -15.883841 -29.978001
-0.83435607 -7.944973 -29.978001
2.0017004 -18.600374 -29.9296
10.235881 -14.790229 -29.978001
-3.8470867 -7.6997876 -29.979967
1.4619596 1.609 -29.788174
7.5219493 1.3221762 -29.978001
3.2796423 0.7626195 -29.821699
-6.290802 3.4820468 -30.008068
4.2234855 -14.185942 -29.978001
9.6126595 -13.606071 -29.978001
11.75467 2.2172751 -29.978001
7.1912165 -8.5095148 -29.978001
3.5135443 1.8559813 -29.821699
5.8189259 -10.844554 -29.978001
11.53943 2.3419042 -29.978001
-6.3105764 1.2546853 -30.008221
-2.1545303 -1.0607247 -30.228487
0.41137636 -3.0456772 -29.978001
-4.4960647 -0.061796427 -29.994179
-5.6508551 2.8351297 -30.003117
-1.6680334 -9.3946362 -29.978001
-3.05621 1.9930129 -29.983036
10.135937 3.8702323 -29.978001
11.824275 -11.335565 -29.978001
4.5995569 -6.4814663 -29.977999
1.9426748 -0.60586643 -29.821701
2.4048276 1.4919531 -31.670902
11.761047 -13.312653 -29.978001
15.282568 -3.090229 -29.978001
7.0932989 -9.0503111 -29.978001
-1.2314 -1.3608441 -29.953583
10.054659 -15.519986 -29.978001
7.5118842 -2.5415895 -29.978001
-0.54832971 5.3529959 -29.821699
2.264154 -19.741684 -29.9296
-2.613122 -17.818945 -30.184401
-0.12554944 0.90333104 -29.821701
-1.4644513 -2.6888723 -29.978001
8.7711086 -19.236448 -29.978001
-0.2719962 6.2412252 -29.821701
11.707582 1.7947094 -29.978001
0.71415949 -1.7101002 -29.7246
3.5105772 -9.3025532 -29.978001
6.1700845 -19.856468 -29.9296
6.2718973 2.4184926 -29.978001
4.8209691 -22.490326 -29.9296
12.922198 2.1760986 -29.978001
-1.7801299 -11.673876 -29.978001
7.000504 -10.7776 -29.978001
-7.286612 -1.246323 -30.015778
-4.5184646 1.6124911 -29.994354
2.001122 -10.202085 -29.978001
7.2267332 -17.161068 -29.978001
8.4184532 -3.5680354 -29.978001
-2.3782184 -8.5615311 -29.978001
11.006327 -15.036986 -30.704931
11.837789 -8.7598429 -29.977999
3.6294231 -11.968286 -29.978001
-0.63615674 -1.0172728 -31.6709
-0.71673048 -8.0085716 -29.978001
-3.8872895 4.1453061 -29.989468
1.5712348 -10.07341 -29.978001
-1.9419041 5.0034075 -30.2346
10.864872 -0.91815245 -29.978001
-1.4878027 4.43818 -29.821699
7.7728662 -20.520529 -30.184401
5.3133383 -5.0619984 -29.977999
7.6334257 -21.320084 -30.184402
-2.7446315 0.31032944 -29.980625
-1.0265198 -18.779667 -29.929577
-4.2469492 0.41173887 -29.99225
10.321629 -3.7000132 -29.978001
8.9347191 -15.157659 -29.978001
2.0631025 -1.9063931 -30.08609
0.78255028 1.609 -31.172131
3.2782366 1.609 -30.520535
9.2074013 -0.33116752 -29.978001
7.3056946 4.7718134 -29.978001
0.68829107 -12.397461 -29.978001
6.4323058 -13.168385 -29.978001
-5.9473071 1.0330249 -30.005411
1.8135104 -15.623989 -29.978001
-0.27295804 2.5806849 -29.821699
2.7284436 -22.232555 -29.9296
5.4830885 1.0208316 -30.2346
4.6389999 -1.3531898 -29.783464
-0.028900266 -1.1320316 -31.670898
8.0000515 -10.144997 -29.978001
8.9057922 -4.4139676 -29.978001
-4.2463036 0.00082302094 -29.992245
10.204599 -17.185204 -29.978001
0.33153057 6.9057908 -29.821701
4.6389999 -1.3657269 -29.700548
1.934979 -6.3127527 -29.978001
-4.3925819 -1.7124954 -29.993378
8.5944576 0.016821742 -29.978001
11.689265 -12.203978 -29.978001
4.6389999 1.0573876 -31.301142
8.3173475 -18.021086 -29.978001
-1.5834813 -7.1246834 -29.978001
-1.5690818 4.6191778 -29.913071
-0.66125852 -10.580548 -29.978001
1.6172252 -1.7100999 -30.095873
-0.012560129 -17.663317 -30.099552
3.3850741 4.2633929 -29.821699
4.0300865 -11.520616 -29.978001
7.0576954 0.44802389 -29.978001
3.460403 -9.8789845 -29.978001
-0.74399793 4.1253462 -29.821699
-3.1537728 -2.7858486 -29.983582
5.8904376 -8.0063343 -29.978001
0.9421109 -11.101976 -29.978001
11.157929 2.9808269 -29.978001
-0.84431255 5.2176623 -29.821699
-3.252485 -18.554211 -29.939896
4.0489511 -19.604147 -29.9296
-3.8888173 -4.943758 -29.985327
-1.6892073 -8.7538414 -29.978001
6.474999 -3.8520854 -29.977999
1.7662867 -3.6698766 -29.978001
-1.333156 -8.9134274 -29.978001
-0.95287263 -1.8496723 -29.952187
0.16507316 -5.9130597 -29.978001
-1.2314 -1.0919186 -31.364191
3.9400587 -8.1945858 -29.978001
0.25893569 4.1189098 -29.821699
3.6519382 -8.2104683 -29.978001
0.70916325 -0.51431859 -31.670898
2.5278637 -3.0311472 -29.978001
11.985676 -11.655598 -29.978003
3.3890967 -19.738775 -29.9296
1.4723396 2.8905642 -29.821697
5.1029158 0.64542413 -29.96488
3.5126152 -19.781645 -29.9296
8.5698833 -6.8405485 -29.978001
2.3853369 1.6510332 -29.821699
9.9257536 -5.4369588 -29.978001
6.6862855 -9.6570368 -29.978001
9.585989 -3.8488274 -29.978001
-3.9751613 -1.340233 -29.990147
-3.2971642 -12.217595 -29.978001
11.938724 -3.2845981 -29.978001
5.3700719 -5.6813622 -29.978001
-4.5166225 4.1468463 -29.994339
3.2311356 1.2628649 -31.670898
4.3579054 -3.1101074 -29.978001
-4.1241598 -11.995068 -29.978001
-2.3498633 -1.259921 -30.033684
4.6389999 1.2802919 -31.525894
-5.0402851 -5.6115737 -29.993023
-5.2021689 -4.4480772 -29.996403
0.99405742 -11.827787 -29.978001
4.8033676 -16.237642 -29.978001
-2.3066871 -0.76203489 -30.076744
9.2534599 -19.771549 -29.978001
-2.9141431 -7.4307642 -29.978001
-2.877363 -12.871649 -29.978001
0.64087379 -4.8786812 -29.978003
4.4665031 -1.7101001 -30.589626
-2.0527642 6.2742872 -30.2346
12.731602 -7.9840088 -29.978001
-6.4193387 -0.35237956 -30.009064
11.406597 -7.2493448 -29.978001
12.223087 -4.0689387 -29.978001
0.20291281 -20.778971 -29.9296
2.6587424 -1.1747979 -31.6709
6.564178 -19.416557 -29.9296
-2.9638219 -14.776534 -29.978001
2.8066247 -4.6351542 -29.978001
0.40607727 2.0003865 -29.821699
-2.6435947 5.4320731 -29.979841
4.6389999 -0.45495367 -31.064705
-1.092502 -8.0016909 -29.978001
5.1852856 3.9605131 -30.159449
10.799571 -9.2837 -29.978001
9.3265791 -10.203163 -29.978001
8.8251534 -16.707441 -29.978001
-3.712903 -6.6146612 -29.980913
5.4663301 -17.920246 -30.184399
2.6654532 -1.2019049 -29.821697
-4.8783345 -12.352829 -29.97945
-2.0006251 4.6765885 -30.2346
-6.8065267 -5.4330611 -30.007027
-5.6639051 1.6658385 -30.003218
-8.3383789 1.0662714 -30.023918
13.017925 -4.3351798 -29.978001
3.4380329 -2.9172845 -29.978001
12.63782 -9.9756575 -29.978001
0.58175921 -16.339417 -29.978001
5.0234375 -12.121957 -29.978001
2.3424933 -1.7101001 -30.971399
5.8278475 1.7793137 -30.067575
-5.9616756 -5.1960778 -30.000917
1.5053543 -1.7101001 -31.638151
12.959558 -1.755245 -29.978001
4.0284586 -21.31575 -29.9296
4.6389999 1.3135796 -30.744884
5.4494882 -6.8642683 -29.978001
-6.5927677 1.11722 -30.010406
11.033742 -11.161043 -29.978001
3.5078416 1.609 -31.232647
6.8919678 -4.1999245 -29.978003
12.268812 -9.0561676 -29.978001
10.610002 -7.4852042 -29.978001
-1.2314 -0.74550509 -30.483147
-1.6282097 0.6550175 -30.052738
10.297165 2.4960399 -29.978001
4.1417308 -19.159882 -29.9296
6.2323484 4.8276682 -29.978001
-1.2108821 -4.5778775 -29.978001
0.20964646 1.2690388 -29.821701
