# .PCD v0.7 - Point Cloud Data file format
VERSION 0.7
FIELDS x y z
SIZE 4 4 4
TYPE F F F
COUNT 1 1 1
WIDTH 1558
HEIGHT 1
VIEWPOINT 0 0 0 1 0 0 0
POINTS 1558
DATA ascii
31.159752 13.921427 -29.977964
32.640293 14.34053 -29.977654
30.790527 23.415964 -26.732111
42.702019 10.708 -30.234558
37.620586 8.9136534 -29.978001
34.288826 26.320976 -21.910517
36.292229 29.143084 -17.226683
32.327198 9.9785967 -29.978001
31.375351 25.990673 -22.459002
40.309711 6.4209018 -29.821699
37.247829 18.585268 -34.748425
33.68906 20.539446 -31.505665
23.414871 20.590631 -31.420948
36.154854 15.225939 -32.356522
25.213533 21.6026 -29.74139
35.481407 15.232864 -34.838898
38.257805 15.227423 -32.887669
23.474945 8.3104839 -29.978001
43.503525 21.551277 -29.825277
33.520721 15.222194 -31.014061
42.943077 15.230613 -34.03141
31.904696 16.659182 -36.753307
37.390545 5.1898499 -29.978001
27.328857 3.2637241 -29.978001
35.991417 23.148161 -27.175947
24.562155 9.5621758 -29.977999
32.61068 27.637321 -19.726088
42.838634 7.9712358 -29.821697
31.285624 24.963646 -24.163506
42.57159 11.161588 -29.977854
34.33009 25.919807 -22.576292
31.339876 4.7677236 -29.978001
40.706318 14.930135 -29.976519
32.17099 27.831131 -19.40449
28.700003 20.447515 -31.658661
31.883457 24.773546 -24.478928
33.940132 19.626602 -33.020599
42.131588 17.825644 -36.008533
28.056372 22.733589 -27.864494
38.942268 18.648678 -34.642986
24.562561 6.7112641 -29.978001
36.880638 1.8501438 -29.978001
25.041838 4.971693 -29.978001
31.010302 25.175465 -23.81196
42.437038 15.231726 -34.430199
23.009418 25.384993 -23.463728
42.282516 17.133274 -36.75209
28.02685 18.767872 -34.446278
30.802481 17.196306 -36.753437
36.696953 8.8784637 -29.978001
26.167383 10.068365 -29.978001
35.573967 24.812653 -24.413593
36.479111 23.446991 -26.679953
34.908607 29.201374 -17.130108
34.089989 28.399925 -18.460297
38.263344 18.688566 -34.57687
35.987522 15.231256 -34.262253
40.396526 18.023548 -35.680286
36.001869 15.228058 -33.115475
43.404991 22.937918 -27.524006
37.723701 28.515759 -18.267635
40.982803 5.3693094 -29.821699
29.570002 17.545753 -36.47451
38.161713 20.159142 -32.136299
24.755444 6.3502254 -29.978001
30.246763 27.893398 -19.301039
32.201218 8.530159 -29.978001
30.288952 28.962112 -17.527328
29.968607 24.853691 -24.345934
35.229076 20.008785 -32.386177
31.448185 24.433014 -25.044128
25.108366 19.562847 -33.126789
30.758179 4.9348035 -29.978001
26.297544 14.083735 -29.978001
42.372345 14.591117 -29.976435
35.911789 14.089901 -29.977354
37.602577 26.676998 -21.319269
38.5933 23.702888 -26.255016
36.243568 23.734114 -26.203468
34.650322 8.8169861 -29.978001
38.216736 7.0154777 -29.978001
28.310673 15.224438 -31.818901
26.943033 26.307713 -21.932556
26.781687 15.22916 -33.511951
30.544044 3.7642531 -29.978001
24.033527 18.918877 -34.195602
21.549664 25.135309 -23.878033
42.944397 12.633997 -29.977009
26.327112 10.296203 -29.978001
25.72781 27.995331 -19.131592
41.007698 10.097514 -29.82268
25.124834 15.007352 -29.978001
31.602486 15.16238 -29.977509
32.639332 24.681086 -24.63229
32.753502 24.948425 -24.188593
37.138546 25.212639 -23.749588
38.018578 11.757411 -29.977873
30.041807 20.103836 -32.229034
43.454262 18.067032 -35.607765
34.613655 17.876759 -35.924583
31.493206 27.736828 -19.560968
23.38443 24.659508 -24.66782
26.845642 2.3824334 -29.978001
33.674686 10.948501 -29.978001
35.561916 16.695717 -36.75288
38.925518 3.0024562 -29.978001
34.115059 21.646515 -29.668316
40.009125 16.376053 -35.902008
38.004906 9.4882565 -29.977999
37.659985 13.846799 -29.97723
23.663141 16.990757 -36.7537
25.893997 19.495747 -33.238159
43.709888 19.692863 -32.909492
42.985363 14.585032 -29.976364
24.677387 9.0946226 -29.978001
37.385658 14.906522 -29.976915
43.204418 24.608452 -24.751595
30.990286 7.2667928 -29.978001
26.249622 24.599195 -24.768089
37.107872 17.501762 -36.546635
27.33683 22.184017 -28.776558
25.759892 15.229286 -33.556866
34.702053 20.477127 -31.608973
40.151337 22.685122 -27.943928
32.057667 24.43948 -25.033321
40.630455 24.373138 -25.142422
42.636955 25.620899 -23.071396
34.492188 22.192617 -28.761953
25.696674 19.925398 -32.525051
29.202166 2.8549585 -29.978001
30.853758 27.16486 -20.510212
28.879116 28.276186 -18.665653
27.474327 2.5709407 -29.978001
26.143734 4.5177531 -29.978001
38.592087 8.4498892 -29.978001
30.183022 22.321312 -28.548862
36.218102 16.502739 -36.462967
42.643997 15.230474 -33.981964
34.81543 15.22784 -33.037811
25.024601 6.4240112 -29.978001
41.858013 18.759892 -34.458073
31.148506 23.151733 -27.170588
33.481419 23.436291 -26.698057
23.613934 21.030317 -30.691193
37.055378 23.421143 -26.722784
29.489647 5.8298321 -29.978001
39.730221 11.080347 -29.977917
22.508089 23.41604 -26.731543
27.922806 24.193773 -25.441061
39.804642 23.643688 -26.353127
37.685783 26.109325 -22.261375
42.436546 15.22076 -30.499687
31.182961 26.055996 -22.350576
36.700222 2.1766334 -29.978001
29.832346 20.636703 -31.344707
30.720531 12.191963 -29.978001
33.539944 20.1322 -32.181553
25.717697 24.802547 -24.430559
29.260597 25.652695 -23.019814
28.979628 8.6321583 -29.978001
43.643608 18.29517 -35.229126
26.472626 9.4222727 -29.978001
35.325275 10.222054 -29.978001
24.073431 20.70023 -31.239048
23.277176 9.7559166 -29.978001
24.907892 14.298177 -29.978001
27.462156 6.7821255 -29.978001
38.329582 19.707108 -32.886482
33.359116 22.305695 -28.574425
39.177437 15.234308 -35.356781
35.892471 21.17942 -30.4433
31.691816 25.541386 -23.204638
25.453924 15.227182 -32.802822
31.585846 20.464771 -31.629845
29.412634 17.448399 -36.636097
23.905384 15.225258 -32.113434
26.603294 10.499039 -29.978001
25.012615 23.26366 -26.984566
33.46505 17.558578 -36.45277
23.812786 15.22344 -31.461578
25.86463 15.228527 -33.284828
37.526165 27.132196 -20.563828
25.911377 20.028786 -32.353458
30.121449 26.668293 -21.334303
25.6071 2.7742405 -29.978001
40.694366 25.779606 -22.808231
23.938019 11.77239 -29.978001
40.263138 13.474825 -29.977047
25.654163 27.806526 -19.444935
42.020275 27.819973 -19.421867
25.999033 15.164721 -29.978001
40.222637 11.137785 -29.977871
28.467855 15.223083 -31.33386
40.300392 20.54715 -31.492111
25.428526 15.139534 -29.978001
33.763958 1.6222239 -29.978001
30.291059 6.6246748 -29.978001
25.037184 9.5714607 -29.978001
32.798935 16.891665 -36.753201
34.182335 22.838861 -27.689478
33.372765 19.146471 -33.817497
41.535408 15.896626 -35.676399
26.780905 28.127575 -18.912172
40.879677 14.628895 -29.976597
40.384823 23.499134 -26.592957
31.606441 12.684988 -29.978001
28.997393 18.249256 -35.307037
31.021887 15.220491 -30.404396
33.842091 1.9962428 -29.978001
41.754734 22.342602 -28.512192
25.216702 15.223125 -31.348864
27.139961 27.687382 -19.642769
30.6215 25.844131 -22.702175
34.984764 24.847912 -24.355146
42.085732 25.790415 -22.790129
25.315195 23.616501 -26.398979
35.009865 27.623314 -19.749056
28.04557 15.229761 -33.727188
39.349815 22.280375 -28.615746
23.355087 16.019909 -35.676399
32.501842 21.689556 -29.597067
30.066357 8.2269011 -29.978001
23.207977 26.435307 -21.720564
38.734085 6.7183261 -29.978001
39.177162 23.477386 -26.629194
34.452225 20.829918 -31.02351
29.347635 16.531431 -36.590012
35.868538 19.615301 -33.039135
39.30896 11.568355 -29.977781
37.107609 23.579201 -26.460464
24.49967 15.23053 -34.002235
37.590893 25.958607 -22.511517
38.336529 10.275578 -29.978001
28.342251 28.38036 -18.492727
42.159451 21.623323 -29.705864
38.138199 24.730062 -24.550362
25.265694 19.335627 -33.503906
31.53932 6.894526 -29.978001
41.437119 16.375643 -35.900204
39.973419 18.494743 -34.898338
32.732712 15.231371 -34.303444
38.207119 27.256798 -20.356956
31.336525 27.142563 -20.547247
37.86261 15.22155 -30.782761
25.684229 20.822086 -31.036812
33.411194 15.232235 -34.613289
41.346016 18.197588 -35.391342
38.175484 17.837635 -35.989094
33.04084 24.286884 -25.286455
35.338173 16.656166 -36.752903
43.332649 21.503155 -29.905159
41.445599 16.474997 -36.339954
39.729275 16.007349 -35.676399
34.73806 12.995046 -29.97785
38.546597 17.72015 -36.184029
23.211117 15.232368 -34.661842
36.017551 17.53639 -36.489292
26.491241 21.109123 -30.560476
38.696629 18.54406 -34.816643
31.563633 28.827597 -17.750656
32.768234 8.4726706 -29.978001
30.77095 18.295958 -35.229324
31.429943 1.0386987 -29.978001
24.968212 24.858374 -24.337864
31.517458 23.886391 -25.951294
30.30998 15.228551 -33.29303
43.650551 16.161184 -35.676399
27.25452 20.184174 -32.095631
27.531767 15.221551 -30.78484
22.399923 23.52408 -26.552223
30.745764 15.228925 -33.426682
23.386616 21.973921 -29.125065
37.594757 7.1103754 -29.977999
38.254227 15.230423 -33.96339
24.890635 19.405842 -33.387375
29.747074 25.312222 -23.584909
38.895905 26.927345 -20.903637
24.031919 17.377445 -36.7537
29.825502 22.782505 -27.783417
39.645985 11.618652 -29.977728
31.992931 21.97983 -29.115391
33.182571 15.227934 -33.071899
22.092657 26.6245 -21.406498
29.947809 28.013575 -19.101566
34.827003 18.08021 -35.586903
38.134361 19.215454 -33.702457
31.726913 25.057608 -24.007511
34.160686 28.246098 -18.71558
26.648352 26.39938 -21.780403
29.854307 15.233056 -34.907875
34.489738 26.381073 -21.810753
37.623791 4.8356376 -29.978001
27.906282 3.2772174 -29.978001
38.872959 24.812794 -24.412971
25.306273 15.233312 -34.999573
26.035568 22.962311 -27.484768
35.313694 18.519911 -34.857117
27.702209 4.0632124 -29.978003
33.275463 28.621021 -18.093458
22.681664 23.568621 -26.478302
26.233761 26.586807 -21.469309
31.58997 22.578991 -28.121065
31.9972 6.616282 -29.978001
24.961452 23.932625 -25.874296
42.630924 9.880126 -29.821699
22.024467 26.822357 -21.078123
32.556496 1.0699105 -29.978001
36.424927 20.026943 -32.355904
41.090092 20.060162 -32.300224
27.90115 18.629374 -34.676128
39.894043 23.133495 -27.199835
36.986713 26.90794 -20.936071
39.071842 14.6154 -29.976814
37.836185 10.624508 -29.978001
34.678864 25.819151 -22.743305
35.08754 10.990989 -29.978001
26.056904 25.929468 -22.560265
38.623161 19.439899 -33.32991
39.853477 3.8283587 -30.098083
42.045197 8.4096403 -29.821697
32.499073 19.563988 -33.124687
29.796402 26.661657 -21.345299
44.058769 15.233889 -35.206345
42.883087 15.234041 -35.260624
29.090979 16.704084 -36.753632
41.400719 15.226828 -32.674393
29.249754 18.415535 -35.031052
39.052025 7.8900733 -29.978001
24.716654 23.582514 -26.455357
41.380241 11.281801 -29.97776
40.590012 15.175337 -29.976452
24.8992 17.318466 -36.753704
30.923584 1.3240721 -29.978001
35.115646 -0.025764942 -29.978001
29.508129 24.141418 -25.528048
34.588448 15.222097 -30.979748
37.114174 23.029354 -27.37299
37.815681 23.788952 -26.112276
32.430031 23.986904 -25.784378
42.62112 18.214317 -35.363426
27.947998 13.963833 -29.978001
32.576012 16.218405 -35.676399
35.92923 20.487608 -31.591436
34.488571 18.066433 -35.60981
34.34219 26.835361 -21.056831
24.880322 21.381653 -30.10807
38.423649 11.458719 -29.977921
34.410015 15.22887 -33.407158
21.387878 26.951307 -20.864065
34.712254 23.308882 -26.909367
34.904091 29.113003 -17.276766
23.78857 26.14003 -22.210667
34.803799 9.2590742 -29.978001
38.344635 9.7138195 -29.978001
33.080963 24.286556 -25.286999
39.143761 24.016907 -25.733799
22.942846 18.348124 -35.142899
42.068531 22.167753 -28.802334
42.308571 22.634668 -28.027409
34.547169 15.227353 -32.863552
37.793411 19.361818 -33.459587
25.607897 25.092152 -23.949907
25.713146 8.4992285 -29.978003
34.126373 3.8809814 -29.978001
36.68074 5.8677845 -29.978001
39.681236 5.0409441 -30.2346
36.125801 20.336351 -31.842442
27.823479 24.326668 -25.22049
31.170671 6.2643375 -29.978001
31.753557 9.4413013 -29.978001
30.318581 2.4271665 -29.978001
34.208549 20.836605 -31.012436
31.268383 21.589827 -29.762726
38.131847 15.22255 -31.141464
32.877468 7.7983627 -29.978001
37.443886 10.060745 -29.978001
43.107071 22.983606 -27.448212
42.484451 17.727903 -36.170704
30.005474 26.022202 -22.406593
31.205959 9.327322 -29.978001
38.307373 4.3146567 -29.978001
28.468292 23.179813 -27.123932
39.198879 27.736103 -19.56138
38.083672 12.143188 -29.977736
32.885277 9.749485 -29.978001
42.019939 9.5573664 -29.821699
37.612129 23.063194 -27.316769
23.07918 27.673141 -19.666157
26.137573 25.167648 -23.824635
29.861664 25.354195 -23.515257
38.228046 25.613897 -23.083529
25.905979 23.28899 -26.942577
38.424034 25.942814 -22.537632
38.388466 3.4252977 -29.978001
40.889309 24.474895 -24.973515
21.411474 26.93195 -20.896194
41.653244 24.812864 -24.412533
30.241302 26.243519 -22.039295
32.668743 23.997248 -25.767187
40.335545 15.231701 -34.421741
40.261555 26.264391 -22.003727
25.091778 22.382084 -28.447697
37.569092 7.0500526 -29.978001
32.490528 13.899378 -29.977818
28.204662 25.06234 -23.999544
25.017859 22.033298 -29.026558
31.295387 15.223415 -31.452255
42.265125 20.174206 -32.110821
31.996738 8.5797253 -29.978001
40.845936 9.3763542 -29.821699
41.449417 18.630596 -34.672703
27.861141 11.628459 -29.978003
29.558981 20.264771 -31.962002
41.193844 15.228627 -33.319359
37.479931 15.227893 -33.056385
38.792675 22.957941 -27.49131
29.847862 28.656643 -18.034277
43.000244 25.920322 -22.574425
35.059685 15.228693 -33.343372
38.605171 17.613144 -36.361607
26.534546 7.9446001 -29.978001
41.825821 23.769192 -26.144596
37.062908 23.861034 -25.992735
41.757275 15.222511 -31.127419
37.401363 16.977089 -36.752663
33.67112 15.233775 -35.165108
33.833633 25.872025 -22.655651
33.988407 18.106028 -35.544155
38.336365 7.3680601 -29.978001
29.408388 7.6560965 -29.978001
37.97364 14.025092 -29.977135
24.724834 7.3304148 -29.978001
25.611412 20.252655 -31.981894
21.527454 25.505388 -23.263824
38.338493 19.752941 -32.810413
23.148769 10.516015 -29.978001
35.114819 5.9182291 -29.978001
36.854469 26.467735 -21.666653
31.691776 5.7959232 -29.978001
32.672459 27.721203 -19.586878
32.221329 10.716206 -29.978001
34.975014 15.231713 -34.426239
24.277802 16.961555 -36.7537
32.720329 28.257057 -18.697559
25.080999 15.232275 -34.628422
37.749229 19.065952 -33.950615
27.47835 18.635368 -34.666157
32.584572 24.595522 -24.774298
38.384136 8.7233429 -29.978001
27.566027 14.018894 -29.978001
32.382931 27.197689 -20.45574
26.870625 15.221947 -30.926514
36.805618 1.5837865 -29.978001
35.023903 22.922752 -27.550156
36.609039 24.017614 -25.732924
29.078241 7.4790778 -29.978001
26.081345 13.761903 -29.978001
32.05098 17.865919 -35.942871
37.234406 14.592337 -29.977036
24.283333 2.8970742 -29.978001
26.268467 14.595082 -29.978001
28.041367 27.573441 -19.831928
23.24387 25.728123 -22.89426
27.180925 23.706264 -26.250114
23.407543 26.492262 -21.626053
29.599167 26.443638 -21.707127
39.842976 5.5244436 -30.12285
32.52084 19.705807 -32.889317
30.263138 21.049053 -30.660318
37.910084 13.351544 -29.977362
28.3857 10.172246 -29.978001
41.292091 27.27984 -20.318359
40.075474 11.729943 -29.977638
39.944218 25.386045 -23.461473
25.296928 4.180078 -29.978001
26.260864 9.926487 -29.978001
36.403217 24.527164 -24.887295
28.093765 21.089066 -30.593861
24.858574 2.9803195 -29.978001
25.904678 20.51506 -31.546389
39.776245 11.897914 -29.977619
40.932602 7.5543814 -29.821701
30.880968 11.690913 -29.978003
28.49873 4.0759821 -29.978001
24.62192 15.232759 -34.80164
35.262787 16.281948 -35.676399
40.113735 20.678513 -31.27412
34.519726 9.4487448 -29.978001
24.858109 21.55069 -29.827522
34.608875 12.788471 -29.977932
38.394337 15.223293 -31.408031
40.722725 19.648682 -32.98317
28.185062 22.917814 -27.558746
37.510864 25.511719 -23.253187
42.88628 20.898346 -30.908957
35.819962 15.357093 -35.676399
29.109943 27.39217 -20.132841
41.868172 21.535364 -29.851875
29.429386 10.681359 -29.978001
34.464752 18.443142 -34.984623
25.161732 26.146702 -22.199669
33.996971 25.599411 -23.108065
30.803116 24.79929 -24.436274
29.054111 11.816796 -29.978001
32.958389 18.966045 -34.116985
32.126213 20.362034 -31.800285
40.660641 5.4397597 -29.821699
33.619576 8.8037729 -29.978001
35.046467 16.038952 -35.676399
34.111378 23.299669 -26.924725
39.583195 3.7416584 -30.2346
28.893646 12.251122 -29.978001
35.50246 13.425541 -29.977619
40.644367 25.527264 -23.227026
27.150845 15.219638 -30.09897
25.140392 24.070065 -25.646208
26.222912 16.15696 -35.676399
24.391245 24.182774 -25.459101
24.010864 5.5739794 -29.978001
33.937141 18.913204 -34.204567
39.021786 18.868105 -34.278816
32.894505 21.282261 -30.272978
34.731628 18.804035 -34.385651
34.318657 13.491808 -29.977736
37.577324 15.226601 -32.593449
33.020813 1.3387153 -29.978001
26.380857 22.610023 -28.069473
31.027758 15.228468 -33.263359
23.40111 17.63031 -36.334267
38.98254 15.225097 -32.054184
27.683281 2.2979374 -29.978003
36.129299 15.222276 -31.043182
35.983093 16.941191 -36.752827
26.656931 13.032571 -29.978001
38.438641 21.672821 -29.624153
30.888355 15.233266 -34.982906
41.162472 16.355328 -35.810238
35.563744 15.230783 -34.092716
28.576338 20.217121 -32.041031
33.201828 0.591892 -29.978001
29.019283 15.230088 -33.844307
29.507896 26.310318 -21.928387
41.384281 27.675385 -19.661896
23.531769 24.402599 -25.094212
36.631886 14.751406 -29.977055
41.34502 21.295929 -30.249306
35.036621 22.073421 -28.959709
31.810177 1.1094903 -29.978001
24.096439 15.22114 -30.637295
42.094376 14.635889 -29.976452
35.169392 16.472116 -36.32737
35.854782 26.640556 -21.379953
34.77636 8.5182781 -29.978001
28.545979 8.4820538 -29.978003
35.56287 29.392933 -16.812119
40.027103 6.9578958 -29.821699
26.00592 10.229014 -29.978001
32.716774 23.901236 -25.926525
34.900703 20.495464 -31.57852
39.33987 15.227573 -32.941689
41.191681 18.641556 -34.654549
33.341812 4.1087861 -29.978001
41.299244 21.444389 -30.002926
39.625786 15.072834 -29.976599
38.148315 14.239981 -29.977043
42.166992 19.263283 -33.622612
25.127312 20.650114 -31.322226
39.419487 14.352069 -29.976858
28.588028 21.0431 -30.670179
23.77825 15.221539 -30.780516
31.68642 15.227884 -33.054043
36.17907 18.220991 -35.353104
28.293898 21.535046 -29.853691
23.182829 20.87767 -30.944542
41.471039 22.565027 -28.143084
25.570663 25.095947 -23.943607
35.451099 5.0150528 -29.978001
39.772076 9.0328531 -30.2346
41.048637 20.795246 -31.080275
27.749645 12.128384 -29.978001
35.31823 15.23104 -34.184654
35.485924 1.5147696 -29.978001
35.134468 16.498383 -36.443672
22.516735 21.02392 -30.701809
37.007706 26.859478 -21.016495
33.136906 22.196144 -28.75626
41.95797 16.296112 -35.676399
35.438568 20.331301 -31.850903
40.037308 15.233803 -35.175289
39.320179 11.568026 -29.977779
28.17499 20.198223 -32.072372
26.097176 15.226464 -32.545258
26.097935 3.4835029 -29.978001
42.73444 15.234432 -35.401016
26.170984 18.101027 -35.553013
38.351433 24.280067 -25.29715
39.695404 22.289309 -28.600876
40.572414 27.830502 -19.404558
39.245338 18.995672 -34.067078
35.425827 24.572769 -24.811722
40.521477 12.289542 -29.977402
21.835842 27.190168 -20.467663
36.928085 15.221829 -30.883196
37.60833 25.23457 -23.713139
34.162933 27.351814 -20.199739
26.015387 23.242645 -27.019499
29.526695 22.809454 -27.73867
34.415024 3.9570336 -29.978001
27.206497 27.391132 -20.134451
33.752892 22.90719 -27.57613
23.155884 16.548185 -36.664192
30.939745 1.7949681 -29.978001
35.827545 22.150497 -28.831703
27.820076 8.6215086 -29.978001
34.157234 27.787628 -19.476461
27.637096 21.753559 -29.490993
38.81282 15.225172 -32.081524
25.906948 24.143614 -25.524185
30.413107 12.794389 -29.977999
28.16791 9.9647264 -29.978001
43.135967 15.226557 -32.576923
30.418411 13.77461 -29.978001
37.22559 22.959774 -27.488457
33.463387 15.2215 -30.765938
38.078594 24.744183 -24.526932
26.815439 17.514797 -36.525993
40.008331 26.046129 -22.365986
24.696789 24.310736 -25.246744
34.146839 28.304699 -18.618326
26.060946 21.878815 -29.283016
42.689274 24.163769 -25.489655
30.00765 5.7924728 -29.978001
39.364899 24.736734 -24.539146
37.218071 6.045485 -29.977999
34.089851 2.0350151 -29.978001
35.26506 16.933285 -36.752914
32.757038 9.4525995 -29.978001
40.498772 17.869234 -35.936382
29.158703 4.9399014 -29.978001
35.549934 22.759077 -27.821728
37.206726 20.214405 -32.044697
40.11145 21.66095 -29.64366
26.117706 25.342434 -23.53455
40.985104 26.843063 -21.04327
31.600414 3.1894827 -29.978001
35.111576 17.982529 -35.748985
32.084358 12.393435 -29.978003
35.151085 19.144093 -33.821236
31.486668 17.943787 -35.813705
29.551794 6.0262771 -29.977999
30.029318 15.225273 -32.118336
27.411251 22.720736 -27.885786
37.241947 15.227226 -32.817623
36.697632 15.232983 -34.880966
25.360437 19.524885 -33.189796
23.29237 16.821249 -36.7537
27.702127 18.367514 -35.110718
42.891426 20.202061 -32.064522
31.389233 10.723948 -29.978001
41.149376 20.333286 -31.846937
39.086166 15.226314 -32.49041
38.748611 21.384583 -30.102482
28.157187 25.68697 -22.962856
41.53474 11.646008 -29.977497
26.992184 19.491077 -33.24593
36.695702 18.134758 -35.496159
28.993439 14.808642 -29.977928
40.453335 19.905987 -32.556171
28.184557 12.963107 -29.978001
42.847466 16.634615 -36.752029
39.433449 15.227243 -32.823265
29.535437 19.806812 -32.722038
25.53286 19.14187 -33.825493
34.827858 23.093487 -27.266823
30.157719 24.832628 -24.380903
42.319096 14.214336 -29.976566
25.058659 15.563558 -35.676399
28.070404 11.627624 -29.978001
25.565283 23.781609 -26.124969
27.246033 5.3664589 -29.978001
23.565153 23.369869 -26.808203
28.199694 24.975819 -24.143141
36.872478 26.184118 -22.137344
35.458717 27.601299 -19.785542
40.204689 22.008802 -29.066347
39.790913 20.407509 -31.723915
40.88216 6.5449924 -29.821699
35.5723 18.721457 -34.522602
24.12355 16.327875 -35.68869
32.943207 10.033343 -29.978001
38.335876 13.556332 -29.977243
24.927406 22.661127 -27.984564
38.559475 27.850233 -19.372051
35.174759 24.248686 -25.349602
35.402626 17.229095 -36.752895
25.333315 17.606428 -36.373909
42.470787 27.721544 -19.585167
31.171701 15.231442 -34.329502
25.260645 14.073268 -29.978001
29.157467 26.148518 -22.196903
32.242477 14.165246 -29.977758
24.631836 20.80917 -31.058237
27.506729 5.2821875 -29.978003
32.715588 5.0538082 -29.978001
30.297447 16.388092 -35.955322
33.378933 18.366411 -35.112091
30.450031 20.968901 -30.79332
29.310143 19.347921 -33.483643
25.998316 2.5612454 -29.978001
26.977451 6.2640848 -29.978001
38.400299 4.8290472 -29.978001
34.00536 20.888573 -30.926214
38.357224 25.181385 -23.801317
35.418236 22.496153 -28.258099
36.237602 15.221634 -30.813148
37.914215 24.306156 -25.253904
25.234669 16.485409 -36.386223
27.399313 19.375301 -33.438103
40.902069 15.22797 -33.084087
24.652824 24.986252 -24.125607
33.566528 13.288574 -29.97789
22.432747 24.644108 -24.693317
27.617348 10.983665 -29.978003
28.642467 7.7247081 -29.978001
25.382612 10.509978 -29.977999
33.125008 23.088705 -27.274958
42.468292 7.818665 -29.821697
38.810677 20.378677 -31.771881
40.955235 7.9749937 -29.821699
42.28833 15.931507 -35.676399
22.186722 25.649052 -23.025427
41.192158 15.229975 -33.802254
36.695381 18.646708 -34.646523
30.338608 13.027941 -29.978001
36.54361 26.205591 -22.101744
24.73373 20.898993 -30.909155
40.870815 20.568518 -31.456581
24.233759 24.937084 -24.20718
30.10614 20.907246 -30.895681
40.28447 6.8456168 -29.821699
37.6702 26.951447 -20.863785
29.304012 18.763235 -34.453995
32.657387 15.235157 -35.66111
33.360703 17.492252 -36.562855
25.249666 27.850479 -19.371971
33.708134 26.529434 -21.564623
25.784496 6.3421535 -29.978001
37.890369 17.523193 -36.510979
28.011871 15.220751 -30.497416
37.676395 22.884914 -27.61264
41.835869 14.309504 -29.976589
31.069906 24.723988 -24.561266
33.989273 15.223351 -31.428896
23.504539 21.650618 -29.661665
35.282284 27.083862 -20.644308
38.57597 5.4972696 -29.978001
29.639257 17.263964 -36.753571
28.544678 24.103388 -25.591103
29.951994 3.3050084 -29.977999
37.060791 3.8969307 -29.978001
27.472677 18.06974 -35.604935
38.421974 12.736769 -29.977503
24.891457 26.557434 -21.517975
42.264385 26.541447 -21.543686
40.612331 9.576498 -29.821699
29.626427 15.233078 -34.916008
27.335281 5.7636361 -29.978001
34.83931 14.2251 -29.977436
38.69854 18.63151 -34.671509
27.703367 17.84535 -35.97736
28.297377 4.4222879 -29.978001
23.738237 6.4214563 -29.978001
43.091003 5.3874702 -29.821697
43.790344 17.835297 -35.992321
37.559189 15.227188 -32.803535
30.482843 20.877045 -30.945759
40.03981 15.580982 -35.676399
28.557831 21.786959 -29.435617
37.458626 17.702042 -36.214211
34.796368 7.0759406 -29.978001
35.011467 16.904112 -36.752941
24.133928 23.905546 -25.919191
29.68095 2.8943758 -29.977999
37.146057 16.502333 -36.461098
38.884972 15.229781 -33.732983
39.353458 21.470098 -29.960485
33.399414 27.684597 -19.647545
26.780239 15.436349 -35.676399
32.809254 23.206171 -27.080048
35.570225 6.5191174 -29.978001
31.601299 15.220806 -30.517393
42.385834 21.824465 -29.372021
26.789545 18.995708 -34.068081
25.508644 23.33419 -26.867535
28.394611 28.099802 -18.958366
23.430182 17.209881 -36.7537
29.261917 16.502722 -36.462887
38.527149 21.559845 -29.811638
41.496716 21.319546 -30.210094
30.010571 15.231646 -34.402431
29.513607 20.563433 -31.466324
36.881966 22.805908 -27.743856
31.041889 15.79596 -35.676399
35.464153 23.559132 -26.493961
42.60289 15.220045 -30.243439
37.439606 15.033092 -29.976868
41.655056 5.7161331 -29.821701
22.949018 15.225374 -32.155113
34.068909 0.99870527 -29.978001
36.387268 14.784046 -29.977072
43.459846 18.298458 -35.223694
26.442802 15.22034 -30.350433
41.841164 15.233213 -34.963943
24.745237 13.068308 -29.978001
25.183064 23.441605 -26.689249
36.415432 5.5687008 -29.978001
39.303459 21.525265 -29.868935
32.140762 22.991028 -27.437181
21.694019 24.244833 -25.35597
30.609581 26.871166 -20.997633
23.13522 25.457895 -23.342745
38.42947 26.456646 -21.684872
37.810879 16.438282 -36.177551
31.890841 19.567776 -33.118469
43.579731 21.4939 -29.92049
33.30312 8.4712143 -29.978001
41.63731 15.226838 -32.677826
34.991653 3.4972503 -29.978001
35.411957 24.708118 -24.587099
39.81826 5.1922989 -30.18121
39.968384 3.3159323 -29.826698
34.58252 7.1009693 -29.978001
42.298599 26.80625 -21.104214
42.145115 4.9154615 -29.821701
30.458218 19.675322 -32.940155
27.91715 15.233079 -34.916298
21.364355 24.210634 -25.412737
36.086906 23.724476 -26.219484
34.420483 23.579533 -26.460226
28.4354 28.650137 -18.044994
29.555378 4.7427588 -29.978001
25.041599 3.190124 -29.978001
41.268482 24.708872 -24.585163
31.609936 1.7912245 -29.978001
33.757683 17.782982 -36.080315
33.365086 9.8792229 -29.978001
39.93856 10.790706 -30.15922
27.604828 15.229896 -33.775356
25.24502 23.600651 -26.425289
35.599556 21.678572 -29.614941
26.618149 8.4222364 -29.978001
34.229912 23.056431 -27.328396
29.707457 15.225063 -32.042858
31.966347 3.849483 -29.978001
38.559673 8.1923208 -29.978001
31.857502 3.0510101 -29.978001
27.558191 18.939075 -34.162106
40.704205 27.644041 -19.713995
38.671974 28.33975 -18.559628
22.91118 15.228327 -33.212948
43.026161 21.865284 -29.304203
37.231171 23.276474 -26.962854
42.892933 14.349652 -29.976452
25.566746 11.278433 -29.978001
38.172218 14.604876 -29.976921
26.214581 3.5475326 -29.978001
23.754215 16.580788 -36.7537
40.810173 12.685716 -29.977242
36.969231 26.013603 -22.420324
32.456738 15.224452 -31.824018
33.449551 22.453556 -28.329018
31.900875 25.415443 -23.41362
34.365803 15.227842 -33.038612
21.218103 25.839241 -22.709719
35.466732 23.02301 -27.383715
36.898682 21.404907 -30.068964
31.934277 11.460073 -29.978001
32.595921 28.197632 -18.7962
39.797768 5.5025139 -30.229572
39.684822 8.6342106 -30.2346
37.027912 6.2586141 -29.978001
34.012089 5.150744 -29.978001
39.832458 14.663292 -29.976709
39.334419 14.060001 -29.976963
27.653481 15.222039 -30.959249
36.838127 15.223911 -31.629345
25.799734 21.459732 -29.97854
27.361639 10.920184 -29.978001
32.140617 8.1659565 -29.978001
36.176197 10.419704 -29.978001
33.014896 7.5245891 -29.978001
23.341335 9.465414 -29.978001
25.116184 10.69323 -29.978003
42.634892 18.589809 -34.740257
41.633106 22.051052 -28.996061
42.99297 26.044239 -22.368778
27.532818 21.883549 -29.275246
23.5723 18.499878 -34.891022
30.578979 22.292776 -28.596191
33.571526 28.883532 -17.657759
30.810024 24.703737 -24.594862
42.708912 27.096542 -20.622395
29.017525 15.231216 -34.248543
42.058784 15.229218 -33.530537
24.845161 13.709427 -29.978001
25.629896 15.234523 -35.433552
23.275528 25.549252 -23.19113
30.319658 18.580004 -34.757973
40.292179 23.271856 -26.970161
24.650644 15.565857 -35.676399
42.927979 20.475985 -31.609907
33.961319 18.609129 -34.709206
38.996929 18.390221 -35.071915
41.159874 21.701443 -29.576332
38.762413 17.707964 -36.204227
30.492292 24.870914 -24.317383
30.335938 9.0325336 -29.978001
27.694681 15.227962 -33.082745
25.684574 15.220749 -30.497051
25.071428 13.430932 -29.978001
38.482231 18.42244 -35.018509
30.505695 24.195019 -25.439148
25.676794 11.185466 -29.978001
34.042992 5.9200325 -29.978001
36.010841 22.545486 -28.176151
32.743729 29.088827 -17.317142
41.544971 15.219593 -30.081682
38.220665 25.122057 -23.899792
29.34115 22.80188 -27.751228
30.65065 23.228687 -27.042933
41.974396 13.162189 -29.976948
35.135632 18.084602 -35.579575
40.59742 5.9813585 -29.821701
42.046703 20.479595 -31.604019
31.931355 4.5391626 -29.978001
33.932499 29.317493 -16.937508
39.005779 24.688942 -24.618504
32.615334 26.357176 -21.850634
25.265797 14.858666 -29.978001
33.219139 26.164557 -22.170238
30.829557 12.162704 -29.978001
30.559999 7.9467268 -29.978001
35.909023 28.894772 -17.63883
43.117611 23.414486 -26.733124
30.789783 4.7290611 -29.978001
32.569942 24.745285 -24.525747
26.31229 18.594004 -34.734806
32.878113 15.233963 -35.232964
40.783382 15.22957 -33.657837
39.700489 23.55949 -26.492872
28.810091 15.225047 -32.037563
26.622076 27.606426 -19.777098
28.7208 19.75106 -32.814552
40.703072 15.234934 -35.580921
32.179188 4.0250659 -29.978001
26.701233 16.593546 -36.7537
31.435841 24.61216 -24.746815
40.888405 10.758368 -30.191448
23.212919 18.254297 -35.298622
35.401443 2.3526597 -29.978001
29.003897 11.314418 -29.978001
40.714336 18.133577 -35.49765
35.846958 3.4194064 -29.978001
38.937569 11.434699 -29.977869
31.064461 23.688358 -26.28001
35.197628 13.271348 -29.977705
24.729488 23.807905 -26.08128
24.284672 20.102217 -32.231583
42.583038 11.867753 -29.977304
40.865658 7.8833785 -29.821697
30.724648 22.098909 -28.917913
30.175797 17.449272 -36.63456
23.35424 24.921009 -24.233812
39.664047 21.087395 -30.595589
43.360245 20.105282 -32.225082
31.608498 15.228818 -33.388504
21.72081 26.886786 -20.971169
42.903656 23.559582 -26.492344
37.634384 16.360525 -35.833252
33.624794 13.674899 -29.977758
35.870758 21.743483 -29.507183
38.029228 23.740919 -26.191965
33.685169 16.980732 -36.753098
43.063431 23.953438 -25.83868
33.733032 3.043191 -29.978001
30.190712 17.169703 -36.75351
23.925123 7.3779259 -29.978001
28.295044 26.909447 -20.933954
29.938589 21.933807 -29.19198
42.535835 25.380159 -23.47094
33.981377 28.525932 -18.251184
27.46645 14.367253 -29.978001
37.569069 13.537084 -29.977341
39.631691 27.967768 -19.176861
26.18606 22.319027 -28.55242
40.958721 22.212368 -28.728416
30.316696 28.535698 -18.235037
36.094376 22.284813 -28.608755
38.191986 15.23356 -35.087807
30.492958 25.39782 -23.442894
35.236012 24.971558 -24.149914
28.834333 6.2998924 -29.978001
28.721849 11.571873 -29.978001
42.853279 19.032383 -34.00573
38.23138 27.818203 -19.42524
33.072876 24.37101 -25.146839
41.658588 24.835796 -24.374474
34.02132 22.624195 -28.045757
35.773422 15.221634 -30.813278
35.670326 7.8226676 -29.978001
25.140446 9.2996683 -29.977999
28.466928 3.7246175 -29.978001
23.035114 26.654247 -21.357189
28.344542 8.4221821 -29.978001
34.271114 9.3865833 -29.978001
24.396681 25.751335 -22.855804
26.463337 16.355795 -35.812309
36.800034 15.234652 -35.479774
29.644381 6.4873962 -29.978001
41.71978 23.236134 -27.029278
37.050278 3.4838099 -29.978001
42.728512 27.617493 -19.75782
38.496353 4.8954501 -29.978001
33.227097 17.704172 -36.21117
23.741955 18.496563 -34.896526
38.984077 14.894106 -29.976734
40.750374 15.226134 -32.425724
37.722923 28.187965 -18.811638
37.942734 27.789028 -19.473694
37.336906 20.52951 -31.521729
35.988083 15.230505 -33.992874
28.86883 19.165188 -33.786915
39.205658 22.894541 -27.596485
27.969103 15.228922 -33.426563
37.487106 17.195314 -36.752655
38.876621 17.776985 -36.089661
35.554115 22.404581 -28.410051
24.109541 15.223201 -31.375782
30.885685 2.5761862 -29.978001
35.511818 15.662874 -35.676399
35.485535 4.2330933 -29.978001
34.911591 17.036385 -36.752956
24.57893 24.863861 -24.328732
36.616638 19.838547 -32.668549
30.298512 22.704151 -27.913483
24.126736 16.9624 -36.7537
29.09267 25.680546 -22.973577
41.456852 26.402414 -21.774525
40.673553 27.017134 -20.754417
22.732624 15.2244 -31.805511
31.427238 7.9797125 -29.978001
31.962307 18.699512 -34.559441
22.544527 24.598206 -24.769508
35.637531 16.520939 -36.543396
26.588493 6.4828148 -29.978001
23.418156 14.883056 -29.978001
41.740822 24.282637 -25.29249
36.165375 18.2013 -35.385788
32.112228 18.586096 -34.74765
42.974846 8.8634605 -29.821697
32.412521 26.677574 -21.318916
23.52969 27.205662 -20.442049
27.3218 17.822258 -36.015686
38.682758 26.830833 -21.063837
27.558664 24.069843 -25.646717
31.993856 22.883297 -27.615986
23.639038 18.985502 -34.085022
23.182106 23.96381 -25.822439
26.616373 14.417468 -29.978001
36.580978 2.4862149 -29.978001
42.923264 23.644896 -26.350756
30.530064 20.009386 -32.385731
34.631012 15.22753 -32.927052
43.625031 21.81299 -29.390919
27.73085 27.125114 -20.575985
35.885834 23.214161 -27.066429
25.78549 15.230463 -33.978962
34.312885 25.868301 -22.661776
35.949234 21.707241 -29.567318
29.56616 10.136766 -29.978001
25.371969 22.296803 -28.589251
42.039497 23.2314 -27.037098
34.651241 3.7923491 -29.978001
29.968136 27.934759 -19.232374
32.574245 21.220383 -30.37571
35.360367 18.495228 -34.898075
30.360939 8.6001921 -29.978003
29.323606 18.987213 -34.082279
40.325119 10.61304 -30.234587
37.117523 27.141199 -20.548937
32.815933 20.625656 -31.362694
31.869604 28.462429 -18.35673
43.569069 21.892534 -29.258911
41.837593 15.233727 -35.14782
28.196827 14.322214 -29.978001
27.868359 26.092813 -22.289278
27.999481 9.5098906 -29.978001
34.662537 15.230791 -34.095558
34.033836 16.140551 -35.676399
38.036526 5.5711794 -29.978001
22.772379 20.787895 -31.093542
27.341915 22.108341 -28.902153
23.017899 22.557293 -28.156826
40.798107 20.008759 -32.385567
35.422043 26.592899 -21.459095
25.0867 14.985778 -29.978001
41.692757 26.280458 -21.976894
35.358429 27.83577 -19.396423
26.874393 26.556028 -21.520426
28.055693 15.224037 -31.675209
24.730562 6.7350893 -29.978001
22.998951 20.04207 -32.331409
33.853359 24.351192 -25.179638
41.845184 15.732391 -35.676399
31.069836 28.689951 -17.979074
23.645391 17.213491 -36.7537
28.903549 18.322777 -35.185032
27.992992 15.226026 -32.388496
32.963413 24.127125 -25.551603
35.204231 16.315292 -35.676399
41.900414 7.9262443 -29.821701
40.718513 22.213799 -28.726074
36.529003 8.1177444 -29.978001
38.236652 6.3241687 -29.978001
39.384415 4.2920732 -30.2346
33.671387 21.538042 -29.848389
26.93557 10.814694 -29.978003
42.586506 19.666405 -32.953533
24.555353 25.021147 -24.06769
35.954842 22.150753 -28.831263
41.506683 17.510157 -36.532192
34.984524 15.234416 -35.394943
38.796768 15.234526 -35.434723
28.735411 14.501734 -29.978001
36.091728 21.917421 -29.218485
29.725594 16.417044 -36.083515
38.083092 7.5598879 -29.978001
35.649757 5.3681889 -29.978003
39.104214 6.3160343 -29.987083
33.636135 24.788506 -24.453897
27.038303 22.257484 -28.654612
43.806396 15.232487 -34.703705
31.983032 28.729279 -17.91386
38.599903 9.2138453 -29.978001
30.438126 20.156246 -32.142006
24.374949 26.850788 -21.031073
24.150333 3.037457 -29.978001
33.72348 27.034218 -20.726879
24.947536 25.885826 -22.632626
30.746103 15.223385 -31.441902
30.494049 26.107876 -22.264435
31.200319 26.184013 -22.138109
27.149218 17.192839 -36.7537
33.938332 2.7629094 -29.978001
26.854488 5.3907471 -29.978001
43.472042 21.625851 -29.701515
43.567799 21.506561 -29.899479
40.664455 19.831852 -32.679184
30.958992 15.219539 -30.062872
25.27198 8.9619703 -29.978001
33.41153 4.7671614 -29.978001
25.107605 25.213032 -23.749254
41.732895 21.244341 -30.334877
24.165432 27.722383 -19.584497
30.762569 2.8794966 -29.978001
31.49184 11.233132 -29.978001
42.495434 16.43697 -36.171749
38.741261 14.57922 -29.976864
33.272034 1.406207 -29.978001
37.591953 2.6191535 -29.978001
37.662766 6.2379704 -29.978001
38.970798 23.251371 -27.004311
22.948229 27.208008 -20.438122
41.957531 4.6995649 -29.821701
32.280403 24.703274 -24.595503
23.750381 21.91263 -29.226791
27.639374 5.8925605 -29.978001
37.770771 17.303543 -36.752617
41.251461 25.888105 -22.628098
36.389992 19.102621 -33.889923
28.684603 25.670208 -22.990707
21.583426 26.980125 -20.816246
37.139076 15.221272 -30.683752
27.735132 15.226264 -32.473888
21.91128 22.581305 -28.116978
24.782604 23.354187 -26.834309
35.794823 20.657263 -31.309891
21.856653 24.436369 -25.038078
35.752647 4.5032368 -29.978001
28.61974 15.220074 -30.254778
41.867554 13.94153 -29.976706
24.30365 15.981571 -35.676399
31.457787 6.1150999 -29.978001
35.665817 11.902397 -29.978001
27.632111 9.9040928 -29.978001
29.458921 14.980883 -29.977818
22.731424 12.229227 -29.978001
25.963757 23.139881 -27.190056
27.255672 16.374794 -35.896442
28.594206 15.226614 -32.598728
26.090334 15.222919 -31.275063
34.774651 0.42924905 -29.978001
33.489777 19.202713 -33.724152
37.154957 11.365614 -29.978001
35.798737 16.642736 -36.752853
35.205776 23.773621 -26.138025
31.646845 19.489332 -33.248684
23.222359 7.3607988 -29.978001
38.076401 23.333382 -26.868315
35.009727 18.214888 -35.363373
36.637638 25.596943 -23.111856
38.965317 6.6718292 -29.978001
43.253807 15.224437 -31.817314
42.672813 20.748528 -31.157623
24.403 27.589899 -19.804396
39.376835 26.338196 -21.881342
30.201899 8.9520245 -29.978001
38.23613 8.2474384 -29.978001
27.810616 20.466961 -31.626333
37.945942 22.655491 -27.993364
43.007278 15.223501 -31.48172
32.285824 12.131843 -29.978003
25.33532 5.4582272 -29.978001
37.759476 21.461943 -29.974209
42.513245 6.0410933 -29.821699
29.402409 21.8269 -29.369381
28.746666 18.856567 -34.29911
37.597717 18.213631 -35.365154
25.978195 16.741589 -36.7537
26.554035 9.9416237 -29.978001
37.12603 15.222408 -31.090565
40.91243 22.058027 -28.98457
42.577042 15.219998 -30.226416
27.662163 21.438377 -30.014091
28.926804 17.935911 -35.827068
43.223297 8.2442951 -29.821697
23.475292 22.523584 -28.212772
35.96106 15.224087 -31.692459
28.12542 5.0838194 -29.978001
41.46294 15.227962 -33.080933
41.115433 25.374378 -23.480703
31.164598 26.71796 -21.25194
31.538769 18.286997 -35.244102
41.040661 10.219995 -30.111977
31.779678 15.813724 -35.676399
33.168388 12.026937 -29.978001
28.944988 15.225003 -32.021606
32.488205 20.761122 -31.137911
28.531277 20.589666 -31.422728
35.786583 4.1473298 -29.978001
38.672272 23.043852 -27.348751
24.750296 2.9403062 -29.978001
30.640779 17.968475 -35.772835
21.48912 24.106909 -25.584888
25.713461 15.233932 -35.222176
35.037476 13.399997 -29.97768
23.862959 14.479091 -29.978001
40.120045 5.4308367 -29.821699
38.372414 4.4767971 -29.977999
43.190933 24.585598 -24.789524
34.50106 10.442698 -29.978001
35.768936 28.934425 -17.573036
42.25177 19.145573 -33.817947
33.164574 15.222831 -31.242371
37.56813 15.225471 -32.188286
23.054827 16.40937 -36.049545
28.709669 24.400097 -25.098679
38.813869 11.661062 -29.97781
38.117641 15.239906 -35.676399
30.19313 3.5330217 -29.978001
35.093269 14.876098 -29.977192
24.282803 23.385162 -26.782869
42.267998 22.858294 -27.656281
36.629166 19.234722 -33.670654
26.345596 20.401073 -31.735598
34.450184 17.562479 -36.446178
31.618687 15.234943 -35.584724
35.884384 2.6825328 -29.978001
32.869217 0.50248432 -29.978001
30.931925 20.59034 -31.421528
36.158455 6.5933542 -29.978001
42.135372 22.558672 -28.153553
34.806793 15.553217 -35.676399
30.38452 9.896986 -29.978001
32.201645 19.243435 -33.656712
29.068924 13.642436 -29.978001
43.700722 15.42065 -35.676399
37.523041 27.900303 -19.28907
35.32391 6.8869987 -29.978001
25.321405 26.085762 -22.300821
22.12425 25.141689 -23.867479
33.105915 27.02696 -20.738998
40.859539 4.1789432 -29.821697
24.14143 21.555826 -29.818989
29.40741 18.201229 -35.386692
32.729385 2.7782221 -29.978001
24.141104 19.266979 -33.617844
30.536453 12.211378 -29.978001
40.599403 27.882086 -19.318947
32.965919 15.227301 -32.844536
38.294853 20.462234 -31.633266
38.147415 15.223963 -31.64753
27.108633 15.222044 -30.961607
26.230564 15.626953 -35.676399
26.229523 12.30933 -29.978001
32.410805 26.52372 -21.574257
28.479172 18.044479 -35.646896
41.536564 5.9500275 -29.821699
42.171658 9.1790352 -29.821699
36.613716 28.768528 -17.848263
38.194706 13.835854 -29.977169
24.119654 14.001395 -29.978001
41.334579 15.232328 -34.64682
27.759384 21.113934 -30.55257
30.340708 13.820667 -29.978003
37.265846 20.026506 -32.356529
39.135708 20.00959 -32.38438
32.295124 0.41337252 -29.978001
22.464005 21.547857 -29.832214
34.723198 17.667133 -36.272461
22.586899 20.119728 -32.202515
42.404922 12.257854 -29.977192
29.271261 15.166636 -29.977779
26.290966 15.295763 -35.676399
33.591793 5.0700235 -29.978001
34.552822 22.733353 -27.864538
37.937916 20.88179 -30.937008
43.240452 20.696682 -31.243597
38.596252 3.3758554 -29.978001
41.053925 15.231145 -34.222237
37.667267 27.381073 -20.150776
42.995537 7.1851029 -29.821701
23.510847 14.532996 -29.978001
31.854553 9.4874659 -29.978001
32.06501 17.965473 -35.777645
36.140289 15.228703 -33.346626
35.366436 15.228727 -33.356003
23.455435 27.416185 -20.092646
35.620819 15.223401 -31.446724
39.788586 12.482572 -29.977425
35.326614 12.246558 -29.978001
24.790955 10.36209 -29.977999
26.739191 21.256538 -30.315828
38.186695 19.685732 -32.921974
26.613449 26.58025 -21.480211
40.444939 27.131229 -20.565092
37.159821 21.087105 -30.596361
24.708864 5.0952797 -29.978001
25.774427 20.134878 -32.177372
28.030172 3.539463 -29.978001
29.439802 19.54512 -33.156357
40.695705 8.7602873 -29.821699
36.944786 13.437572 -29.977448
39.066277 20.265961 -31.958914
35.604481 25.437004 -23.377411
27.274742 21.20697 -30.398129
30.417511 6.5243969 -29.978001
30.076195 25.080845 -23.968945
37.755653 28.036514 -19.062984
26.207241 22.037462 -29.01972
36.055664 17.757984 -36.121532
34.017769 0.32453752 -29.978001
35.188553 2.7677987 -29.978001
31.25901 21.179436 -30.443819
37.804771 27.528915 -19.905403
35.228115 22.625679 -28.043158
23.16918 15.222982 -31.297977
26.398914 4.8551235 -29.978001
40.636086 16.524639 -36.559151
34.999092 18.378128 -35.092461
38.022034 21.662586 -29.641184
39.295174 27.602406 -19.783258
41.452026 15.231207 -34.244865
22.808273 19.191481 -33.743156
41.887539 15.228872 -33.407589
34.60059 4.5652013 -29.978001
24.491522 15.233885 -35.205425
35.46524 15.166725 -29.977055
28.739185 24.426441 -25.054958
41.368061 22.694641 -27.927988
34.553009 6.9727602 -29.978001
42.265907 16.394917 -35.985527
31.407026 15.231353 -34.29694
37.762856 23.416512 -26.730385
24.992474 21.818991 -29.382242
23.792953 6.7794032 -29.978001
42.652706 8.4715538 -29.821699
26.555084 18.638504 -34.660946
39.15329 25.864691 -22.667202
22.707329 22.86272 -27.649902
28.637531 8.7397013 -29.978001
38.347069 24.809914 -24.417814
22.182203 27.576254 -19.826908
35.984352 21.54994 -29.828377
33.334221 25.058386 -24.006031
40.235695 18.029085 -35.67112
36.832565 28.015938 -19.09724
36.671425 17.988926 -35.738186
37.300018 5.683053 -29.978001
35.598282 15.233237 -34.972393
33.186333 5.8187332 -29.978001
25.566357 3.462522 -29.978001
28.517479 5.58811 -29.978003
31.940254 10.64023 -29.978001
26.680576 6.4249673 -29.978001
26.933441 4.8598042 -29.978001
31.469944 15.222824 -31.240282
23.03504 17.614662 -36.360241
31.036915 17.035387 -36.753407
40.040306 6.7321186 -29.821697
36.934822 8.3835373 -29.978001
30.932884 16.967199 -36.753418
37.04015 23.267237 -26.978209
35.235493 26.366735 -21.834461
24.503494 9.7496328 -29.978001
24.751455 24.934669 -24.211222
27.691273 15.230377 -33.948116
26.0741 2.6041944 -29.978001
22.698463 23.634867 -26.368355
22.451864 20.048714 -32.320381
31.760227 10.501139 -29.978001
26.368214 24.653421 -24.678099
38.15184 5.6757126 -29.978001
38.985638 6.2852869 -29.978001
36.541348 15.226986 -32.731575
41.412544 26.541912 -21.543015
40.693054 25.331963 -23.55114
24.879179 8.5651627 -29.978001
26.54142 3.3132172 -29.978001
38.545063 7.4726429 -29.978001
28.581829 23.973572 -25.806562
40.228458 4.3909545 -29.821699
40.367844 19.727711 -32.852051
28.771332 19.909224 -32.552052
28.98053 26.325279 -21.903522
22.371534 26.27018 -21.994574
25.545897 16.484243 -36.381065
31.216259 22.574589 -28.12841
23.812136 23.21699 -27.061951
23.418177 13.650258 -29.978001
25.301699 11.831993 -29.978001
30.204981 28.292095 -18.63933
41.531128 18.836388 -34.331165
30.260368 16.264027 -35.676399
28.80949 27.71944 -19.589666
26.529716 2.2604899 -29.978001
29.636284 27.179935 -20.485119
23.750608 23.85025 -26.010935
26.461105 23.91996 -25.895407
30.046732 15.224121 -31.705515
42.360065 11.545438 -29.977554
33.962868 18.251423 -35.302864
28.031586 22.100197 -28.91571
35.824883 27.31443 -20.261589
29.746273 11.820477 -29.978001
24.210489 4.6629686 -29.978003
35.228004 27.612316 -19.767282
35.441383 23.107338 -27.243763
41.229206 11.099581 -29.977901
30.390257 15.986415 -35.676399
42.984909 13.436541 -29.976742
30.769341 15.234815 -35.538078
41.609901 20.330116 -31.852148
24.065186 15.233086 -34.919136
41.810799 26.025612 -22.399826
33.537292 26.183619 -22.138563
25.290056 13.233829 -29.978001
22.237858 22.393993 -28.42786
30.112377 25.548222 -23.193253
40.021324 18.907993 -34.212502
26.103636 23.76782 -26.14789
36.108246 17.841125 -35.98354
36.288479 19.222939 -33.690247
35.311874 25.478064 -23.309303
29.861008 28.198502 -18.794645
25.715527 25.539352 -23.207708
36.784019 26.260799 -22.010096
35.457001 29.113991 -17.275068
41.571796 6.1823692 -29.821701
40.622101 27.916201 -19.262329
27.064735 18.270426 -35.271858
43.034508 21.8262 -29.369064
21.842695 22.81897 -27.722517
27.466616 19.82172 -32.697201
32.939903 26.772598 -21.161156
24.81694 8.7295828 -29.978001
40.32795 24.355852 -25.17115
31.221992 0.69837594 -29.978001
38.287491 22.169325 -28.800167
42.003502 16.550838 -36.674614
41.172256 15.224632 -31.887352
38.700172 25.896528 -22.614418
37.267036 15.226934 -32.71291
30.53858 26.530472 -21.563066
36.04295 8.7046566 -29.978001
42.725716 25.7533 -22.851654
39.499676 15.225544 -32.214256
43.721207 18.591454 -34.737404
30.900826 4.6984048 -29.978001
29.61694 15.220378 -30.363708
35.9757 24.937481 -24.206381
33.991833 15.844046 -35.676399
29.83036 27.903999 -19.283421
23.759829 15.232706 -34.782486
36.859543 14.521358 -29.977102
33.263783 21.215334 -30.384005
36.706661 4.026628 -29.978001
37.475838 14.565138 -29.977016
26.595737 15.224158 -31.71953
40.767334 15.232092 -34.561974
32.547672 4.6803164 -29.978001
40.086769 13.32955 -29.977116
27.110115 16.358171 -35.822845
31.470083 17.581381 -36.415161
24.852467 10.247648 -29.978001
30.551308 27.097435 -20.622095
42.485725 14.681625 -29.976391
38.405777 16.316534 -35.676399
42.756569 16.435699 -36.166122
24.329407 3.8368983 -29.978001
36.014595 28.055403 -19.031843
39.436005 28.35981 -18.526249
31.708809 12.500331 -29.978001
34.096359 15.228337 -33.216232
43.218288 19.057611 -33.963818
32.133064 22.262074 -28.646963
34.750084 16.240152 -35.676399
36.313995 15.227628 -32.961372
30.542618 22.467972 -28.305435
41.73056 25.368755 -23.489956
26.118464 23.825375 -26.052368
29.999073 1.2598975 -29.978001
29.316914 27.957779 -19.194132
31.024599 27.728516 -19.574736
37.462135 22.720581 -27.885395
32.490204 22.00363 -29.075832
32.923489 19.51025 -33.213818
33.147694 15.226003 -32.379414
37.054958 13.026654 -29.977568
24.567383 17.697273 -36.223129
32.276646 22.297363 -28.588373
42.033623 24.520069 -24.898411
32.435387 20.768904 -31.125006
41.528538 24.430138 -25.047718
27.863037 7.4532518 -29.978001
23.848635 16.928871 -36.7537
41.089188 16.379673 -35.918045
26.335911 26.308771 -21.930761
37.544064 8.5861349 -29.978001
38.216812 18.268724 -35.273651
36.601471 27.824902 -19.414316
23.074602 18.265915 -35.279343
25.263121 9.3579226 -29.978001
36.179184 8.1314631 -29.978001
42.673748 19.946764 -32.488235
30.883791 10.294092 -29.978001
37.444393 9.8786983 -29.978001
31.60845 18.543097 -34.819073
