# .PCD v0.7 - Point Cloud Data file format
VERSION 0.7
FIELDS x y z
SIZE 4 4 4
TYPE F F F
COUNT 1 1 1
WIDTH 1555
HEIGHT 1
VIEWPOINT 0 0 0 1 0 0 0
POINTS 1555
DATA ascii
55.434898 -5.9241037 39.616577
55.434898 -9.9230051 27.086605
47.457207 1.4852939 39.752563
55.434898 -18.611626 38.808857
55.414097 -19.249123 26.927469
55.434898 -16.22958 30.631672
55.434898 -23.382938 32.685619
55.434898 -16.595791 28.116999
55.414101 -21.045593 25.472599
50.022469 -9.2136993 39.752586
55.434898 -11.829021 25.579765
55.414101 -20.881208 27.453121
55.434898 -1.0626924 35.887363
50.36216 -2.1911914 39.75256
52.395451 -21.513414 39.752537
55.641304 -18.401546 19.19681
55.434898 -17.119267 26.19104
55.434898 -2.7997332 29.520506
55.434898 -15.073438 34.81356
55.434898 -7.3904495 17.492229
53.30722 -15.783662 39.752537
55.434898 -16.494661 26.659512
55.434898 -3.3013136 35.548058
55.414101 -19.648748 27.070429
50.565605 -13.255201 39.752586
44.371387 -14.446535 39.752567
55.434898 -1.937511 39.472935
55.434898 -14.76489 39.024178
55.434898 -0.98105037 38.345882
55.434898 -0.78341883 34.246994
55.434898 -18.388107 39.739769
55.572144 -0.88818997 27.739929
55.434898 -15.141232 29.941954
55.434898 -20.987225 36.399952
55.414101 -22.19928 21.561123
55.434898 -17.095484 33.13031
55.434898 -12.857495 25.015854
55.434898 -9.8875332 21.034586
55.011768 -2.1375594 39.752598
55.414101 -23.960175 22.950209
55.434898 -9.3448992 35.175858
48.809254 -19.319668 39.752579
51.397926 -15.549795 39.752563
55.414104 -21.974409 24.345615
55.434898 -0.8880192 36.163986
51.757038 -14.928049 39.75256
55.002823 -13.954547 39.752529
55.414101 -22.744877 24.072243
55.434895 -2.6992843 26.667038
55.434898 2.5431261 30.177536
55.434898 -3.8531096 38.075523
55.434898 -7.5149703 34.116245
45.241333 -14.817152 39.752575
53.663906 -1.3213309 39.752594
55.434898 -5.9957933 25.032211
55.414101 -18.655344 17.925613
44.893913 -15.129246 39.752571
42.880936 -12.679104 39.752548
55.434898 -16.145212 33.663536
55.154324 -23.261499 39.752502
55.691505 0.026832581 27.449329
53.623112 -17.373898 39.752525
55.434898 -3.4168582 32.403225
46.964279 -20.675087 39.800922
55.434898 -7.5373859 37.63031
55.414101 -24.188084 19.817095
55.434902 -0.40302658 37.094315
55.434898 -6.9679689 29.875217
51.785465 -1.7090514 39.752579
55.434898 -17.23102 37.423641
55.434898 -6.6655087 26.586182
55.434898 1.9831698 32.339401
55.434898 -13.401031 26.62122
55.434898 -8.5702467 33.657154
48.066204 -19.343519 39.75259
55.434895 -3.8777342 29.907553
55.434898 -5.853673 32.779942
55.434898 -13.169715 22.892193
55.048992 -14.056013 39.752529
46.0322 -6.1793113 39.752537
55.434898 -2.8786881 35.017216
55.434898 -12.421419 25.891462
44.640274 -7.8053613 39.752533
55.434898 -7.3995886 26.664515
48.73642 -15.114914 39.752594
55.434898 -13.241282 15.970738
55.434898 -20.895517 35.284077
55.414101 -19.169399 24.908817
48.319038 -14.876014 39.752602
54.031815 -13.345859 39.752548
55.414101 -23.99721 22.50563
55.414101 -21.244356 18.235258
55.434902 -5.1806107 22.610392
55.434898 0.063691378 32.741356
44.347813 -21.46183 39.704102
55.434898 -16.362883 36.622704
51.679474 -16.190454 39.752556
45.631706 -9.6687508 39.752552
55.434898 -2.6789455 34.199257
55.434898 -7.3691101 24.657928
45.411472 -19.513008 39.704102
55.434898 -9.4107838 18.068686
55.434898 1.3784285 38.219704
48.302795 -20.983837 39.752586
55.434898 -16.520298 17.288401
45.647572 -13.301849 39.752571
49.543388 -6.9900131 39.752571
55.434898 -18.308613 39.236958
55.434898 -9.9842358 18.126945
55.434898 -16.662167 22.468029
55.434898 -11.322742 18.108305
55.434898 -16.183409 32.417416
55.434898 -7.7772489 36.665451
55.434898 -15.267698 25.675159
52.605923 -7.4472132 39.752602
55.434898 -16.592859 38.911068
55.434898 -6.8661766 21.449085
55.434898 2.29598 30.511124
55.434898 -18.268784 34.386395
55.434898 -5.5512266 32.486912
55.434898 -17.565405 37.504665
43.167725 -12.503691 39.752548
55.67469 -1.9621794 25.88987
55.434898 -16.950069 17.209211
48.419689 -15.809826 39.752598
52.036003 -16.144318 39.752548
55.434898 -3.890645 34.087227
48.13044 -0.96233153 39.752552
55.434898 -16.302357 27.864155
55.434898 -11.286096 34.390739
53.985504 -2.8585496 39.75259
43.50927 -14.907057 39.752563
55.434898 -5.182436 24.93008
55.434898 -15.00922 26.403509
55.641296 -18.005524 24.84116
55.434902 -9.3108826 28.501518
55.434898 -12.548434 28.397774
55.414101 -20.26115 25.212437
55.434898 -14.464669 26.843586
55.434898 -3.8950005 35.862904
46.990658 -15.170048 39.75259
55.434898 -13.388635 16.155785
55.191807 -7.7697363 39.752567
55.434898 -4.3472776 37.758305
48.86544 -21.910202 39.752579
55.434898 -14.459354 38.622944
55.414101 -22.65494 21.843328
46.542526 -5.5190229 39.752541
55.434898 -1.949154 35.602226
55.434898 -17.068266 17.480579
55.434898 -1.3217626 36.683193
51.288818 -11.643756 39.752586
55.434898 -7.8506889 28.45153
55.414101 -18.971832 25.5103
55.434898 -11.394793 21.608723
55.200428 -2.682518 39.752598
55.434898 -11.84108 31.521816
52.002541 -3.3550172 39.752575
55.434898 -11.491832 35.220406
47.382336 -3.4095376 39.752533
55.434898 -3.6757736 36.058517
55.434898 -9.0112438 28.40675
50.595238 -10.64853 39.752602
50.233753 -14.834194 39.752579
55.074329 -22.239786 39.752502
45.237251 0.13565397 39.752533
50.478714 -15.719793 39.752571
55.414101 -20.875734 24.333303
55.434898 -9.2113352 21.60022
53.898144 -5.634264 39.752602
55.434898 -20.494125 38.141968
55.434898 -19.475288 35.554852
55.414101 -21.211973 26.205589
55.434898 -12.077501 22.178711
55.434898 -8.5861025 29.681692
46.130688 -6.7667866 39.752544
51.821259 -7.8677635 39.752594
53.337879 -3.6426282 39.752586
55.434898 -5.2573299 27.599775
55.434898 -16.710257 32.603512
55.434898 -9.9930429 37.131615
55.434898 -4.7919731 22.883842
51.60276 -0.88220322 39.752583
55.434898 -15.941918 29.198313
51.988194 -12.375413 39.752579
55.434898 -17.651119 37.674381
49.596802 -16.307224 39.752579
50.075035 -21.900417 39.752567
55.414101 -22.813776 17.860779
55.434898 -9.4620733 24.075581
55.434898 0.73468757 33.757545
54.581146 -3.6910172 39.752598
44.011616 -15.515496 39.752571
46.959496 -19.63854 39.803654
55.434898 -14.82265 27.850922
55.434898 -15.540966 17.110182
55.522499 -17.603985 17.473953
55.434898 -19.057106 38.082722
55.434898 -13.532132 37.575214
55.434898 -10.16046 39.225906
55.434898 -1.3345319 28.641071
55.434898 -4.9542389 36.081039
48.569038 -4.6818504 39.752552
50.922607 -12.598953 39.752586
55.434902 -12.693123 38.345818
55.414101 -19.324436 17.478296
55.434898 -17.126026 27.070051
55.434898 -11.200987 20.003979
55.434898 -6.3471351 22.84211
55.434898 -8.5063086 16.050499
55.434898 -15.216843 34.890579
55.110489 -17.541668 39.752506
46.595299 -7.8673368 39.752548
45.653961 -11.014771 39.75256
55.434898 -7.9654307 32.630516
55.590778 -18.468077 22.85985
55.434898 -15.054152 23.170288
55.434898 -21.124147 32.672054
55.434898 -23.600605 31.825283
55.434898 1.37157 30.849699
44.394638 -1.384805 39.752514
55.434898 1.5280659 29.33997
55.434898 -5.1740742 23.573133
55.434898 -4.5264177 32.006767
54.591225 -10.959438 39.752552
55.434898 0.97093093 36.282345
55.434898 -2.7622945 32.793488
55.434898 -21.115292 37.531204
55.434898 -3.1839659 25.455845
45.178608 -6.3249121 39.752533
55.434898 -23.997292 35.564953
55.434898 -15.492388 34.403465
44.983208 -9.1438217 39.752541
54.394592 -14.283766 39.752537
55.6413 -18.34449 16.57679
55.434898 -17.778959 30.118567
50.360409 -1.3521962 39.752567
55.434898 -17.814354 35.752777
47.931721 -21.329163 39.75259
45.680428 -16.240345 39.752586
55.434898 -16.69968 19.710762
48.229774 -12.191603 39.752583
55.434895 -3.8574214 29.572227
55.434898 -15.053325 32.585899
55.580338 -18.900028 27.639587
54.799652 -17.686029 39.752506
45.992844 -9.0332861 39.752552
44.240406 -21.781961 39.704102
55.434898 -11.344616 23.070637
47.551598 -5.7157335 39.752548
45.71019 -9.764924 39.752552
43.542233 -16.928938 39.752571
55.434898 -14.854557 39.41832
55.434898 -6.5204935 26.620125
55.434898 -7.3518572 24.871592
48.501938 -21.97407 39.752586
55.434898 -18.955656 31.947338
55.434898 -2.2045288 28.459255
47.976635 -12.167143 39.752583
55.434898 -11.935416 25.826565
55.414101 -20.9883 21.788837
46.548466 -21.310883 39.959
55.414101 -20.21068 20.404829
55.434898 -16.596918 34.649799
55.630947 -17.793509 23.425444
55.434898 -22.806808 37.27496
55.434898 -1.9198353 36.44915
55.434898 -16.751335 38.150372
55.434898 -6.8930697 19.63036
55.434898 -15.576119 33.484669
52.324654 -10.852407 39.752583
55.434898 -12.772614 21.394112
54.739777 -1.3495202 39.752602
49.734287 -14.185953 39.75259
55.434898 -13.621834 22.822803
55.434898 -15.095129 21.564348
55.414101 -21.780138 22.740118
55.434898 -12.772287 25.757158
55.434898 -23.207165 37.273857
48.643536 -15.9692 39.75259
55.414101 -24.143612 25.585327
55.434898 -11.855609 30.221876
55.414101 -21.699097 25.457907
42.94062 -17.66275 39.873795
55.434898 -8.6442862 25.481394
55.434898 -18.076509 34.530376
55.434898 -6.3556299 32.595531
55.434902 -15.652441 25.06694
55.434902 -16.109451 23.626228
55.434898 -23.664089 29.797567
55.434898 -12.361051 34.429855
55.434898 0.57058418 38.884315
55.434898 -5.0874543 35.762074
55.434898 0.41702855 33.697613
49.382584 -23.975019 39.752575
45.196846 -4.4274406 39.752522
54.21801 -1.7805912 39.752598
55.414101 -21.681767 21.026043
55.434898 -21.516912 29.571205
55.434898 -5.7316589 21.678782
55.434898 -12.515236 35.732994
55.434898 -18.537504 35.551193
55.434898 -12.666191 28.389944
51.098892 -0.79783189 39.752579
55.434898 -11.382499 28.683886
44.168644 -12.884438 39.752556
55.434898 -3.7980356 25.96858
44.766521 -6.3816118 39.752525
55.434898 -2.5642095 28.773739
55.434898 -11.538908 20.950451
46.748234 -2.5141914 39.752525
54.084824 -16.915817 39.752518
55.414104 -19.275927 19.247145
48.642662 -7.9431591 39.752571
47.098888 -0.54354346 39.752548
55.434898 -12.673489 20.568562
53.155128 -4.2522502 39.752586
54.728771 -2.233393 39.752598
55.434898 -22.751295 39.480278
48.35416 -10.271885 39.752579
47.708923 -18.287382 39.752594
45.392265 0.021076679 39.752537
55.434898 -14.692621 23.867731
55.641296 -18.084179 27.069057
51.753468 -21.425747 39.752544
55.414101 -22.517811 19.706413
55.434898 -2.6943612 39.0709
55.434898 -8.5453815 16.168766
55.434898 -21.820465 29.674551
55.184994 -4.4709291 39.752594
55.434898 -4.305717 38.791
55.434898 -11.805501 27.335821
55.434895 -5.4435177 22.917236
51.058502 -9.5470972 39.752598
55.6413 -18.137711 27.919956
55.434898 -22.188063 36.231148
55.434898 -5.6489549 24.683987
55.414101 -23.249187 19.390442
55.414101 -23.420895 20.410482
55.434898 -23.066158 38.595142
47.602211 -14.927193 39.752594
55.434898 -23.17528 39.273148
45.839298 -6.2241735 39.752537
55.434898 -9.5256624 27.490173
55.502037 -20.781946 28.549404
53.386902 -5.2919207 39.752594
54.414646 -17.110109 39.752518
52.863155 0.63582921 39.752602
55.434898 -9.961132 36.252445
55.434898 -9.789155 32.444588
55.434898 -14.322989 29.569294
55.434898 -11.106693 34.805237
55.434895 1.1849297 36.191223
54.234268 -2.7572196 39.75259
49.248238 -23.10865 39.752575
55.434898 -9.8254957 38.996513
55.06007 -14.690498 39.752522
55.434898 -3.6375408 30.370161
55.434898 -20.399567 34.615398
55.434898 -18.670303 36.261734
50.56641 -13.551836 39.752586
55.434898 -13.331811 16.322456
55.434898 -18.969765 31.353161
55.434898 -9.9178486 37.928085
55.434898 -11.041435 18.290474
55.434898 -14.984197 39.4496
48.499931 -0.58701289 39.752556
55.434898 -8.13311 33.381123
55.434898 -9.9092922 24.116541
53.192375 -16.303827 39.752533
55.434898 -9.7264032 16.340002
55.434898 -19.225641 33.541275
47.211285 -16.169228 39.752594
55.434898 -16.086683 35.230736
51.678062 -15.295881 39.75256
55.560905 -17.671108 20.56451
46.08474 -2.0595412 39.752522
53.065643 -16.351261 39.752537
55.434898 -4.095232 33.277256
46.707699 -23.107439 39.94775
45.380096 -13.842594 39.752571
55.414101 -23.110275 25.47554
55.434898 -21.203959 28.741919
55.434898 -6.1139765 32.637119
52.269508 -9.9765882 39.75259
55.434898 -13.085992 38.273678
55.434898 -8.8236303 18.602642
55.434898 0.51936352 34.445858
46.557343 -19.952515 39.959
55.414101 -20.070457 21.130598
55.434898 -12.085723 25.495863
55.434898 -12.533043 23.475578
55.630211 -2.4739556 25.680593
55.434898 -16.196102 23.051552
45.047859 -12.781229 39.752563
55.414101 -23.178026 21.806561
55.434898 -17.4319 16.988295
55.434898 -14.538349 20.459637
55.434898 1.8670437 30.320297
55.434895 -16.419188 35.684433
45.113247 -18.369946 39.959
55.414101 -19.667072 25.419771
55.434898 -10.72164 34.307472
55.641304 -20.759277 27.93187
53.524193 -12.863561 39.752556
43.869591 -18.908619 39.704102
55.434898 -2.6072791 32.160248
55.434898 -3.0828376 38.200916
55.434898 -11.061234 19.907688
55.434898 -7.0007353 23.717093
55.434898 -0.78257751 32.771664
55.414101 -21.296396 20.354939
55.414101 -21.622295 17.438654
55.434898 -3.7335801 28.278307
55.424526 -18.626278 26.326218
43.663242 -8.2154579 39.752529
55.434898 -12.673716 32.61026
55.530006 -23.483795 28.500538
55.434898 -7.8468018 24.304668
55.414101 -20.064873 20.862291
55.434898 -4.3796668 35.794815
49.326897 -18.031731 39.752575
55.434898 -11.78138 38.035599
52.168213 -11.734377 39.752579
55.434898 -4.0075464 23.552612
55.414101 -18.903994 19.054369
55.434898 -3.7878094 30.191147
46.866554 -6.7608566 39.752544
55.434898 -5.306324 23.774094
55.434898 -23.946957 29.418354
55.434898 -20.448322 36.302219
55.434898 -0.63176966 37.406013
55.434898 -3.7330499 31.589666
55.434898 -22.43956 31.895134
55.434898 -16.431421 20.410934
55.434898 -12.256851 23.152334
55.434898 -15.578875 17.892536
47.125984 -2.6378224 39.752529
49.171349 -16.758795 39.752579
43.880409 -13.199042 39.752556
55.434898 -8.6530428 24.8633
55.414101 -21.939079 23.70723
55.434898 -21.238813 31.008629
43.852535 -9.6321077 39.752537
49.271957 -10.055994 39.752583
55.434898 -9.9110279 17.579132
55.434898 -18.562429 29.447411
55.434898 -21.11618 38.988468
55.434898 -18.983877 38.160881
55.6413 -19.658882 27.780794
55.434898 0.43647027 36.437992
45.400684 -22.509853 39.704102
55.434898 -12.678579 35.568367
55.414101 -22.453976 21.104744
55.434898 -14.650555 22.073505
50.353699 -9.5924168 39.752594
45.746719 -15.933847 39.752586
55.434898 -11.573517 39.223885
55.434898 -6.2318459 38.148472
55.434898 -16.120863 34.766758
55.434898 -14.687927 15.783903
55.414101 -23.684784 25.704628
46.131771 -16.806692 39.752594
55.434898 -11.960411 18.436268
55.434898 -1.1772425 32.415176
44.424294 -6.5156202 39.752525
55.434898 -22.269663 30.93866
55.434898 -10.531942 30.249756
55.434898 1.4404465 31.841383
55.414101 -23.387241 22.403431
47.143112 -0.080328941 39.752548
49.234699 -3.6189818 39.752552
55.691505 -0.23854752 27.25975
55.434898 -14.761331 32.441769
55.428204 -8.0736055 39.752563
51.759022 0.026294947 39.752586
55.434898 -16.972137 29.712624
55.414101 -20.157459 27.033955
52.386093 -5.5910273 39.75259
55.434898 0.33414567 37.472336
47.938557 -16.484016 39.752598
55.434898 -8.4545879 37.452995
46.594051 -8.9976482 39.752556
55.434898 -5.2688303 36.335934
55.414101 -19.492115 25.265858
49.853325 -20.515755 39.752563
46.748657 -22.417168 39.924313
55.434898 1.712342 29.030287
55.434898 -8.3770103 35.417274
55.414101 -22.654995 26.281731
55.434898 -0.29774833 33.9543
55.434898 -16.518188 30.824978
55.434898 -1.6756338 36.889137
55.434898 -8.5393476 24.124165
55.434898 -0.91849041 33.331177
54.505287 0.63223171 39.752602
55.434898 -8.1406851 31.471888
55.434898 -3.7752964 22.370434
47.256138 -15.101031 39.75259
55.434898 -23.699017 38.965675
55.434898 -9.7641659 37.873817
50.150768 -23.481365 39.752567
43.602585 -17.234884 39.752575
55.434898 -3.9366503 36.185173
55.434898 -5.9469976 36.958054
47.473389 -14.89042 39.752598
43.834255 -10.464771 39.752541
51.260788 -6.8597727 39.752586
55.359428 -22.846342 39.752499
55.434898 -23.966633 34.691841
55.434898 -16.230608 22.638395
55.434898 -14.213103 25.91045
55.434898 -21.78249 29.677799
46.287487 -22.519981 39.959
55.434898 -15.430292 30.527668
49.091888 -15.725868 39.75259
55.414101 -19.906773 20.786503
55.434898 -12.924412 24.212284
54.970207 0.42312098 39.752602
55.406849 -22.979645 39.752502
55.434898 -21.263304 35.587891
55.414101 -18.741682 17.217327
55.434895 -7.2806664 38.878613
55.434898 -0.57193577 39.359688
54.915672 -6.3554344 39.752583
55.434898 -10.034149 37.309784
55.434898 -7.4377241 18.146597
55.434898 -17.425764 29.763889
55.434898 -8.0723619 37.599747
55.434898 -9.0663319 36.065601
47.989525 -10.026194 39.752571
55.493351 -17.553047 22.413834
52.434212 -1.9369652 39.752583
55.434898 -11.412327 21.320087
50.05735 -13.313145 39.752594
55.434898 -13.406084 17.185232
48.179008 -6.4613638 39.752556
55.414101 -23.039057 27.097446
55.434898 -20.933163 38.186123
55.414101 -21.577623 24.876587
50.08448 -7.0284996 39.752579
55.414101 -20.385868 23.960997
49.076191 -5.2751064 39.752563
45.915497 -13.007062 39.752571
55.434898 -8.7648983 30.513672
55.434898 -11.671939 38.608246
55.434898 -15.633991 39.167156
55.434898 -13.954815 39.410637
55.434898 -1.1253664 27.926765
55.434898 -16.463921 22.065134
48.659348 -20.511623 39.752583
55.434898 -2.6893404 30.428026
50.079914 -16.01383 39.752575
46.506672 -12.481036 39.752575
43.608479 -10.204823 39.752537
49.794327 -2.6180096 39.752552
55.434898 -8.6518574 18.289776
46.423965 -8.3307657 39.752552
55.414101 -23.145594 21.855217
52.983021 -12.821928 39.752563
55.434898 -2.2651067 31.783817
55.434898 -1.4515977 37.466022
55.414101 -19.427879 20.832195
55.434898 -8.3523655 31.491278
45.629681 -17.667957 39.876793
55.434898 -13.667976 21.517239
53.170254 -9.2146931 39.752586
45.731686 -15.345572 39.752579
51.592056 -13.41177 39.752575
55.414101 -21.122261 27.459579
44.243477 -16.745924 39.752579
55.592903 -17.727024 19.528374
55.434898 -6.3806715 35.949116
55.434898 -17.109829 34.774822
55.434898 -2.469275 35.88694
50.1427 -16.212778 39.752575
55.434898 -15.404852 20.264753
55.434898 -7.2383447 29.656502
52.270927 1.3030279 39.752602
43.550636 -12.435945 39.752552
49.368179 -4.0963259 39.752556
55.434898 -11.852526 30.428959
55.434895 -15.213177 18.396875
49.80991 -14.517567 39.752586
49.265007 -1.6220169 39.752556
55.434898 -9.1598969 28.864216
55.434895 -6.274642 39.721577
55.434898 -8.7286797 32.544521
55.48008 -17.529858 24.037849
55.434898 -20.821623 37.224533
55.414101 -20.649282 26.524441
55.434898 -3.9915245 25.738815
55.434898 -18.319925 34.263683
55.434898 -0.51939976 29.422636
55.434898 -11.307143 21.453117
55.434898 -12.278412 22.191656
55.434898 0.64556992 39.029316
55.434898 -10.631127 25.397604
55.434898 -16.276503 21.741646
55.434898 -9.626132 29.987677
55.3372 -1.8192239 24.464487
55.434898 -2.9696772 29.487148
43.374756 -16.072393 39.752567
55.434898 -12.012983 18.134327
55.414101 -21.126101 17.464676
55.434898 -9.1631079 23.611328
55.434895 -17.432978 27.286018
50.792862 -2.782964 39.75256
55.434898 -8.4970579 19.822651
46.473938 -14.096343 39.752579
52.040558 -21.635933 39.752541
55.434898 -15.144746 23.045368
55.434898 -9.6916971 35.356415
55.423634 -18.627129 25.711504
55.434898 -19.238565 36.869415
55.434898 -6.4437776 28.306696
53.855801 -2.8455899 39.752586
55.241817 -22.644714 39.752502
51.328453 -16.222839 39.752556
55.434898 -4.0588608 32.919968
55.434898 -14.855912 31.935276
55.434898 -1.1008395 34.090179
55.434898 -7.6872501 17.710543
43.813942 -17.744087 39.920349
55.434898 -8.4183636 31.42799
46.11496 -14.206176 39.752575
55.434898 -4.0343604 33.817261
53.182114 -15.655117 39.752537
55.434898 -4.3928843 37.764648
55.434898 -11.675467 23.191797
55.434898 -12.046755 31.501781
55.414101 -23.408092 23.752846
47.239803 -7.5162091 39.752556
54.789654 -1.7215645 39.752602
54.573318 -24.122028 39.75251
55.414101 -24.402374 23.001471
49.694969 -18.373838 39.752567
55.434895 -13.41096 25.661383
55.434898 -14.346313 31.34223
44.601471 -21.869999 39.704102
55.434898 -0.12424359 39.27306
55.434898 -9.8494072 31.940632
55.434898 -3.0387073 30.062504
55.434898 -5.2757931 30.702152
44.96785 -16.727064 39.752579
43.978485 -13.288513 39.752556
55.434898 -8.9480429 21.819407
55.434902 -3.0552793 29.289047
55.434898 -9.9765377 37.536179
55.434898 -10.128915 38.98848
49.977749 -2.4826519 39.75256
55.434895 -3.9420743 32.435425
55.434898 -10.90718 26.767595
54.384151 -23.568298 39.752514
55.434898 -14.151795 34.290771
55.434895 0.26815003 32.10532
55.434898 -11.514352 18.450184
55.434902 0.36404854 31.314449
55.434898 -5.5143824 30.688915
55.434898 -1.8288033 32.801292
54.350578 -7.6054368 39.752583
54.532516 -20.846737 39.75251
55.641296 -18.058151 20.025269
55.434898 -8.5136003 28.132629
55.434898 -8.2116041 23.229198
55.414101 -20.729286 26.482136
55.434898 -10.563335 18.850197
55.434898 -19.662182 29.030542
55.038559 -5.2504506 39.75259
55.434902 -3.5944753 22.561832
55.414101 -21.795845 23.631184
55.414101 -19.942247 15.865795
55.434898 -6.4225264 39.036987
55.434898 -6.5943642 25.477749
55.414101 -20.064108 22.674873
45.28249 -14.204273 39.752571
43.508514 -20.18977 39.704102
55.434898 -6.8283815 18.272417
53.805073 -23.748428 39.752518
55.434898 -12.804798 23.880711
55.414101 -21.801722 22.809469
51.681938 -18.026379 39.752548
54.823879 -9.7290125 39.75256
55.434898 -3.4276102 32.243305
46.55431 0.98908603 39.752552
55.434898 -4.0496097 27.222576
55.434898 -13.122366 24.192841
51.706177 -7.6410632 39.752594
55.434898 -16.923008 20.866291
55.414101 -21.228056 20.640392
55.434898 -24.109104 29.239586
55.434898 -19.47089 38.135757
55.434898 -18.65646 30.776705
55.434898 -11.826618 20.104706
50.688522 -13.770796 39.752583
48.115364 -17.027998 39.752594
55.434898 -7.390821 35.246082
55.434898 -3.6467433 36.877625
51.008404 -15.178235 39.752571
55.434898 -14.705949 36.809685
55.434898 -13.099786 21.187344
55.434898 -21.802031 39.669312
43.056526 -16.213018 39.752567
48.469177 -23.244448 39.752586
55.414101 -21.542473 21.927387
44.780048 -2.1770511 39.75251
55.434898 -12.185778 36.022793
55.414101 -20.933054 23.621292
55.414101 -19.036514 25.853916
45.708038 -6.1517415 39.752533
55.414101 -22.857861 18.540445
46.592178 -8.5671816 39.752556
55.6413 -18.385235 23.949577
55.434898 -6.3275375 21.208349
50.291382 0.2068522 39.752579
45.297676 -18.553898 39.715038
51.795395 -3.4991665 39.752575
55.434898 -6.837739 39.158382
55.434898 -10.198668 36.84124
47.78091 -23.554996 39.752594
55.434898 -8.3016253 31.556316
50.202999 -1.3941349 39.752567
49.270489 -14.987518 39.752594
55.434898 -10.789019 26.700609
55.434895 -2.5680919 38.236031
55.434898 -0.63902175 32.279358
55.434898 -10.667376 32.181877
55.278599 -1.603966 26.122168
48.659206 -17.609943 39.752579
55.434898 -8.154521 20.764811
55.414101 -18.875431 25.196148
55.434898 -22.453327 34.032982
55.414101 -22.741158 26.921204
48.388515 -13.589209 39.752594
55.434898 -6.0863614 28.051868
55.434898 -11.953505 16.826639
55.434898 -6.0915794 28.835531
45.730885 -10.102034 39.752556
53.415592 -2.218323 39.75259
55.434898 -0.08453232 29.330154
55.414101 -22.005154 22.241302
45.03186 -2.7213178 39.752514
55.434902 -18.854137 31.954107
55.434902 -8.043642 37.939377
55.434898 -13.030081 32.79549
51.541588 -23.944765 39.752548
55.434898 -6.9072752 29.582701
55.434898 -2.6191456 30.120756
55.434898 -12.167883 32.306137
48.342945 -15.839799 39.752594
51.033447 -9.0225811 39.752594
55.434898 -8.6690598 22.297062
55.578259 -17.701429 17.319181
51.29887 -16.488049 39.752556
45.432228 -20.126284 39.704102
45.634083 -10.730145 39.752556
55.434898 -14.941997 39.535194
55.434898 -11.538347 32.983498
55.434898 -5.0947795 28.851454
55.434898 -3.4671574 34.157825
46.667648 -22.467321 39.959
55.434898 -19.265871 31.010153
55.434898 -12.83715 26.610044
51.905586 -7.5706739 39.752598
55.434898 -6.735599 27.0977
55.414101 -22.563221 26.687126
55.434898 -1.3652415 35.989628
46.185291 -5.6425381 39.752541
55.414101 -20.249794 16.384943
55.434898 -7.6927323 29.131748
55.434898 -2.0224316 34.607101
50.50589 -16.918974 39.752563
55.414101 -20.172668 23.168518
55.414101 -19.522493 22.775661
47.128757 -23.018162 39.752602
55.414345 -18.635965 18.994289
55.434898 -19.543966 33.567116
55.434898 -2.2770588 27.897661
52.597992 -12.593369 39.752567
54.198761 -14.725107 39.752529
55.434898 -16.38316 31.747046
55.434898 -8.157382 26.54055
49.380623 -0.73730683 39.752563
44.909801 -18.128338 39.959
45.370251 -18.812546 39.704102
55.434898 -21.634754 34.037865
53.492847 -23.462818 39.752522
55.434898 -20.402668 32.409744
55.434898 -12.086102 35.157829
55.434898 -15.736273 33.75708
55.434898 -19.526695 37.429535
55.434898 -0.0087186098 36.199345
55.434898 -16.026772 35.197746
48.529591 -6.9255171 39.752563
55.434898 -8.274931 19.858574
55.434898 -11.739452 31.960148
55.434898 -13.826053 34.15802
55.434898 -6.5556259 30.363131
55.434898 -15.344494 23.354481
55.414101 -20.642662 23.329807
48.542099 -10.394724 39.752579
52.230053 0.493047 39.752602
55.434898 -22.77607 30.953211
55.278599 -0.58370137 26.387146
55.434898 -15.216972 35.356606
55.434898 -16.269791 31.485371
53.487427 -22.257238 39.752522
55.434898 -11.290514 21.660442
55.434898 -22.99436 36.869263
55.434898 -18.145445 38.989288
55.434898 -14.901073 30.260405
55.434898 -8.9234686 29.584084
55.434898 -7.9630184 31.723503
55.434898 -0.7560097 34.379166
55.434898 -7.5690017 24.793917
55.414101 -19.826708 25.731428
55.434898 -15.096725 21.889286
54.865856 -18.683622 39.752506
46.871574 -12.004694 39.752571
42.990341 -13.267626 39.752548
55.434898 -9.4035654 29.420746
55.434898 -12.619361 25.758259
55.434898 -4.0357018 35.313076
55.434898 -13.865078 33.942398
55.434898 -11.230108 20.291901
55.557888 -2.5464756 27.021051
55.434898 -2.3821001 31.814865
55.434898 0.93016779 39.684891
52.372814 -0.49975657 39.752594
55.6413 -18.150057 17.848429
55.434898 -7.1833105 32.617443
55.434902 -16.690504 38.845142
42.775108 -20.771683 39.704102
52.770966 0.91808271 39.752602
55.414101 -18.929285 26.684067
55.434898 -16.389658 32.570576
55.434898 -14.741862 34.202232
55.414101 -19.689774 20.039732
48.947914 0.14055777 39.752563
55.6413 -18.413315 25.959944
55.434898 -10.775521 25.520029
49.729149 -18.190525 39.752571
50.69706 -11.767315 39.752594
54.28941 -13.245531 39.752544
55.434898 -19.654217 32.056843
55.434902 -13.54428 16.045824
55.434898 -7.3821058 37.052597
55.434898 -12.09973 27.553488
55.434898 -10.740277 34.407452
55.434898 -11.618778 25.459915
55.434898 -18.588848 39.527481
55.332329 -13.131926 39.752529
55.434898 -7.6835423 32.554802
55.414101 -23.947622 19.510832
55.414101 -19.068604 16.326969
55.434898 -11.41318 38.419716
55.434898 -16.252876 17.812674
49.963161 -5.3804722 39.752571
51.517151 -1.4655116 39.752579
55.434898 -2.9789391 27.159725
55.434898 -21.911392 36.655384
55.434898 -16.897247 36.310997
55.434898 -7.9801154 33.642883
55.434898 -8.6601849 36.17598
55.434898 -22.179546 38.595776
44.497734 -13.382806 39.752563
55.434898 -8.1647396 24.168308
49.281418 0.76029348 39.752571
55.414101 -22.576099 26.732861
55.434898 -4.0761924 35.179169
43.460209 -11.122341 39.752541
46.983925 -10.404766 39.752563
55.434898 -9.0397539 20.118401
55.434898 -8.4414415 32.728275
55.434902 -15.141201 23.013929
55.434898 -8.8472013 16.370735
55.414101 -19.342896 24.852999
55.307961 -13.719307 39.752525
55.414101 -20.255878 23.65196
55.434898 -1.6582918 31.217907
53.571373 -5.6003046 39.752602
51.32753 -10.79162 39.752594
55.434898 -10.861912 16.552816
55.641304 -22.084011 27.705776
45.921497 0.12599897 39.752541
55.434898 -3.9310668 34.908146
44.242432 -7.3967104 39.752525
44.554958 -16.400108 39.752579
55.414101 -19.44471 20.679367
55.434898 -5.6806421 33.676712
52.297825 -14.616856 39.752556
55.434898 -14.870988 18.522587
47.717854 -19.282492 39.752594
48.613922 -5.9323168 39.752556
55.414101 -19.267309 23.353739
55.434898 -10.193705 30.52146
54.223385 -15.503673 39.752533
55.414101 -23.162922 25.348782
55.43969 -23.181751 28.658325
55.434898 -6.9949222 33.974342
55.434898 -12.986895 20.464146
51.609825 -1.5361917 39.752579
55.434898 -18.635727 37.414917
47.687653 -17.678793 39.75259
43.419422 -18.365673 39.959
48.687279 -17.64257 39.752583
55.434898 -4.9252071 22.328735
52.741329 -9.7853909 39.752586
50.365891 -15.082193 39.752579
53.895111 -3.3172033 39.752594
55.434898 -4.9499984 32.856285
48.995789 -8.3953552 39.752571
55.434898 -18.43895 37.784725
51.233536 -0.7694 39.752579
55.434898 -5.6653538 31.246761
50.250542 -11.204306 39.752602
55.434898 -6.0981321 31.45969
55.414101 -22.494171 21.964987
52.182373 -4.5719528 39.752583
49.874935 -1.4342774 39.752563
42.229313 -16.115772 39.75256
55.434898 -4.2131128 30.824299
55.434898 -10.641562 30.744015
55.434898 -0.49456871 32.452297
55.414101 -24.251984 25.26594
55.434898 -10.286722 34.103958
55.434898 -12.35499 30.319654
45.509914 -23.589357 39.80278
42.075958 -20.634533 39.704102
55.6413 -18.104752 19.798733
55.6413 -23.386787 27.804165
55.434898 -2.005111 34.431973
55.434898 -9.9269419 36.375992
55.414101 -19.125355 16.113535
48.55648 -9.9810448 39.752579
55.434898 -15.839139 37.875637
55.434898 -12.169703 16.223768
55.434898 -13.324145 18.167145
52.449532 -18.155067 39.752533
48.892307 -15.642904 39.752594
55.434898 -12.872671 35.514732
55.414101 -21.358427 24.538122
43.027046 -17.594797 39.834911
45.920612 -2.7409334 39.752518
55.434898 -2.892839 24.497686
55.434898 -13.237427 18.506807
53.163605 -15.387144 39.752541
46.378998 -8.8091888 39.752556
55.434902 -13.502566 29.97076
55.434898 -10.838812 29.710888
53.755665 -7.3370318 39.75259
55.434898 -9.2002239 30.031563
55.434902 -1.575882 35.679405
55.434898 -14.011583 26.277279
45.088123 -0.85649824 39.752525
50.565125 -15.957109 39.752571
52.173939 -9.5033598 39.752594
55.434898 -22.085999 32.562263
55.434898 -24.155775 29.053848
55.434902 -3.5293219 26.321978
49.73307 -13.914798 39.752594
55.434895 -12.098205 39.337879
55.546974 0.079242587 27.765173
55.414101 -21.688055 23.708721
55.434898 -20.361691 36.316551
55.434898 -10.662313 23.502037
55.414101 -19.591349 16.536907
55.434898 -19.27833 38.400894
53.103535 -1.323584 39.75259
43.337067 -14.00567 39.752556
55.434898 -20.124062 31.040573
55.434895 -1.707154 28.272421
55.434898 -7.5321913 30.667713
55.434898 -19.022034 34.189083
48.453987 0.87882125 39.752567
55.434898 -12.518633 21.310162
55.434898 -2.0821881 29.615135
51.45414 -6.6722975 39.752586
47.696053 -17.003834 39.752594
55.434898 -19.549726 39.101318
55.434898 -0.27183056 32.710472
55.278603 -0.077583909 26.661831
55.434898 -6.9748735 31.600534
55.434898 -13.220422 31.082792
44.538826 -13.089802 39.75256
55.434898 -7.6223135 22.721863
42.746857 -16.288197 39.752563
55.434898 -10.567138 18.514709
44.745033 -9.0451126 39.752541
49.631989 0.025934219 39.752571
55.414101 -19.176725 19.45224
45.600868 -21.079231 39.704102
55.434898 -15.026523 36.288296
54.790058 -23.712395 39.752506
55.434898 -8.4285879 23.267635
55.434902 -7.0092621 37.299316
55.414101 -19.687805 24.136368
55.434898 -15.815882 25.68379
55.434898 -1.4326808 32.00259
55.434898 -16.815624 16.130041
55.434898 -10.233763 34.029457
43.921528 -7.7059364 39.752525
55.434898 -14.752134 20.798195
53.430908 -21.68811 39.752525
54.004284 -17.883217 39.752518
55.434898 -8.1690121 36.516991
45.42981 -9.8258972 39.752548
55.434898 -19.22324 38.358768
55.641296 -17.858257 23.406368
55.434898 -8.0616922 21.20352
55.434898 -3.6084704 24.28652
55.434898 -20.901926 37.602768
52.17617 -20.927467 39.752537
55.434898 -7.0928636 27.468704
55.434898 -17.843691 34.722088
50.897682 -11.173828 39.752598
53.196255 -15.343462 39.752541
50.694794 -23.642925 39.752556
55.434895 -0.70274591 37.18454
52.258644 -16.912741 39.752541
51.842865 -3.0275168 39.752571
55.414101 -21.217697 21.559368
51.660385 -3.5001502 39.752575
55.434898 -7.8689523 19.332417
55.434898 -11.976593 23.937737
53.967979 1.2030509 39.752602
47.650509 -18.641399 39.752594
55.434898 -11.554564 26.575661
43.15612 -20.557648 39.704102
44.818062 -6.1748619 39.752525
55.434898 -0.65581858 34.969383
55.434898 -11.458025 21.669754
55.434898 -11.547544 36.761482
55.434898 -1.1896166 30.597866
44.198242 -22.502542 39.704102
55.434895 -14.863029 17.208889
55.434898 -5.5093479 33.870041
55.089481 -10.400412 39.752552
55.434898 -4.2137041 37.240372
55.434898 -8.0306931 35.01606
55.434898 -13.53758 18.007654
55.434898 -1.148423 28.513296
55.434898 -11.476864 21.081966
47.211052 -12.108571 39.752571
55.434898 -6.2350707 25.541004
55.434898 -10.774567 28.977566
50.962383 -0.66788566 39.752579
55.434898 -5.8712959 37.955902
51.303272 -5.4974556 39.752579
55.414101 -19.029671 16.1532
42.786285 -16.201178 39.752563
48.623444 -1.1751142 39.752552
55.434898 -21.484182 29.519354
55.6413 -17.913277 17.746807
55.434898 -23.537392 37.229187
55.434898 -10.678226 15.682527
55.434898 -12.253778 24.217949
51.662292 -7.0980883 39.75259
55.434898 -4.5166192 31.296638
44.661369 -5.5066018 39.752522
55.434898 -9.5034943 32.595783
49.350319 -0.37690628 39.752567
55.434898 -12.135363 28.46191
55.434898 -18.674072 38.130955
55.434898 -3.0770152 34.591072
55.434898 -9.2230959 36.503983
55.414101 -21.64187 17.808641
55.434898 -9.7500801 21.064917
55.434898 -22.071314 38.22871
47.987297 -3.4702542 39.752541
55.434898 -16.41077 39.506157
42.340691 -20.80138 39.704102
55.278599 -0.67345232 26.189781
45.569347 -10.6932 39.75256
55.434898 -0.20794022 33.388027
55.434898 -14.060463 34.557686
51.882015 -18.633904 39.752544
55.434898 -23.493443 28.861629
47.503143 -8.211854 39.75256
55.434898 -11.038556 27.700014
55.414101 -21.883314 18.173851
55.434898 -12.533968 23.254471
55.434895 -13.019797 29.390053
45.652294 -22.833984 39.704102
55.434898 -23.197281 30.844395
55.414101 -19.001421 16.493042
55.434898 -3.4256837 28.60433
55.434895 -6.3316479 28.534626
55.434898 -8.2986908 17.865122
50.770576 -19.311291 39.752556
55.434898 -14.482352 21.390625
55.434898 -8.0725574 22.804581
55.434898 -18.918583 38.78627
55.434898 -16.805056 25.625795
55.414097 -19.176949 17.325907
55.434898 -5.9361143 36.727024
55.434898 -4.0486035 34.791824
55.434898 -4.4094477 27.839499
55.434898 -7.8793964 22.293732
53.016464 -22.898289 39.752529
55.434898 -9.935132 29.64259
55.414101 -21.648411 17.125408
55.434898 -10.353462 35.161079
55.434898 -18.482553 35.613338
54.062347 -18.285151 39.752514
47.207462 -18.626791 39.752602
52.535965 -14.80402 39.752552
55.434898 -7.8010149 31.430975
55.434898 -14.837258 16.674587
47.517319 -17.583075 39.752594
55.434898 -16.125887 34.136837
55.434898 -15.66565 29.628723
46.512211 -1.5973506 39.752533
55.434898 -6.4104958 37.390224
49.421299 -16.15481 39.752583
55.434898 -15.707663 21.787312
55.434898 -12.858955 23.613628
55.434898 1.553578 28.53504
55.414101 -19.582058 18.535542
55.434898 -22.98904 33.6297
47.545891 -21.776194 39.752594
43.497955 -11.322258 39.752541
48.101276 -2.5643826 39.752537
55.434898 -12.442385 16.683445
55.606785 -17.751278 17.088451
55.434898 -2.4466221 29.404139
55.493568 -21.667908 28.564196
55.434898 -0.11589658 36.056217
53.588169 -20.952627 39.752522
55.434898 -13.432367 36.610001
55.434898 -13.481677 22.6031
55.434898 -11.085304 35.207081
55.6413 -18.333498 26.488924
55.434898 -5.2619267 30.062096
55.434898 -15.622637 25.949112
55.434898 -19.088768 29.234406
55.434898 -18.712818 29.812634
41.820782 -20.83215 39.704102
55.434898 -20.454933 29.634359
55.434898 -14.322557 31.60511
55.434898 -9.5390177 17.917797
55.448311 -21.930332 28.643269
55.434898 -8.6138 20.234533
55.434898 -15.314972 38.548702
55.434898 -7.0056553 32.731705
55.434898 -0.85473758 28.637299
51.039429 -13.882484 39.752579
47.213234 -4.4100971 39.752537
55.434898 -5.6926141 29.179329
48.7094 -6.9284081 39.752563
55.414101 -19.302385 26.413292
55.434898 -12.638041 34.938793
55.434898 -14.31159 30.427641
53.050316 -16.568447 39.752537
53.716553 -13.277127 39.752548
55.434898 -2.7301846 38.092094
55.278599 -1.2650571 26.813406
55.434898 -0.0065758228 29.386242
43.613342 -17.20937 39.752575
48.899067 -14.109444 39.752602
55.434898 -14.183767 38.09486
55.434898 -3.8103561 22.534136
55.434898 -4.7557945 27.544157
55.434898 -21.521343 37.680149
49.294182 -14.379125 39.752594
55.434898 -0.63114357 28.851433
55.434898 -7.5588636 36.411934
55.077927 -0.018362284 39.752602
49.395596 -14.562047 39.752594
55.434902 -14.703222 22.717392
50.835075 0.42885041 39.752583
55.434898 -20.926506 32.480118
55.434898 -12.92581 25.697197
55.434898 -5.9953423 36.117512
55.434898 -20.199257 31.649134
55.434898 0.27139121 30.429951
52.201859 -12.452944 39.752571
55.434898 -10.363342 32.37709
55.434898 -14.788564 38.739475
55.434898 -7.2349005 28.295174
55.434898 -14.450409 37.615242
55.434898 -10.632134 17.383415
52.48645 -1.3035429 39.752586
55.434898 -4.4813509 26.396608
55.434898 -13.697608 37.365265
55.434898 -23.840179 31.506824
55.414101 -22.528107 21.940933
55.434898 -17.579128 36.029362
55.434898 -16.727688 25.061197
55.434898 -17.133471 20.193213
55.434898 -13.212362 23.04295
55.434898 -4.0681872 37.673115
55.434898 -11.884535 22.147804
55.641296 -18.319649 24.208847
55.414101 -20.372868 20.319727
55.434898 -23.708538 37.28466
50.247169 -10.644664 39.752598
55.434898 -11.140445 36.586578
55.434898 -5.1010833 27.286507
55.434898 -7.0052524 18.069544
55.434898 -2.7714202 38.546455
55.434898 -9.1977425 16.195591
55.6413 -17.832031 22.982389
55.434898 -3.6559501 37.565083
55.414101 -18.840643 19.985294
46.490593 -11.026085 39.752567
55.434898 -14.077954 32.242535
47.140682 -4.3971543 39.752537
55.434898 -7.9058566 26.833605
55.434898 -15.207499 28.090357
55.434898 -19.485424 33.578197
55.434898 -19.880219 33.544289
55.414101 -19.305468 26.643826
45.82848 -0.46136403 39.752533
49.674767 -0.90045226 39.752567
48.349121 -3.219913 39.752541
55.434898 -13.019501 25.685776
44.998718 -6.9038734 39.752533
55.434898 -6.617229 39.319149
44.397469 -10.624685 39.752548
48.285896 -22.484295 39.752586
55.434898 -12.255495 25.035095
53.399361 0.0030996799 39.752602
43.392815 -12.058351 39.752548
55.434898 -8.5267391 30.538294
55.434898 -17.764503 32.009361
55.434898 0.9628188 28.590698
55.434898 -0.99904323 35.260258
55.434898 -15.232375 34.002171
55.434898 -13.226798 37.00008
48.902512 -13.662389 39.752598
55.434898 -17.452702 30.405024
54.436504 -3.8519824 39.752598
55.434898 1.2930222 32.405357
55.434898 0.76502955 33.73666
44.804657 -11.851143 39.75256
55.434898 -19.152699 32.186485
55.434898 0.27175272 36.413567
52.73037 -13.737087 39.752556
55.434898 -9.8195648 20.61462
55.414101 -21.596996 17.35368
55.434898 -15.889534 37.163761
51.03751 -22.461901 39.752552
55.434898 -14.401248 17.801811
55.434898 -14.409319 23.169212
55.414101 -20.042326 19.901672
45.122475 -2.0155671 39.752518
55.434898 -7.6579647 21.084692
55.434898 -8.396019 20.972506
48.010387 -5.0401587 39.752548
55.434898 -2.1563416 29.962719
55.434898 -19.967306 36.764713
55.434898 -14.771795 27.864994
55.434902 -3.9565549 26.086468
55.434898 -9.3578568 17.618673
55.434898 -21.683945 36.568302
50.451424 -7.4309039 39.752583
55.434898 -3.0150549 34.126999
55.434898 -11.40296 38.296936
52.579815 -1.4979513 39.752586
55.434898 -11.415321 38.5317
44.291344 -16.540113 39.752575
44.288643 -21.981474 39.704102
45.642803 -8.4631186 39.752544
55.434898 -14.783374 27.120092
55.47242 -18.5807 20.798731
55.434898 -18.203814 32.449371
55.434898 -23.630463 33.179031
45.198997 -20.567194 39.704102
55.434898 -11.640779 20.846258
45.486763 -19.32593 39.704102
55.434898 -24.006367 35.63781
55.434898 -17.648094 33.239826
55.434898 -15.923999 28.641928
55.434898 -6.2935848 35.37183
55.434898 -23.937393 32.99358
55.434898 -8.2236681 30.034286
55.434898 -8.762785 33.441235
51.303482 -18.760944 39.752548
44.114567 -10.299166 39.752541
55.434898 -15.739417 34.903576
55.434898 -18.256823 29.573244
55.434898 -13.362583 21.394505
55.434898 -14.425726 31.971539
46.830956 -6.5842896 39.752548
53.860619 -2.3180242 39.752594
43.616196 -22.516064 39.704102
55.434898 -13.584455 31.212143
55.434898 -20.632626 33.977261
55.434898 -19.668932 39.406864
48.634811 -17.329342 39.752583
55.434898 1.1890224 28.334263
45.718327 -5.2851844 39.752529
46.868847 -14.67979 39.752586
55.434898 -4.4672222 37.168922
55.641304 -18.003422 28.019979
48.607056 -6.1142511 39.75256
53.031586 -22.675163 39.752525
51.413994 -18.584488 39.752548
55.434898 -7.6755781 29.315958
55.434898 -16.499531 24.24593
55.434898 -10.365854 23.450611
55.641304 -18.374453 26.4147
55.434898 -7.6372929 21.465994
46.588051 -4.7247248 39.752537
55.434898 -16.843693 38.040989
55.434898 -7.522922 25.057625
55.434898 -7.7944074 24.892548
55.434898 -5.6244254 27.02951
45.955372 -10.221579 39.752556
53.698948 -16.007792 39.752529
55.434898 -5.2496037 29.018436
55.434898 -14.755617 25.075525
44.368896 -1.4112629 39.752518
55.434898 0.2861259 34.199318
50.721222 -6.51267 39.752579
55.434898 -6.4889302 22.107372
54.801064 -1.3997561 39.752602
55.434898 -11.548891 38.520454
55.434898 -12.013324 23.636951
47.273975 -20.356529 39.752598
46.962585 -17.954659 39.801876
45.860847 -8.3317204 39.752544
55.434898 -15.679928 21.948208
55.434898 -4.6342831 31.68959
55.434898 -6.4459462 36.956978
55.434898 -5.4716921 30.322771
55.434898 -0.35474837 38.025669
55.434898 -7.5940495 32.245083
55.434898 -12.00286 24.837782
55.414101 -22.896755 25.322067
46.102661 -23.943419 39.959
55.434898 -16.670311 30.452103
55.414101 -19.874857 16.908535
55.6413 -22.183001 28.258038
55.434898 -17.688248 34.135181
45.386501 -14.329023 39.752571
55.434898 -2.8058007 30.187664
44.395172 -2.9069467 39.75251
55.434898 -10.30876 17.722391
51.104488 -23.096973 39.752548
43.64497 -19.344212 39.704102
55.434898 -4.022665 35.012497
55.434898 -23.268124 38.841164
55.434898 -16.168558 37.588028
55.434898 -17.617445 34.490692
48.608917 -1.4120489 39.752552
49.869072 -19.756859 39.752567
52.015022 -5.8654199 39.752586
55.434898 -15.030431 29.274586
55.434898 1.4699844 36.754208
55.434898 -13.341683 23.664009
55.434898 0.18172002 33.127724
55.414101 -21.221357 16.844898
55.434898 -13.360331 30.486641
55.434898 -15.591763 25.387703
55.434898 -11.061924 20.863762
54.133621 -6.1581764 39.752594
55.434898 -15.615715 33.038742
55.434898 -16.826492 36.170055
47.449867 -10.879061 39.752571
55.434902 -15.048519 19.512375
55.434898 -23.140703 33.483437
55.434898 -5.6748781 38.642509
55.434898 -16.774738 35.207867
55.434898 1.5911448 28.984478
49.578533 0.80294561 39.752579
45.201389 -8.8728018 39.752544
55.414101 -22.51899 21.031612
47.054558 -22.315245 39.752602
53.504948 -11.005323 39.752567
55.414101 -21.193336 24.216364
55.434898 -22.90126 32.825317
55.434898 -12.303516 33.734161
46.967861 -17.975489 39.798859
55.434898 -4.2902646 36.993591
55.434898 -3.8339534 37.410656
55.434898 -7.8071189 28.000811
55.434898 -7.3914728 29.171257
53.517902 0.1729846 39.752602
55.434898 -23.338068 38.508022
55.414101 -19.475023 17.518883
55.434898 -13.394485 33.794315
45.616974 1.3423626 39.752548
43.835236 -19.797531 39.704102
55.434898 1.5739223 35.646702
51.13427 -18.234434 39.752552
53.082275 -19.631695 39.752529
55.414101 -21.331844 27.315136
46.781132 -11.190905 39.752567
55.434898 -24.189884 35.02021
55.434898 -10.495852 36.424744
55.434898 -20.508745 31.748465
45.158936 -5.2901902 39.752525
55.414101 -19.366226 15.927641
55.434898 -18.145212 36.77375
55.434898 -23.118822 35.353073
46.77953 -7.1154509 39.752552
55.434898 -6.2433372 33.450027
46.273716 -5.1077967 39.752533
55.434898 -2.6358023 35.840313
55.434898 -17.796583 29.582497
43.003098 -15.917848 39.752563
55.434898 -14.6366 34.353012
55.434902 -6.1595898 37.2976
55.434898 -5.7319221 28.055904
46.102398 -7.2725086 39.752541
55.434898 -19.74 39.097355
53.817921 -13.177265 39.752548
55.414101 -19.128428 25.592951
55.434898 0.20229828 38.12355
48.686779 -1.2634915 39.752552
55.261066 -11.895899 39.752544
55.434898 -21.736584 32.455719
55.434898 -6.2129388 39.293938
44.724838 -9.0416908 39.752541
46.51849 -15.015582 39.752586
49.767441 -19.722717 39.752571
55.434898 -10.291371 26.042778
50.594746 -4.4664793 39.752571
55.434898 -9.0085363 17.443829
55.434898 -16.105928 37.295513
55.434898 -15.503228 15.931314
49.509754 -2.9093556 39.752552
53.258926 -19.015825 39.752522
44.312969 -2.4681935 39.752502
55.434898 0.45094907 38.134483
55.641296 -18.147863 28.177961
55.434898 -11.136358 18.493528
55.434898 -6.1098981 33.135868
55.434898 -12.108173 30.937313
55.434898 -21.219538 39.297523
55.434898 -7.8682256 31.57827
55.414101 -21.821043 22.807842
46.233475 -4.6159205 39.752533
55.434898 -7.2760854 35.390106
46.248718 -18.8983 39.959
46.881508 -18.333313 39.848274
55.44669 -18.605185 26.162258
55.434898 -17.981775 31.888214
52.699089 -15.108302 39.752548
55.434898 -17.017527 17.050713
54.564106 -20.95405 39.75251
55.434898 -1.5514044 38.934967
52.429756 -13.40144 39.752563
55.434898 -5.9396944 29.23518
54.892422 -20.605639 39.752502
54.599354 -4.4367599 39.752602
55.434898 -3.961437 36.451946
55.434898 -17.699043 36.631695
55.434898 -1.2248859 27.96213
45.640038 -22.343575 39.704102
50.27203 -23.940897 39.75256
55.434898 -14.60228 23.427517
46.458561 -14.955165 39.752586
50.292938 -10.946548 39.752598
55.434898 -14.370529 25.700909
55.414101 -19.703135 21.306948
49.32016 -2.7846048 39.752548
55.434898 -4.0914869 25.697144
55.434898 -5.2355251 27.564501
53.987736 -3.4214332 39.75259
48.743298 -15.931711 39.752594
55.434898 -10.791903 25.184525
55.414104 -21.159292 17.276058
50.533966 -6.1405692 39.752579
47.983452 1.3744574 39.752567
43.973179 -15.144411 39.752567
49.04966 -11.94177 39.752594
50.548389 -13.101726 39.75259
55.434898 2.1746104 32.904861
55.434898 -14.946175 25.664072
52.915825 -6.7615352 39.752598
55.434898 -4.5355525 27.183681
55.434898 -10.70576 31.673693
53.922394 -4.6368208 39.752598
55.434898 -8.9777813 17.565802
55.691502 -2.2784054 26.728079
54.938637 -7.8995872 39.752571
55.434898 -17.240515 24.758785
45.162521 -17.632301 39.856392
45.569866 -12.283355 39.752563
50.58448 -12.441067 39.752594
55.434898 -16.658327 35.291939
55.414101 -23.750748 21.176605
55.434898 -12.47485 23.308189
43.147442 -10.069587 39.752533
55.414101 -20.774086 19.94713
49.638153 -23.038477 39.752571
55.434898 -14.985803 37.711918
49.49823 -22.459366 39.752571
55.434898 -11.000583 26.868137
55.434898 -6.008491 23.81292
55.278599 -1.3511008 25.043652
49.803787 -9.7365189 39.752586
55.434898 -19.784021 33.506172
49.695969 -5.2894425 39.752563
55.434898 -0.20047846 28.567339
55.434898 -13.639016 25.722504
55.507233 -21.114258 27.570021
55.434898 -14.170681 21.689156
55.278599 -1.4963897 26.005495
55.434898 -9.1346788 21.573704
49.496231 -12.997534 39.752602
55.434898 -16.80265 20.189346
55.434898 -6.8016944 33.706154
55.434898 1.1265037 39.661266
54.032246 0.96370316 39.752602
55.434898 -14.922642 23.472662
51.461288 0.0037708282 39.75259
55.434898 -19.783646 33.842022
44.120644 -20.451746 39.704102
50.66404 -1.192275 39.752571
55.434898 -6.8932285 34.985023
55.278595 -1.6252655 25.156982
55.434898 -3.8505602 39.083042
52.733719 -12.737473 39.752563
50.683258 -5.0072403 39.752571
55.414101 -20.450878 23.010784
55.414101 -19.429789 22.522507
48.568558 -23.680088 39.752583
42.825176 -12.026265 39.752541
55.434898 1.9134413 33.518623
55.595734 -17.73197 23.105316
45.345226 -9.8007154 39.752548
55.434898 -23.803551 37.661293
46.776432 -17.4275 39.752602
55.434898 -12.166537 27.669235
54.519276 -14.720375 39.752529
46.053822 -22.087891 39.907223
42.903389 -10.728714 39.752533
55.434898 -16.485588 20.540665
55.434898 -13.3593 16.908129
48.507202 -23.32666 39.752583
48.162319 -15.536197 39.752602
55.434898 -11.229909 19.631378
55.434898 -11.238936 39.464691
55.414101 -23.384453 26.168259
55.434898 -14.292048 39.552738
55.434898 -12.732625 28.568514
46.644066 -23.919924 39.959
55.434898 -1.7488415 31.704021
46.025925 -3.1217177 39.752522
46.064579 -20.163874 39.928818
50.400478 -18.173569 39.75256
55.434898 -10.108193 38.275059
52.221706 0.35086846 39.752598
55.434898 -14.172741 26.270988
55.434898 -12.793336 24.116055
47.246361 -7.8248787 39.752556
55.434898 -15.466474 29.536011
55.434898 -16.789436 22.600946
55.434898 -17.830763 33.212307
46.122448 -12.064438 39.752571
53.964058 -10.211344 39.752567
