# .PCD v0.7 - Point Cloud Data file format
VERSION 0.7
FIELDS x y z
SIZE 4 4 4
TYPE F F F
COUNT 1 1 1
WIDTH 1524
HEIGHT 1
VIEWPOINT 0 0 0 1 0 0 0
POINTS 1524
DATA ascii
-42.166824 -37.887798 30.995716
-45.925385 -39.651413 24.266682
-46.983158 -38.921623 22.8435
-38.596035 -35.731434 30.7346
-45.202553 -25.293982 29.2166
-42.942154 -37.887798 26.655193
-45.104897 -35.688297 29.2166
-44.4814 -36.205555 24.795954
-37.983608 -37.887798 28.643789
-42.954411 -30.240116 30.702299
-40.201519 -37.887798 21.828175
-45.482899 -46.876396 25.642132
-45.482899 -41.197975 20.043985
-48.29073 -39.676929 20.944416
-45.911503 -37.887798 30.020071
-38.540794 -41.851814 31.423256
-41.404362 -38.927673 31.935499
-44.881706 -30.088543 31.382999
-45.05645 -29.923958 24.068199
-44.101654 -44.576591 31.935499
-43.94965 -37.887798 31.729519
-40.228016 -37.887798 17.717993
-46.127594 -37.951134 19.195284
-38.960762 -30.611629 30.702299
-39.947159 -37.887798 30.952278
-46.184799 -38.203644 18.010052
-45.063923 -26.746647 29.2166
-47.515522 -39.6721 21.544437
-46.184799 -38.127724 29.148844
-43.897999 -29.800724 30.447292
-45.176826 -28.086716 29.2166
-43.422874 -37.887798 25.934502
-43.952881 -38.075008 32.124611
-45.727787 -46.376411 31.935499
-43.897999 -36.602959 30.37178
-45.046513 -35.55621 23.917999
-45.119377 -35.503975 22.674
-45.482903 -45.86237 20.266371
-43.897999 -34.153393 31.01988
-40.043968 -37.887798 22.47295
-45.482899 -45.161163 21.717827
-44.961502 -37.69836 29.216599
-45.407799 -30.29237 31.35964
-45.482899 -43.030418 19.69393
-41.300514 -37.887802 23.959772
-45.407799 -37.388588 31.353584
-39.628979 -48.374603 31.935497
-41.373981 -36.222755 30.7346
-44.367699 -36.254936 24.019533
-45.482899 -43.222916 24.590057
-45.355186 -43.500412 23.3855
-41.532352 -37.887798 26.562946
-41.062004 -34.870583 30.7346
-45.482895 -41.520592 20.493011
-37.61882 -37.887798 23.624578
-37.704178 -37.887798 26.670305
-50.24728 -41.4977 22.420378
-43.806469 -30.265732 30.9601
-44.976868 -37.887798 28.997211
-44.97538 -33.623451 22.674
-44.426712 -32.558231 29.2166
-45.482899 -44.088242 26.584658
-39.482666 -33.350121 30.7346
-37.794121 -37.887798 25.093109
-45.407799 -25.751278 30.100168
-43.663055 -43.031143 31.588524
-45.995201 -45.329811 30.901989
-45.502495 -38.001503 22.89447
-44.793854 -37.887798 29.295097
-44.4814 -33.699112 24.491589
-43.898003 -26.127281 30.853077
-44.726784 -27.902519 31.382999
-46.627579 -43.136227 23.385502
-45.995201 -39.329769 18.257004
-44.095528 -26.224215 29.216602
-38.581818 -41.626793 31.423254
-47.996487 -39.6721 21.696178
-45.995201 -45.180069 30.316975
-44.439781 -33.294678 29.216599
-41.050743 -32.881355 30.7346
-44.592201 -36.200951 23.771389
-43.898003 -33.734928 30.66206
-38.24609 -48.152061 31.935497
-45.407799 -25.086245 31.215858
-40.533146 -37.887798 25.303953
-45.482899 -41.568344 23.756559
-42.175659 -37.887798 26.742085
-40.480457 -37.887798 29.550961
-37.850361 -37.887798 29.093615
-37.378433 -45.24551 31.423265
-41.756111 -37.887802 18.125959
-43.541634 -44.535744 31.432743
-45.649014 -37.887798 25.101864
-45.502502 -31.313192 22.923584
-44.592201 -34.506821 23.68218
-49.446507 -44.472603 23.385502
-43.897999 -25.375486 29.644476
-45.698303 -47.707703 25.434778
-44.607796 -37.922974 31.382999
-37.763565 -39.978012 31.423264
-45.482899 -41.527626 18.098347
-45.482895 -43.501839 23.832329
-45.482899 -40.400116 20.777962
-43.898003 -31.175499 29.723282
-39.755852 -38.785881 31.935499
-45.995201 -40.753712 30.858757
-45.995201 -39.053528 27.18461
-44.4814 -32.680481 27.723055
-45.407799 -32.136642 29.892296
-41.354527 -37.887798 17.529406
-45.482895 -44.91264 27.520584
-41.797905 -30.6313 30.945335
-46.184799 -38.162674 23.156876
-45.995201 -45.44384 31.521231
-45.178032 -34.663559 29.2166
-44.060562 -47.188374 31.935499
-43.898003 -32.621067 29.909756
-40.793739 -34.308605 30.7346
-43.029282 -37.887798 24.591705
-45.355038 -32.94923 23.917999
-46.626915 -30.648941 23.224327
-42.09309 -41.793488 31.423218
-45.407799 -26.682051 31.148535
-45.482899 -43.648468 22.640394
-45.378414 -35.404133 22.674
-45.482895 -41.388405 20.245565
-39.220436 -37.887794 29.702724
-46.260025 -39.6721 19.947693
-44.4814 -31.340551 26.837109
-45.482899 -46.65361 28.533466
-37.592712 -37.887798 16.319601
-48.412968 -32.030365 22.763599
-43.897995 -25.059902 30.80563
-49.877491 -33.044327 23.510799
-53.192596 -34.918415 23.039856
-37.795395 -37.887798 20.348759
-44.4814 -32.040649 27.739075
-45.482899 -41.922318 23.625858
-45.407799 -25.517704 30.459515
-43.815636 -37.887802 26.010355
-40.780174 -37.887802 22.387821
-54.279713 -36.002007 23.371094
-45.995201 -45.650623 30.468256
-44.181587 -32.744492 31.382999
-45.030724 -37.887798 24.450447
-47.127102 -34.38203 22.926706
-47.127102 -36.995502 23.360209
-44.592201 -35.635357 23.664047
-37.240089 -44.35458 31.423269
-45.407799 -35.823689 29.652819
-45.407799 -35.021385 30.69832
-50.346954 -41.514313 23.514294
-45.482899 -47.147556 28.341337
-43.949692 -25.375164 31.382998
-42.804241 -37.887794 27.760515
-45.995201 -40.825226 31.304056
-45.482899 -46.573036 22.432281
-37.410633 -37.887798 18.55455
-39.275501 -37.887794 22.224848
-47.576309 -39.6721 20.376293
-43.557026 -37.887798 18.785728
-42.708111 -41.634121 31.42321
-45.777679 -47.466526 23.3855
-44.181664 -36.224846 31.382999
-39.681992 -43.783802 31.423241
-46.06987 -37.923519 17.284645
-44.4814 -35.377296 25.517952
-44.4814 -36.125809 29.149767
-40.730576 -35.140739 30.7346
-45.478806 -34.566109 23.917999
-45.856956 -37.887798 25.753201
-42.404644 -37.887798 27.925266
-45.996098 -46.002216 23.3855
-45.336266 -37.887798 17.404026
-45.593193 -43.489799 23.3855
-45.482895 -43.011528 26.762154
-46.099213 -37.937557 28.51129
-44.592201 -36.465397 23.705891
-45.482899 -40.195663 25.438429
-43.82848 -47.51598 31.800758
-45.482899 -45.086029 27.22028
-38.826832 -37.887798 20.729973
-45.407799 -34.973274 30.505014
-41.833885 -37.887798 24.494598
-44.4814 -34.28606 24.368172
-37.903324 -42.31356 31.423262
-39.107178 -37.887798 29.568306
-38.386612 -47.454277 31.423256
-45.995201 -48.37952 25.802055
-39.421738 -37.887798 24.707584
-45.482895 -43.60408 27.440886
-44.579391 -36.235001 28.758406
-44.498959 -30.586704 23.116426
-45.49641 -29.4897 24.062313
-45.765121 -39.736378 17.40345
-45.482899 -39.950462 25.482254
-43.897999 -34.853703 29.617903
-46.660851 -39.444828 23.430901
-52.664482 -34.574997 23.481091
-38.126389 -37.887798 21.458502
-45.482899 -41.121693 26.257538
-45.502499 -35.75938 22.905945
-36.843903 -37.887798 16.332502
-39.167511 -45.681126 31.423248
-45.995201 -46.74976 31.435057
-40.514771 -36.142658 30.7346
-37.25975 -44.878719 31.423271
-44.121429 -38.925789 31.935499
-45.482899 -46.673485 24.685497
-45.407799 -32.047089 30.227489
-45.653492 -30.479454 23.924023
-38.683426 -31.555269 30.7346
-48.243198 -40.398067 22.39768
-45.482899 -42.288349 18.540552
-39.753048 -30.6313 30.913139
-40.532127 -37.887798 18.611
-41.421848 -32.396187 30.7346
-45.482899 -42.220222 25.097055
-41.60276 -45.198715 31.423222
-45.692368 -37.887802 22.415468
-45.995201 -44.080162 31.791225
-40.730057 -46.249062 31.423233
-43.508747 -37.887798 29.57159
-43.530865 -37.887794 21.732885
-45.482899 -41.013855 21.670404
-45.40168 -37.558147 29.216599
-47.353561 -39.6721 19.098511
-42.566654 -37.887802 22.555233
-38.580498 -37.887798 16.655663
-43.897999 -29.56955 29.485771
-45.482899 -40.459545 18.731449
-45.482899 -44.321114 23.155037
-44.727699 -37.887798 22.066162
-39.901497 -40.712166 31.423241
-44.927265 -34.166954 30.7346
-44.823944 -35.462307 31.382999
-45.502499 -31.846745 22.989798
-38.421623 -37.887798 24.259739
-44.408287 -37.887798 25.635687
-48.243198 -41.035728 21.64238
-50.245308 -41.875801 23.3855
-46.069263 -38.284771 22.036921
-44.4814 -32.997421 25.983208
-47.127102 -36.260239 23.245029
-46.184799 -38.055897 24.992552
-43.897999 -36.056973 30.941193
-45.502499 -34.508987 23.746773
-45.995201 -39.246552 24.16571
-39.481682 -37.887798 17.644928
-44.870544 -37.887802 18.225052
-44.598541 -45.826393 31.935499
-37.94915 -37.887794 16.222569
-43.898003 -34.14904 31.314831
-45.482899 -42.569504 29.585484
-39.03347 -37.887798 18.410889
-41.822372 -37.887798 26.318287
-47.93689 -46.688469 23.3855
-41.713684 -30.386789 30.702301
-44.481403 -32.623581 27.137741
-44.4814 -35.610832 27.05788
-44.223083 -36.002205 31.382999
-45.407799 -28.793537 30.108589
-45.995201 -44.120232 30.288105
-45.7061 -41.775414 23.3855
-44.500099 -30.247391 27.525051
-45.482899 -46.304722 25.054426
-45.482895 -42.590668 25.859306
-41.799988 -40.306854 31.42322
-45.995201 -48.127258 23.20853
-40.684708 -37.887798 28.249319
-39.193054 -36.235001 30.791817
-53.131374 -35.098598 23.510799
-43.897999 -32.336201 29.616785
-44.575222 -32.600269 29.2166
-40.195164 -35.166237 30.7346
-44.4814 -32.890034 26.522362
-45.407799 -29.743156 30.171339
-45.995201 -38.994057 26.617567
-42.601391 -30.342335 30.702299
-44.720196 -35.764816 29.216599
-45.407799 -35.747276 31.057976
-44.4814 -33.82951 28.979239
-44.4814 -32.413849 27.28348
-44.883961 -28.604725 31.382999
-45.995201 -39.062115 27.432138
-47.737988 -31.371441 22.782581
-43.905979 -31.313883 31.382998
-43.159653 -37.887798 27.755072
-45.407799 -28.374485 30.581059
-40.714436 -37.887798 29.263254
-45.482899 -44.557877 23.854496
-45.482903 -44.326599 25.298786
-45.482899 -47.461483 25.331728
-45.482899 -41.646709 19.703239
-45.201435 -37.887794 17.131878
-40.5397 -38.427231 31.935497
-41.073635 -37.887798 16.414848
-45.995201 -39.286636 29.289326
-45.482899 -44.936806 19.976538
-43.349758 -37.887798 19.529371
-43.237675 -34.424103 30.7346
-45.482899 -46.816933 22.849699
-44.592201 -35.860336 23.017748
-45.995201 -38.797237 23.814501
-45.482895 -45.450737 25.47279
-42.829391 -35.08873 30.7346
-44.367699 -36.55088 26.002838
-42.012066 -30.240101 30.88072
-40.075195 -37.887802 30.217773
-45.482899 -44.088051 24.953533
-48.717083 -32.008118 23.36153
-44.4814 -31.06555 23.739059
-45.407799 -27.452454 29.372046
-41.481709 -37.887794 26.835152
-45.502499 -32.614166 23.229511
-40.308723 -35.412762 30.734598
-45.149517 -30.06094 22.5238
-42.849144 -41.810757 31.423206
-42.553001 -43.603691 31.42321
-44.4814 -33.756378 28.795128
-44.623592 -34.447113 22.674
-38.575146 -39.721272 31.733955
-47.463326 -39.6721 19.641857
-45.482895 -44.82325 26.936962
-45.407799 -31.585743 29.233788
-45.482899 -42.766464 22.284067
-41.790527 -37.887798 27.489014
-45.687439 -39.672096 21.999182
-45.911564 -39.658737 22.926186
-44.643021 -34.728848 30.7346
-39.516933 -37.887798 18.057407
-45.878593 -39.67622 20.271713
-45.508957 -47.607315 27.328268
-38.638031 -36.474487 30.9972
-46.662067 -40.816273 23.385502
-46.706402 -38.646301 23.430901
-42.263359 -37.887798 18.699665
-45.187862 -34.5289 29.216602
-45.036953 -37.887798 25.378946
-45.502499 -30.787666 22.797325
-45.995201 -40.570911 30.955067
-39.010895 -37.887798 24.367239
-45.482899 -47.454468 24.773224
-45.482895 -45.58778 21.035847
-45.995201 -40.885593 31.574432
-43.897999 -29.679649 31.356022
-45.407799 -35.63916 30.298111
-44.592201 -37.565979 23.194206
-45.407799 -37.779125 29.290777
-39.471458 -37.887798 26.563692
-45.166092 -35.539982 23.917999
-45.938591 -42.920158 23.3855
-45.794022 -37.887798 31.865021
-41.785225 -37.887798 30.879803
-43.249298 -34.566483 30.7346
-46.287197 -43.290199 23.3855
-43.941784 -34.051601 29.2166
-44.557785 -45.870544 31.935499
-44.474823 -28.541332 31.382999
-39.798893 -36.235001 30.925541
-45.930817 -30.507462 22.763599
-43.898003 -25.662455 30.604843
-44.4814 -35.110031 27.320753
-46.184799 -38.013721 17.656002
-43.101639 -37.887798 19.623463
-39.327641 -39.741257 31.696259
-41.681767 -41.158897 31.42322
-43.897999 -32.922119 31.344103
-45.995201 -48.024467 28.255268
-48.085503 -39.731964 23.578072
-47.127102 -34.217846 23.348436
-45.482899 -44.072166 20.44318
-45.502495 -33.656219 22.798023
-45.482899 -44.581776 21.284702
-38.826557 -48.520607 31.935497
-45.407799 -30.336012 29.359493
-38.252415 -37.887798 25.471573
-45.407799 -30.805637 30.569429
-44.865334 -33.887714 31.382999
-41.970909 -43.931061 31.423216
-43.186722 -45.794884 31.423204
-45.986507 -39.619007 29.273155
-44.703728 -34.489475 30.7346
-41.344658 -36.235001 30.885588
-37.40406 -37.887798 16.879734
-41.879272 -37.887798 21.865263
-44.022976 -37.887794 24.894085
-45.237724 -34.09317 23.917999
-42.01136 -37.887798 16.161743
-39.526501 -47.09124 31.423244
-45.874016 -39.67865 27.124325
-45.465176 -39.6721 22.759045
-47.134884 -43.462673 23.385498
-44.724979 -37.465706 23.917999
-41.281918 -32.239086 30.7346
-38.059666 -37.887798 28.838503
-50.012863 -43.752045 23.3855
-45.995201 -39.068779 31.167305
-44.4814 -32.578285 27.71719
-45.407799 -24.821697 30.160309
-42.21888 -30.358295 30.702299
-39.559673 -30.500315 30.702297
-43.420811 -34.364803 30.734598
-45.995201 -47.990025 30.489584
-45.205341 -33.239628 29.2166
-39.133705 -35.691921 30.7346
-42.603268 -36.135483 30.7346
-46.479694 -45.526958 23.3855
-47.38826 -43.71727 23.3855
-48.092819 -43.464561 23.3855
-41.59605 -37.887794 22.204712
-43.897999 -38.115898 30.767002
-44.863564 -29.4897 24.022985
-40.864037 -37.887802 18.065626
-44.4814 -35.77454 24.501644
-43.326046 -31.803238 30.7346
-38.00185 -37.887794 21.291441
-43.731125 -37.887798 21.113426
-49.902786 -41.513046 23.515976
-45.65345 -29.873405 23.271723
-44.198647 -45.181404 31.935501
-45.995201 -42.964417 31.358923
-44.463242 -37.887798 23.757832
-45.482899 -45.355072 26.068977
-44.673878 -37.887794 19.976318
-43.798618 -47.630405 31.762455
-45.482895 -45.626629 28.741392
-45.22197 -34.518948 31.382999
-43.898003 -27.166586 31.369087
-43.897999 -26.177322 30.662632
-45.973022 -37.887798 21.374882
-39.178047 -37.887798 17.34358
-44.500099 -30.318832 26.433937
-45.482895 -43.401604 28.407982
-42.077312 -37.887798 17.935429
-41.636169 -41.323666 31.423222
-40.009335 -47.76976 31.755703
-43.022411 -30.6313 30.814812
-45.976318 -44.580818 31.935501
-41.224884 -37.887798 18.945477
-38.668274 -47.126019 31.423252
-44.4814 -33.214657 29.234028
-45.61742 -39.6721 20.031668
-40.049263 -37.887798 24.4452
-41.696861 -47.121838 31.423218
-46.004623 -43.286366 23.3855
-45.995201 -48.30323 27.963398
-45.482895 -44.253819 26.877525
-45.651936 -39.672096 17.960367
-47.02565 -46.616356 23.385502
-42.908764 -37.887798 23.279493
-45.407799 -31.591057 29.780571
-45.502502 -32.212757 23.757584
-45.482899 -47.231869 24.378965
-44.678841 -36.197941 23.917999
-43.292404 -43.861526 31.423203
-50.559433 -33.206146 23.178146
-45.482903 -41.801964 25.821388
-44.4814 -33.981682 27.892899
-44.670658 -31.33469 29.2166
-44.4814 -30.839901 24.551708
-45.070206 -26.713371 31.382998
-42.404831 -30.631302 30.806114
-46.184799 -38.208519 26.68112
-39.218906 -33.718933 30.7346
-40.703812 -41.75267 31.423231
-43.897999 -35.005455 29.886095
-45.232571 -37.887798 28.933672
-39.500198 -41.590401 31.423244
-49.852631 -41.497696 23.110207
-45.002159 -33.767574 30.7346
-45.41674 -37.887798 29.655893
-37.041538 -45.710964 31.423269
-46.073387 -39.912117 23.621927
-44.4814 -32.407612 28.076025
-40.602409 -37.887798 27.9189
-40.283367 -39.859409 31.473396
-43.206913 -37.887802 28.948021
-44.626442 -37.1129 29.216599
-41.049126 -33.985722 30.7346
-45.080437 -35.275185 30.7346
-44.4814 -35.073475 25.886887
-45.744347 -47.732109 21.69733
-45.798264 -43.761696 29.951605
-43.897995 -29.506536 29.432758
-38.150856 -37.887798 26.416161
-41.903679 -46.940285 31.423218
-37.967789 -37.887798 25.861677
-44.887444 -32.748417 29.216602
-45.506729 -37.887794 21.395706
-43.897999 -29.95789 30.624996
-44.417294 -36.626305 28.37582
-50.413105 -41.4977 22.928606
-45.995201 -38.700176 22.45853
-42.035984 -37.887798 19.114138
-44.592201 -35.216839 22.988783
-43.897999 -30.278791 30.562449
-45.482899 -46.991028 29.389807
-37.984989 -48.489735 31.935501
-44.592201 -31.89319 23.701801
-44.629761 -30.6313 28.112324
-41.106377 -37.887798 19.82287
-44.848999 -30.322433 30.94965
-44.175522 -33.857056 30.7346
-48.879311 -42.102524 23.3855
-45.407799 -29.909657 30.006905
-44.828041 -36.153374 23.917999
-45.482899 -44.327995 26.541386
-44.917305 -26.882885 29.216599
-41.464111 -32.879974 30.7346
-46.184799 -38.032246 24.894648
-37.231792 -46.157558 31.423269
-40.405182 -37.887798 26.257389
-39.372726 -37.887798 30.632042
-45.482899 -41.119263 21.042917
-37.167542 -37.887798 19.53829
-39.960453 -37.887798 25.735582
-38.150318 -37.887798 27.317669
-45.807331 -37.887798 19.312572
-45.407799 -32.441193 29.722502
-44.487453 -43.476959 31.935497
-47.892849 -39.672104 21.120848
-52.835262 -34.68605 23.310158
-43.898003 -36.220261 30.474754
-45.482899 -45.040215 21.443237
-45.482895 -40.263454 26.496387
-40.276039 -36.292496 30.739403
-38.389702 -45.514793 31.423256
-43.495422 -36.573601 30.739401
-45.482899 -46.142342 28.000158
-51.756321 -33.984447 23.18512
-43.897999 -25.733835 29.639771
-45.995201 -47.898243 25.66958
-47.157017 -46.778416 23.3855
-46.734356 -30.718807 22.935638
-45.644981 -43.805714 29.832127
-44.592201 -37.892509 23.200563
-45.482899 -43.573368 26.476006
-44.555565 -32.446125 29.2166
-45.482895 -40.607983 19.38957
-42.398636 -37.887798 18.272011
-41.967934 -48.516281 31.935499
-44.651882 -34.297043 31.382999
-39.995602 -37.887798 20.252357
-41.523354 -37.887798 24.859074
-42.731461 -37.887798 29.849636
-45.270023 -35.008911 23.917999
-43.897999 -37.550014 31.01404
-45.995201 -38.434212 26.053295
-50.852562 -41.780685 23.575876
-46.184795 -38.227978 26.761578
-40.846592 -43.6796 31.423229
-45.562706 -37.887794 24.366486
-45.482899 -42.12104 22.759563
-43.973701 -37.887798 23.732035
-40.667461 -37.887798 31.532112
-44.745686 -30.6313 28.829578
-43.898003 -28.928127 29.508053
-44.592201 -31.083889 22.990082
-48.243198 -40.967415 20.16901
-44.592201 -34.934769 23.540581
-40.137775 -37.887794 29.114014
-45.995201 -38.635201 19.823435
-45.995201 -44.773811 30.666187
-45.894211 -39.6721 20.051105
-45.995201 -46.563679 30.38744
-41.866112 -45.770523 31.423218
-45.995201 -38.850365 20.32369
-43.897999 -36.650177 29.751705
-45.564365 -43.873749 23.3855
-46.133087 -37.953762 24.241703
-41.064926 -37.887798 16.935017
-45.482899 -41.04644 28.167404
-45.407799 -34.857586 29.377422
-43.897999 -25.040081 30.986454
-43.898003 -29.018036 30.741993
-45.705147 -46.478092 29.879028
-37.52346 -41.099159 31.423265
-39.52013 -31.949036 30.7346
-45.926212 -39.468227 31.935497
-45.579346 -39.6721 20.411739
-45.482899 -47.552593 24.689482
-40.720436 -34.791683 30.7346
-49.144981 -41.497704 22.707594
-44.441299 -30.153603 23.328163
-41.529312 -46.70607 31.423222
-47.127098 -32.762203 23.119444
-40.21648 -43.355034 31.423237
-43.635109 -37.887798 31.920835
-43.601643 -36.235001 30.749031
-45.709084 -47.713409 21.763329
-45.407799 -28.375877 29.267689
-45.116653 -29.555946 22.5238
-38.094814 -37.887798 22.210289
-44.756809 -28.311195 31.382999
-44.4814 -30.880684 28.919952
-45.854504 -47.523403 29.995438
-40.657913 -37.887798 31.65876
-45.348064 -37.887798 28.559013
-42.835327 -37.887794 31.02161
-42.770649 -37.887798 30.205824
-41.218987 -43.069183 31.423225
-40.573669 -37.887798 24.958521
-40.762512 -37.887802 27.586519
-38.748306 -44.096146 31.42325
-42.365875 -37.887798 22.160206
-46.484272 -39.6721 18.515245
-44.4814 -34.810181 27.619213
-39.949059 -37.887798 23.096859
-44.4814 -35.219238 28.347715
-45.407799 -36.249405 30.999901
-45.241844 -37.887802 27.433699
-45.214336 -46.442196 31.935499
-45.482899 -40.57959 22.50507
-44.583252 -37.887798 31.314224
-45.565426 -39.6721 19.520664
-44.592201 -33.89653 23.536837
-45.995201 -38.952827 24.995813
-44.640457 -37.887794 18.517363
-45.482899 -40.391033 27.004642
-41.014999 -37.887802 28.868023
-45.482899 -40.293957 20.332611
-45.995201 -48.263885 28.387936
-43.978264 -37.887798 28.015888
-45.407799 -35.913567 31.380175
-48.504654 -32.246685 23.30858
-42.045418 -43.674179 31.423218
-47.127102 -36.497337 23.174675
-45.971287 -40.785118 30.086464
-46.402328 -39.976551 23.424932
-44.693607 -32.727989 23.917999
-51.917351 -34.089161 23.326305
-43.897995 -37.273926 30.939484
-44.746353 -26.724508 31.382999
-45.407799 -37.79472 29.674185
-45.748146 -41.255661 23.385502
-44.457775 -37.313736 31.382999
-40.640102 -41.342915 31.423231
-46.75005 -39.6721 20.235403
-41.192776 -37.887798 24.198486
-46.585396 -31.816772 23.256962
-45.482899 -42.934555 27.299633
-45.407799 -37.770126 31.095116
-43.103783 -37.887798 18.098141
-50.132614 -32.928596 23.098856
-43.489933 -37.887798 16.669741
-45.323441 -31.854134 29.216602
-47.344776 -39.6721 22.268158
-45.407799 -35.865028 29.450689
-45.407799 -25.811409 29.954979
-38.269245 -37.887798 29.591177
-54.34729 -35.669281 23.327141
-45.145939 -30.038097 24.068199
-40.888149 -41.444756 31.423229
-48.390923 -39.962833 23.50824
-45.482899 -40.183231 21.657499
-45.995201 -41.334831 31.575935
-39.113724 -35.922432 30.7346
-45.482899 -40.560299 22.587864
-47.965046 -39.6721 21.576622
-38.989189 -30.48707 30.960102
-47.12867 -48.410202 23.385502
-44.4814 -31.152954 26.362743
-40.099731 -47.050671 31.423237
-45.482903 -42.146717 18.765837
-46.184799 -38.003971 17.616945
-38.859009 -37.887798 29.94116
-45.482899 -44.676231 28.956657
-45.228333 -31.607069 22.674002
-44.367699 -36.590916 25.703474
-45.482899 -43.921059 29.257977
-38.402859 -46.184086 31.423256
-44.093475 -32.854916 29.216602
-40.734638 -37.887798 17.489376
-45.726456 -41.449188 23.3855
-45.407799 -28.31019 30.94062
-45.995201 -38.6371 26.95554
-44.615044 -30.240101 24.011755
-45.995201 -44.291588 30.487595
-45.665466 -45.434948 29.848099
-49.228493 -41.602489 23.623049
-46.023888 -38.30648 28.930035
-44.628029 -37.329964 31.382999
-44.525639 -36.626301 26.42963
-43.809288 -36.04974 30.7346
-44.896729 -33.510284 31.382999
-44.373665 -28.745436 31.382999
-44.4814 -30.673073 28.7568
-51.178333 -41.4977 23.363239
-38.565662 -39.966461 31.423254
-44.49704 -30.584234 23.858925
-44.295666 -47.738644 31.935497
-43.20417 -37.887798 19.767721
-47.663994 -44.677273 23.3855
-44.4814 -31.996689 27.275928
-43.753185 -41.023232 31.704157
-45.995201 -38.651161 24.781433
-45.995201 -39.035805 29.492718
-44.539566 -36.626301 29.250175
-37.887966 -41.823811 31.42326
-38.082767 -37.887798 17.224463
-45.482899 -47.286953 27.475378
-44.4814 -34.29953 24.137215
-45.746635 -43.98695 29.911366
-45.792854 -39.721676 20.80327
-45.482899 -40.225533 22.001944
-44.4814 -30.966024 25.641151
-41.81591 -37.887798 24.162775
-49.150509 -41.4977 22.611736
-38.41003 -42.947552 31.423256
-44.406109 -37.887798 21.843281
-38.084713 -40.729256 31.42326
-45.482903 -45.689926 21.633646
-43.835648 -30.870367 30.734598
-45.482899 -45.974243 24.57147
-44.4814 -30.848059 25.943295
-45.995201 -38.970978 23.352127
-45.482899 -46.025078 26.454842
-44.4814 -31.775677 24.281738
-45.502499 -36.650333 23.601278
-45.482899 -41.607475 26.129665
-44.725349 -30.240101 25.043894
-45.482903 -44.338074 27.952
-40.778843 -34.88168 30.7346
-45.367096 -24.250088 29.2166
-38.46946 -33.995602 30.7346
-45.482903 -44.004662 28.125698
-45.995201 -48.433788 27.216202
-39.381023 -37.887794 16.515959
-44.4814 -33.151314 24.380226
-39.216362 -43.084328 31.423248
-45.86573 -45.073944 31.935499
-43.897999 -38.017082 30.887796
-48.750458 -43.274235 23.3855
-46.057411 -46.058212 23.3855
-48.373669 -31.784803 23.315739
-45.482899 -44.038696 23.416193
-44.65807 -27.780624 29.2166
-45.995201 -43.742222 31.019995
-45.482899 -42.335213 27.741692
-38.988655 -37.887798 28.962507
-44.4814 -33.632118 26.089052
-46.706543 -33.051098 22.843498
-39.379589 -34.714138 30.7346
-45.482899 -43.029827 28.762726
-44.53936 -36.235001 26.749275
-45.178482 -32.644733 29.216602
-47.522602 -40.383591 23.3855
-47.080227 -37.472267 22.8435
-42.4189 -39.171001 31.935497
-39.466671 -35.559456 30.7346
-44.4814 -36.257072 28.031454
-45.995201 -41.195625 31.73275
-40.784412 -37.887798 29.816961
-43.236801 -36.324482 30.739401
-44.01334 -25.282675 29.216599
-45.21447 -34.620739 23.917999
-44.4814 -35.514999 27.149029
-40.640827 -37.887798 27.534458
-45.071194 -39.6721 23.168728
-45.510315 -37.887798 26.990667
-45.692249 -47.704491 28.056253
-40.460869 -37.887798 30.983862
-42.684921 -46.079113 31.42321
-39.350601 -37.887798 18.166252
-41.624691 -46.577679 31.423222
-44.762077 -25.44235 29.2166
-45.482899 -41.662949 20.612328
-44.4814 -31.069241 29.129473
-44.779167 -34.670658 29.216599
-45.921371 -47.825958 25.336458
-43.824001 -48.303719 31.935499
-48.481285 -39.696297 23.486919
-42.77774 -39.599895 31.935499
-45.482895 -44.797852 29.023695
-43.684685 -37.887798 21.099348
-46.922535 -35.137516 22.8435
-44.441299 -29.879616 23.553341
-46.5854 -36.02586 23.213638
-44.4814 -33.152519 24.664883
-44.4814 -35.509872 27.320957
-45.186249 -33.249737 22.674
-45.995201 -38.645676 19.113596
-38.094028 -46.500916 31.42326
-45.482899 -43.633926 22.789104
-43.545372 -43.353889 31.437534
-44.592201 -33.919029 23.278362
-44.635712 -37.861771 29.2166
-49.440327 -41.4977 23.172499
-37.860237 -44.962677 31.423264
-46.184799 -38.165657 21.067352
-40.927944 -42.405628 31.423227
-45.215916 -37.592972 22.674
-45.407799 -31.50771 30.129547
-46.197426 -45.756798 23.3855
-39.22731 -30.240101 30.848701
-45.805817 -46.290894 31.935499
-43.243587 -41.855911 31.423204
-42.004967 -37.887798 27.549101
-45.995201 -38.436317 24.501209
-43.897999 -27.278095 30.215508
-38.902504 -37.887798 20.089418
-47.127106 -33.357346 22.921698
-41.258373 -37.887794 17.23155
-45.121319 -40.690765 23.3855
-47.000114 -39.6721 19.606236
-45.482903 -43.28138 28.750818
-38.455303 -37.887798 22.853109
-39.831287 -37.887798 17.560631
-45.285389 -25.102678 29.2166
-45.482899 -41.371136 23.902939
-43.259396 -39.449612 31.935499
-45.995201 -46.707329 31.637053
-43.897995 -33.258915 30.310345
-43.684273 -42.904633 31.615746
-40.377609 -40.277763 31.423237
-47.127102 -38.502846 23.007956
-44.4814 -34.159821 27.343164
-45.482899 -43.742165 24.284519
-44.592201 -33.394115 23.483856
-45.550003 -29.489702 22.888569
-41.047695 -47.924507 31.935501
-45.995201 -38.367043 21.145828
-41.515285 -37.887798 28.914429
-45.995201 -43.692413 31.863205
-38.750038 -43.452919 31.423252
-39.078018 -37.887798 24.199877
-50.01498 -33.228802 23.306862
-43.897999 -33.421253 30.209339
-45.995201 -40.524025 31.287834
-45.482899 -45.227062 25.173761
-45.482899 -40.173134 28.596764
-45.482899 -43.087429 27.571484
-44.676636 -41.687813 31.935501
-44.4814 -32.590527 28.580345
-44.4814 -33.083931 25.700771
-38.747047 -43.22979 31.423252
-42.811264 -37.887798 28.95274
-44.292637 -31.306154 29.216599
-44.201252 -37.887798 28.558912
-45.995201 -38.706253 19.781137
-44.7579 -30.469318 27.40604
-43.431995 -37.887798 28.38665
-47.490288 -39.6721 19.2805
-44.782173 -30.808262 29.2166
-45.995201 -48.242168 26.627632
-43.897999 -28.055687 31.336819
-48.243202 -41.018623 21.788563
-39.212917 -46.939697 31.423248
-44.142372 -30.032444 29.216602
-46.118805 -39.6721 21.322708
-44.4814 -32.441853 24.335077
-47.656418 -31.318398 23.2083
-37.821125 -37.887798 25.132908
-45.995201 -39.036369 24.22191
-45.482899 -44.306229 26.719891
-42.726238 -37.887802 26.680918
-44.399944 -33.980644 31.382999
-45.235428 -30.656837 23.956566
-47.173969 -39.6721 19.290277
-45.995201 -38.715984 21.480478
-45.502499 -33.886566 22.694679
-41.345612 -38.724255 31.935499
-44.179737 -37.887798 29.185652
-45.482903 -43.369804 20.427662
-42.267624 -30.779243 30.7346
-45.033241 -26.400688 29.2166
-39.876781 -37.887798 24.731041
-40.610275 -37.887798 17.380287
-45.482899 -40.901684 18.29512
-48.884212 -41.506847 23.464266
-38.982796 -37.887798 30.168308
-44.005718 -33.79546 29.2166
-45.995201 -48.29525 22.540068
-39.231606 -37.887798 28.330503
-43.384277 -37.887802 28.621939
-47.97744 -31.545124 22.763599
-41.601692 -37.887798 26.21567
-43.146133 -45.229713 31.423206
-45.995201 -48.43705 28.696226
-45.842796 -39.6721 20.645063
-43.897995 -34.503479 29.303015
-45.914547 -39.6721 19.870811
-44.4814 -34.027527 26.943295
-44.434502 -36.360706 23.6847
-45.995201 -39.463623 21.991671
-43.897999 -31.028336 31.067799
-45.407799 -31.39035 29.999022
-47.882271 -31.841974 23.125931
-45.640915 -37.887798 24.493689
-45.749397 -37.887798 31.105583
-45.008667 -32.389915 23.917999
-44.500099 -30.40139 29.074236
-45.482899 -47.479488 26.316193
-45.125847 -35.850948 29.2166
-44.446251 -32.51255 31.382999
-48.59687 -32.048721 23.510799
-45.49868 -40.375874 29.7181
-38.714348 -43.736938 31.423252
-38.698135 -37.887798 22.820229
-44.898033 -37.887798 30.624886
-37.742195 -37.887798 22.216492
-39.326435 -37.887802 29.451687
-45.407799 -25.67918 29.78875
-45.482899 -42.575066 26.632092
-43.897999 -34.747681 29.555023
-42.694191 -37.887798 22.243629
-45.502499 -35.037979 22.770664
-45.282951 -33.512356 23.917999
-45.995201 -45.757248 30.574661
-44.436142 -37.993782 32.112392
-38.079659 -39.861534 31.469414
-46.200745 -39.6721 22.474499
-44.4814 -32.969318 28.897291
-39.28936 -31.263046 30.7346
-44.757896 -30.294096 24.407242
-37.699844 -37.887798 28.884602
-45.90937 -39.6721 22.280529
-39.203415 -37.887798 21.99275
-43.941692 -35.565174 29.2166
-45.482899 -44.269215 25.975874
-44.4814 -35.351791 24.644636
-45.482895 -41.135048 26.14959
-41.802151 -37.887802 27.152086
-43.654037 -38.004002 32.125099
-45.995201 -48.427673 27.041796
-43.897999 -26.002792 30.750324
-43.897999 -34.606487 30.397659
-45.482895 -41.289394 19.550814
-44.44062 -36.626301 26.915041
-46.099304 -40.765694 23.3855
-44.592201 -34.611526 22.931934
-37.820415 -37.887798 25.109797
-44.883308 -30.15062 31.382999
-45.626564 -48.09948 31.935499
-45.482895 -41.877048 29.087435
-45.482899 -42.4618 25.146864
-44.4814 -33.567085 26.331785
-44.4814 -34.590488 27.105412
-41.98214 -38.761154 31.935497
-45.995201 -43.412292 30.155687
-40.682327 -37.887802 22.620598
-43.124916 -37.887798 16.638498
-43.897999 -26.570255 30.30361
-38.109467 -41.034725 31.42326
-47.048477 -36.073311 22.8435
-43.16811 -40.038136 31.423204
-44.4814 -33.390839 27.397243
-45.482903 -41.013737 27.39806
-44.441631 -39.932323 31.935501
-38.471649 -37.887798 26.741159
-44.651031 -36.697464 29.216602
-45.708431 -48.202591 23.3855
-51.594612 -34.255978 23.458393
-42.259804 -37.887798 23.89703
-45.843712 -46.803467 29.98702
-38.954926 -30.411621 30.702299
-48.243198 -41.49287 21.011911
-43.992428 -36.565533 30.739401
-43.958092 -28.392267 31.382999
-44.4814 -31.299866 29.065758
-37.485844 -37.887798 22.09477
-43.897999 -38.107601 31.379173
-45.482899 -45.831631 22.338354
-43.897999 -28.901865 29.221237
-45.906544 -39.6614 28.723656
-45.482899 -43.107101 22.545784
-45.407799 -25.174923 29.739752
-38.438965 -43.113632 31.423256
-38.394264 -47.681488 31.589216
-45.482899 -41.388908 28.821609
-38.194916 -37.887798 23.187813
-45.502499 -34.667297 23.75771
-39.928406 -30.394575 30.9601
-45.995201 -39.392166 20.596092
-43.099129 -39.826958 31.534563
-46.585403 -36.40889 23.23634
-45.694344 -39.773899 29.744869
-43.188656 -40.187214 31.423204
-46.067974 -38.285385 26.52107
-39.878029 -30.240101 30.713425
-44.4814 -34.734848 25.204138
-45.082993 -41.784653 23.3855
-45.482903 -46.118092 27.66029
-46.645187 -36.804935 22.8435
-46.663071 -31.049171 22.797777
-45.407799 -29.160707 29.269199
-45.482899 -45.380543 21.3778
-39.944168 -41.888321 31.423239
-40.969135 -39.192768 31.935497
-46.184799 -38.034317 17.694414
-40.766739 -37.887798 18.475863
-46.773666 -40.532478 23.3855
-39.731834 -47.622192 31.477367
-45.407799 -27.243174 31.357357
-47.127106 -37.31601 23.122803
-45.482899 -44.868191 23.944519
-38.085217 -40.62587 31.42326
-45.7869 -48.46191 23.385502
-44.500099 -30.347977 27.374687
-38.355495 -44.997044 31.423256
-42.720806 -47.25631 31.423208
-42.801701 -41.293964 31.423208
-45.653435 -29.549858 23.035366
-44.4814 -32.970036 24.754286
-45.525219 -47.313839 23.3855
-45.482899 -39.896591 20.924282
-37.936287 -37.887798 25.817436
-45.407799 -27.029514 29.42746
-44.166241 -36.155666 29.216599
-45.407799 -24.528645 29.543839
-43.897999 -28.767096 31.098351
-42.384411 -37.887794 22.232088
-45.482899 -40.172062 23.361204
-45.407799 -26.028229 29.278641
-45.482895 -41.707474 25.606199
-45.613552 -39.672096 18.396908
-45.482899 -44.30138 20.432779
-44.4814 -35.235611 24.231565
-45.407799 -25.267378 30.225849
-45.482899 -45.211369 20.108795
-40.48439 -30.4445 30.702299
-45.482899 -46.263893 29.370909
-41.461044 -40.346947 31.423222
-44.067608 -37.936756 29.2166
-45.407799 -33.085518 29.349026
-45.482899 -44.339737 20.055618
-43.968697 -38.376671 31.935499
-38.420826 -37.887798 22.493757
-46.061249 -37.919395 19.482628
-45.995201 -44.973541 30.655975
-40.117733 -43.996243 31.423237
-45.482903 -42.630486 20.128506
-44.234123 -36.621464 31.383001
-46.11137 -30.667997 23.510799
-44.4814 -30.734777 26.519999
-45.746693 -39.746147 17.231949
-48.80975 -32.44508 23.131109
-42.985882 -37.887798 17.681198
-43.517521 -36.53677 30.739401
-45.909889 -47.142853 30.038605
-38.316666 -43.145096 31.423256
-44.540863 -35.25795 30.734602
-47.88089 -31.792002 22.763599
-45.482899 -45.385654 23.141674
-44.414574 -27.68479 29.216602
-47.127098 -34.266239 23.125553
-48.349045 -41.743984 23.642103
-45.407799 -24.681839 30.049397
-45.480499 -37.887798 17.998623
-50.006508 -32.846596 23.366795
-41.638573 -37.887794 22.498268
-49.609375 -41.4977 22.382885
-45.494179 -39.733337 23.634567
-44.853439 -37.887798 16.550854
-45.995201 -38.855438 16.811558
-45.482899 -40.778034 20.635431
-45.482899 -41.821693 27.623655
-41.718811 -30.240101 30.890282
-45.407799 -26.250572 30.244169
-40.454762 -47.612869 31.459774
-44.29155 -35.008942 31.382999
-46.115826 -37.945507 28.170164
-48.285599 -43.664543 23.385498
-45.719971 -45.125778 31.935501
-44.760696 -33.085609 31.382999
-42.062561 -37.887798 21.159115
-40.539818 -36.235001 30.941954
-49.989388 -33.058414 22.763599
-45.407799 -26.550665 30.26491
-45.407799 -36.403328 31.043867
-45.995201 -38.968384 21.886797
-39.557796 -43.512775 31.423243
-45.482895 -41.685841 21.866829
-45.482899 -42.535583 29.412287
-46.779274 -35.030598 23.430901
-45.699203 -47.472233 23.3855
-43.897999 -36.628498 30.22402
-45.214134 -33.844486 23.917999
-45.995201 -44.017403 30.136091
-45.995201 -38.484825 27.643026
-49.154732 -41.808037 23.397476
-45.086945 -37.887798 17.240191
-44.4814 -34.015411 24.068012
-37.823288 -44.928455 31.423264
-36.989574 -47.796902 31.806889
-46.176025 -37.974304 23.714329
-47.925598 -39.6721 22.633438
-45.716198 -43.38353 31.935497
-40.54055 -36.079506 30.734602
-45.482899 -40.800938 24.368366
-40.443489 -43.387306 31.423233
-43.897999 -25.194008 30.981335
-44.309929 -47.492943 31.935499
-41.211449 -37.887802 30.63937
-49.055557 -42.839489 23.3855
-45.192543 -31.520163 31.382998
-45.194061 -37.887798 24.081839
-46.68816 -42.839172 23.385502
-40.127453 -40.978306 31.423239
-38.82531 -39.478271 31.935499
-47.044003 -42.742588 23.3855
-44.367699 -36.518524 28.933544
-44.145435 -37.887798 28.672821
-44.625599 -36.311153 27.114273
-51.656464 -34.296204 22.863131
-44.592201 -35.864517 22.838291
-44.598892 -30.240101 25.136482
-50.000351 -41.497696 22.680897
-48.243195 -40.879669 21.674749
-44.4814 -33.134247 24.015846
-44.4814 -33.531384 28.051563
-45.482899 -42.264149 29.428711
-45.995201 -39.328148 22.370728
-41.313805 -36.552231 30.9972
-44.829281 -34.518021 22.674
-45.995201 -39.556137 25.089073
-46.845684 -46.790634 23.3855
-44.592201 -36.285366 23.623852
-51.229435 -33.685635 23.510799
-46.5854 -37.240788 23.266609
-40.975304 -39.935654 31.423229
-45.502499 -31.159901 23.474709
-45.502495 -37.652058 23.512421
-45.326515 -38.838326 31.935497
-45.995201 -39.414867 26.296066
-45.876743 -47.802299 26.851912
-47.942463 -31.556091 23.510799
-47.463196 -47.775288 23.3855
-45.407799 -37.60141 30.240454
-50.747684 -33.705254 23.297428
-42.098343 -33.897339 30.7346
-39.564064 -47.311241 31.423244
-48.256462 -44.059196 23.385498
-44.965767 -35.542271 22.674
-45.985584 -41.481125 31.935499
-49.717747 -41.610847 23.612387
-45.537952 -37.887798 21.497749
-41.686607 -30.631298 30.716503
-45.407799 -25.138071 30.754425
-43.519485 -46.526428 31.423201
-38.333313 -38.131897 32.125099
-45.482899 -42.551308 19.182465
-45.995201 -45.188416 31.211864
-41.906185 -30.6313 30.766415
-47.703285 -39.6721 22.825483
-47.369377 -40.889561 23.3855
-45.311096 -29.88933 22.763599
-45.482899 -40.42067 21.396063
-36.879036 -48.443199 31.935497
-44.977158 -37.887798 17.199421
-45.52161 -39.865479 23.558414
-42.67717 -43.218376 31.42321
-45.995201 -45.576042 30.343811
-44.346012 -31.176525 30.7346
-47.989101 -31.629862 23.510799
-43.897999 -27.169432 31.274971
-40.451778 -37.887798 17.749321
-43.897999 -31.810272 29.736025
-45.482899 -41.586155 18.684284
-45.045757 -39.6721 22.604179
-47.85664 -44.205864 23.3855
-40.035683 -41.948555 31.423237
-39.432095 -37.887798 29.969934
-39.495018 -37.887798 31.408428
-45.573097 -30.615902 23.402983
-45.407799 -34.792427 29.819962
-45.044735 -37.887798 19.539684
-45.156681 -37.887798 19.333826
-44.431572 -37.887802 17.456301
-38.123245 -40.835007 31.42326
-44.625599 -36.447144 26.400757
-45.482899 -41.314671 23.19693
-44.4814 -32.739006 24.883268
-51.029495 -33.511814 22.879534
-45.407799 -33.195374 31.008633
-38.437431 -37.887802 30.826958
-40.87775 -37.887798 17.502777
-42.698776 -33.746685 30.7346
-39.168037 -33.624073 30.7346
-44.4814 -33.477444 27.750706
-45.017036 -37.887798 24.20603
-46.795021 -43.747932 23.3855
-43.897995 -28.309284 30.484875
-45.407799 -34.483841 30.947756
-43.897999 -25.961596 31.380833
-45.482899 -39.962677 23.359091
-40.465504 -47.718784 31.659554
-45.407803 -33.450905 31.306992
-48.811832 -44.564056 23.385498
-43.897995 -26.78875 30.245651
-40.966232 -33.505173 30.7346
-46.570663 -48.098015 23.3855
-47.376595 -40.598984 23.3855
-45.482903 -42.411102 29.547222
-45.959476 -30.214924 23.19664
-37.72121 -39.277676 31.935497
-37.288177 -37.887798 20.791182
-44.266064 -36.575794 30.9972
-47.064816 -31.227194 22.8435
-37.567543 -37.887798 21.28336
-45.048016 -39.6721 16.796394
-45.746128 -46.57637 31.935501
-45.407799 -32.028179 30.563839
-37.761574 -47.242241 31.423264
-47.109028 -39.6721 20.742662
-44.570061 -43.285763 31.935499
-44.349228 -32.509834 30.7346
-45.502502 -36.608414 23.331207
-44.4814 -33.183861 29.078686
-42.142998 -37.887798 26.889271
-44.273888 -32.691448 30.7346
-38.025955 -44.941807 31.42326
-39.034668 -39.799133 31.587103
-45.063374 -36.235001 30.956696
-45.053127 -47.408016 31.935499
-45.576069 -43.027546 23.3855
-45.344917 -37.887802 29.6483
-45.482899 -41.834614 27.282221
-45.482899 -39.950645 23.221058
-45.995201 -38.346252 24.814318
-45.482899 -44.605713 22.406363
-44.952911 -36.879646 29.2166
-45.407799 -28.907385 30.153946
-45.294853 -44.167816 31.935499
-46.680096 -33.237225 22.8435
-45.482899 -46.966141 28.822536
-42.466492 -37.887798 22.946714
-43.897999 -37.321087 30.04307
-42.276024 -37.887798 31.842876
-39.728935 -33.551899 30.7346
-45.482895 -46.023132 26.397192
-44.732296 -33.042522 31.382999
-45.482903 -44.786789 19.478914
-36.989109 -37.887798 19.105021
-46.298012 -30.811785 23.323875
-45.482899 -42.041534 24.032303
-49.475697 -32.501423 23.00568
-47.586948 -31.633343 23.510799
-38.673748 -37.887798 19.396547
-45.482899 -46.084526 27.174669
-45.995201 -39.566872 19.939869
-38.629818 -48.477989 31.935499
-45.482895 -43.438927 27.436691
-44.261948 -40.678638 31.935499
-44.213799 -37.887798 21.109241
-44.409477 -36.235001 28.622496
-45.407799 -28.823288 30.146957
-45.407799 -35.676704 29.43404
-39.718185 -34.565247 30.7346
-39.401482 -37.887794 16.573433
-39.750889 -37.887798 16.921223
-45.995201 -38.346062 22.969624
-38.877838 -37.887798 20.953896
-40.99321 -43.802849 31.423229
-37.416382 -37.887802 17.779339
-45.175919 -36.189011 23.917999
-39.449493 -37.887798 24.384785
-38.578018 -37.887798 28.472389
-45.482895 -44.923668 28.537678
-41.159386 -37.887798 25.57505
-42.63179 -37.887798 29.615986
-45.711555 -37.887798 24.867384
-39.362755 -37.887798 23.849752
-45.239754 -31.063787 23.917999
-48.172348 -32.030598 23.085342
-47.298748 -42.635674 23.3855
-41.097542 -39.898624 31.423229
-45.363815 -31.788475 22.674
-43.868469 -45.856705 31.852066
-44.4814 -33.530396 26.525362
-39.804962 -37.887798 23.672911
-46.5854 -37.523319 23.023922
-45.150101 -39.672096 21.11558
-38.378021 -38.772099 31.935499
-45.286221 -37.393776 23.917999
-44.592201 -34.644787 22.822994
-45.407799 -27.604813 30.22736
-46.242996 -39.6721 17.653084
-45.497799 -30.614689 22.602835
-45.482899 -45.548729 20.504723
-45.752975 -37.887802 20.526976
-45.374886 -37.887798 25.144264
-38.998688 -38.264198 32.05257
-37.31469 -37.887798 17.797138
-45.377556 -31.036615 29.2166
-48.243202 -41.43322 22.918062
-44.873096 -30.276649 31.382999
-40.646687 -37.887798 21.866329
-45.544075 -39.853565 28.08392
-45.132729 -29.839256 23.474445
-41.753777 -30.6313 30.778172
-44.001122 -43.43866 31.935497
-45.995201 -39.423401 28.836725
-44.4814 -32.134369 25.330114
-44.592201 -32.557869 23.741985
-44.728188 -34.290211 29.216599
-40.962959 -37.887794 30.521049
-38.979088 -36.235001 30.777426
-44.975677 -30.274071 22.5238
-45.407799 -37.688999 31.295595
-45.482903 -44.542835 26.102274
-45.482899 -41.018471 26.675446
-45.358799 -36.710728 23.917999
-45.995201 -38.509186 27.371008
-45.658474 -39.792919 21.33428
-47.043396 -47.132004 23.3855
-43.347633 -37.887798 24.603405
-50.123264 -41.497704 23.218323
-43.998535 -25.555033 29.2166
-43.897999 -32.980328 29.672121
-45.482895 -40.914021 26.853802
-47.332893 -40.9487 23.3855
-46.130737 -37.952641 30.267797
-40.532959 -45.670486 31.423233
-45.995201 -38.821899 17.055046
-44.319363 -25.835205 29.216599
-46.076569 -39.6721 18.446743
-45.355984 -41.32243 31.935499
-44.034599 -32.42701 29.2166
-38.059727 -38.594456 31.935499
-40.632484 -30.443092 30.702299
-45.995201 -39.425098 18.098429
-45.995201 -43.443573 30.540415
-43.547295 -37.887798 18.489763
-45.482899 -43.497269 29.133013
-53.596188 -35.557537 23.297379
-44.4814 -35.137695 27.985844
-45.92717 -39.650463 18.171488
-42.332436 -39.614975 31.934416
-45.482899 -41.590324 27.273312
-45.995201 -46.661068 30.343838
-40.23661 -48.377373 31.935501
-46.562775 -45.517181 23.3855
-44.4814 -31.200466 23.657925
-45.208954 -31.556616 31.382999
-46.585403 -39.568882 23.317261
-43.234657 -37.974106 32.115921
-44.757904 -30.34169 28.714348
-45.482899 -46.361702 28.342842
-44.4814 -35.124905 23.718174
-50.207924 -33.140759 22.763599
-45.482895 -42.859306 28.669182
-40.113472 -43.104836 31.423239
-45.174946 -35.298649 29.2166
-41.519424 -37.887798 19.88665
-45.995201 -39.228161 31.779152
-45.729248 -39.755394 16.678694
-44.061695 -37.887798 22.800465
-49.819759 -32.725155 23.175316
-45.995201 -48.159615 24.513119
-43.897999 -32.724335 30.167171
-42.017712 -37.887798 19.415257
-40.823605 -35.859791 30.7346
-43.941589 -37.887798 20.153126
-45.502499 -33.420403 23.483109
-42.714546 -30.6313 30.869719
-43.458145 -47.710304 31.643522
-45.482899 -43.749294 20.029903
-45.482899 -41.862591 26.775059
-45.482899 -47.028244 20.921146
-42.509197 -37.887794 31.034498
-44.799419 -31.336264 30.7346
-45.980125 -37.887798 19.447815
-40.286846 -41.079857 31.423237
-45.482899 -43.844521 19.912319
-49.020378 -32.573952 22.763599
-44.891811 -37.806595 22.674
-45.482899 -42.407745 26.46455
-47.127098 -31.994806 23.041895
-37.036278 -46.824181 31.423273
-44.4814 -30.998661 24.376101
-44.975227 -37.887798 17.489019
-44.7579 -30.576838 29.26247
-43.485847 -37.887798 16.434219
-43.897999 -26.164894 29.397705
-45.482899 -45.771286 28.626389
-44.079021 -38.172165 32.121422
-42.513374 -37.887798 20.911245
-37.791862 -37.887798 22.13888
-45.482895 -42.539459 25.763214
-42.534809 -44.638084 31.42321
-41.567276 -35.371147 30.7346
-45.995201 -48.106552 26.625488
-45.482899 -40.352592 29.446945
-47.852955 -45.298065 23.385498
-45.701782 -47.709538 29.75342
-44.4814 -31.255978 28.76368
-44.4814 -32.419441 26.288286
-45.482899 -45.341927 26.497557
-43.70359 -41.068905 31.64053
-45.482895 -41.789436 18.74115
-45.407799 -30.208076 30.466503
-43.505585 -37.887798 26.254063
-46.348564 -43.949432 23.385498
-45.407799 -27.811279 31.141685
-41.490795 -35.227509 30.7346
-44.500099 -30.243105 26.126753
-50.398201 -43.058701 23.3855
-45.00132 -28.526508 29.2166
-45.933052 -44.463989 23.3855
-45.098721 -35.313461 23.917999
-43.897999 -34.294933 31.379576
-44.333447 -37.887798 26.648319
-44.523674 -36.626301 26.158194
-37.760155 -37.887798 29.062202
-45.482899 -40.274624 23.826384
-49.914806 -33.033794 23.510799
-45.407799 -32.883751 30.445169
-48.38728 -39.968212 22.420296
-45.407799 -25.887501 30.548717
-46.104927 -38.267708 16.451834
-38.832043 -37.887802 21.23377
-44.240177 -36.266068 30.739401
-43.17865 -37.887798 25.753693
-44.544956 -36.626301 24.337276
-43.897995 -36.422859 29.25736
-41.945179 -48.417511 31.935499
-45.995201 -38.644741 17.43408
-45.995201 -38.889282 16.925905
-45.482903 -41.24934 17.704367
-45.482899 -46.921402 22.76771
-38.966812 -37.887798 24.306339
-40.694157 -47.432972 31.423233
-45.995201 -44.23822 30.365648
-45.768303 -39.734688 22.571186
-40.136261 -47.14006 31.423237
-39.006805 -45.402363 31.42325
-45.407799 -31.544371 30.084391
-39.55085 -37.887798 16.315392
-44.937759 -34.015316 31.382999
-47.021126 -36.613922 23.430901
-45.380192 -37.919388 23.917997
-53.5877 -35.175339 23.436377
-45.826195 -39.6721 17.308998
-40.061169 -34.142265 30.734598
-45.995201 -38.519295 17.90196
-40.140236 -37.887798 17.393635
-43.385551 -39.631901 31.902485
-45.482899 -42.142864 22.889309
-45.111103 -35.061989 30.7346
-40.521049 -39.52354 31.935499
-44.600716 -37.887798 23.94899
-44.866852 -36.422173 22.674
-45.995197 -39.601288 16.971022
-48.243198 -40.114174 19.805101
-49.123108 -44.013794 23.385502
-44.907539 -37.887798 31.461338
-46.885914 -43.26442 23.385498
-45.603172 -40.790546 29.799545
-45.257023 -28.055206 29.216602
-39.704384 -47.74704 31.712851
-42.554939 -37.887798 21.583221
-40.509716 -37.887798 31.697067
-40.779316 -37.887798 20.251612
-47.813519 -31.420555 23.381401
-42.377262 -37.887798 31.851311
-43.429016 -39.504963 31.935499
-42.833099 -40.78352 31.423208
-45.995201 -38.690903 26.179279
-41.077705 -37.887798 26.161261
-45.502499 -37.386543 23.901281
-40.717899 -42.032112 31.423231
-44.4814 -34.521812 24.602585
-37.163486 -37.887798 19.257296
-38.517746 -41.795097 31.423254
-40.561596 -37.887798 20.258362
-43.898003 -29.442228 29.66946
-45.630295 -37.887798 17.26919
-44.294846 -37.887798 17.234243
-44.895535 -34.829208 29.2166
-44.457474 -24.832554 29.216599
-45.482903 -44.628784 28.227333
-45.995201 -39.573711 18.433601
-46.618469 -45.879223 23.3855
-45.482903 -44.456032 19.29813
-44.73867 -38.251747 32.071022
-45.995201 -43.016293 31.402061
-44.546043 -37.887798 18.32304
-45.482899 -41.634613 20.533165
-45.407799 -29.536867 30.73061
-45.813454 -39.710754 26.705965
-45.482899 -41.310532 23.760098
-45.482899 -46.004997 20.965696
-46.571114 -40.002769 23.385502
-39.660149 -33.361786 30.7346
-45.267284 -39.688789 23.529186
-45.482899 -42.039936 23.62043
-41.079144 -37.887798 17.64238
-43.897999 -34.001541 30.173782
-43.605381 -45.26078 31.514528
-44.476185 -31.117813 30.7346
-44.367699 -36.249474 24.858654
-43.236904 -37.887798 16.879667
-47.084751 -37.334358 22.8435
-45.482903 -41.321983 23.16634
-45.502499 -30.950907 23.894741
-44.4814 -34.723236 24.571732
-43.897995 -33.403095 29.477024
-45.407799 -34.940964 30.469715
-43.670906 -37.887798 23.154686
-45.482899 -44.477249 27.056915
-40.447807 -42.906078 31.423235
-40.629501 -37.887802 16.046656
-45.334526 -33.783386 22.674
-42.918125 -47.772213 31.7603
-51.957859 -34.492195 23.472845
-38.485008 -37.887798 20.24486
-43.132595 -41.547771 31.423206
-40.180565 -46.092804 31.423235
-45.502499 -38.033237 22.816845
-51.752098 -34.047424 23.510799
-45.482899 -45.228889 24.088449
-38.140465 -37.887798 26.935059
-45.482899 -42.748592 29.350529
-40.53788 -36.235001 30.739979
-47.112038 -32.367577 23.430901
-45.995201 -48.294167 28.747311
-48.546013 -41.4977 20.823429
-44.269852 -25.406509 31.382999
-44.7579 -30.258181 25.346302
-45.482899 -43.706337 24.396793
-45.407799 -28.403156 30.505966
-45.856064 -42.432404 23.3855
