# .PCD v0.7 - Point Cloud Data file format
VERSION 0.7
FIELDS x y z
SIZE 4 4 4
TYPE F F F
COUNT 1 1 1
WIDTH 1521
HEIGHT 1
VIEWPOINT 0 0 0 1 0 0 0
POINTS 1521
DATA ascii
24.589064 -26.462835 39.752499
39.24749 -25.639101 39.704102
27.723211 -43.695717 39.052959
25.399206 -32.326149 39.752495
23.911779 -46.516079 39.047836
22.410301 -45.395344 39.045818
29.042629 -35.762516 39.752537
43.365784 -44.377548 39.07399
40.039051 -46.534088 39.069519
40.858513 -42.877426 39.070618
35.429604 -32.037918 39.752602
27.929192 -26.274235 39.752533
30.594603 -24.860285 39.752552
39.296928 -23.775534 39.959
41.634197 -33.46735 39.752575
35.213692 -25.99921 39.704102
43.501434 -42.169495 39.074169
30.917192 -48.22171 39.057255
26.246626 -31.430876 39.752506
40.47776 -26.884777 39.959
39.246078 -45.347603 39.068451
42.136269 -31.788704 39.843437
40.65284 -27.163166 39.704102
35.106792 -38.359901 39.272724
32.538223 -36.66621 39.752522
32.433552 -38.751358 39.059292
39.61694 -21.813717 39.959
36.848278 -45.587151 39.065228
32.138386 -26.69619 39.752563
28.037863 -41.224442 39.053383
30.796738 -29.263659 39.752571
36.201565 -27.491428 39.704102
30.568758 -43.167 39.056786
32.95443 -42.212341 39.05999
29.536573 -47.215828 39.055401
44.789772 -24.502268 39.959
24.145538 -26.665096 39.752499
39.688499 -39.338032 39.069046
26.140255 -27.970367 39.752506
30.712158 -36.55344 39.752522
43.349724 -37.603676 39.752502
31.627956 -46.313919 39.058208
35.970329 -26.725117 39.704102
43.995445 -34.196117 39.752563
43.258366 -36.049759 39.752529
25.639061 -29.195614 39.752499
31.078112 -38.729004 39.057472
34.535904 -39.222534 39.062119
38.466007 -41.824112 39.067406
30.555214 -42.545105 39.05677
32.734379 -41.931122 39.0597
24.85634 -48.199654 39.049107
32.175259 -31.171192 39.75259
40.621651 -36.980469 39.752518
27.581091 -43.534142 39.052769
29.215294 -33.376659 39.752548
36.626373 -21.989466 39.704102
33.328758 -28.402668 39.959
26.684795 -27.154327 39.752514
36.107571 -32.404198 39.752594
40.149555 -47.488518 39.069664
33.471783 -32.358418 39.752594
28.939203 -24.558096 39.752548
29.081059 -22.281509 39.752533
25.04203 -47.360317 39.049358
36.944519 -26.024099 39.704102
37.878712 -32.791512 39.752586
43.537758 -26.29435 39.704102
28.370445 -27.562143 39.752537
34.461197 -42.002731 39.062019
24.720184 -30.399488 39.752499
36.078598 -36.033867 39.752533
28.887474 -27.575411 39.752544
39.926918 -37.316277 39.75251
40.575798 -26.325272 39.843403
41.297604 -22.997322 39.704102
22.222004 -40.795349 39.045563
44.020649 -25.998859 39.704102
35.317364 -41.582222 39.063168
35.880913 -42.390316 39.063927
37.818336 -39.89819 39.066532
39.86554 -41.974869 39.069283
35.694447 -36.441479 39.752525
22.922531 -39.622669 39.046505
30.336952 -26.069113 39.75256
24.318371 -23.813105 39.752499
24.418407 -39.581028 39.048519
24.089767 -34.841244 39.752499
39.872589 -43.868713 39.069294
23.210888 -43.84726 39.046898
32.750259 -40.718449 39.059715
32.889732 -31.170135 39.752598
23.465933 -35.635139 39.752499
25.667379 -46.591545 39.050198
26.374172 -41.203262 39.051147
27.336308 -42.071075 39.052444
26.372002 -30.063236 39.75251
31.18125 -41.115593 39.05761
33.761635 -29.698616 39.959
33.846798 -39.757771 39.061195
31.51965 -35.020523 39.752548
42.027534 -38.886169 39.072193
36.022194 -34.447468 39.752563
25.486872 -25.540174 39.752499
36.929726 -25.439688 39.704102
31.094557 -47.977291 39.057491
41.397495 -38.626003 39.071342
28.862427 -27.17507 39.752544
30.536861 -25.895134 39.75256
34.013298 -26.01668 39.714546
35.043797 -46.595406 39.062801
41.8256 -33.886902 39.752567
24.154228 -44.599445 39.048164
42.412018 -31.062687 39.959
33.966007 -23.538071 39.80946
25.010843 -33.603935 39.752499
26.455761 -46.198067 39.051258
40.465889 -26.365498 39.959
32.675915 -39.33387 39.059616
39.937214 -29.962168 39.959
23.69832 -29.214308 39.752499
35.742615 -31.471434 39.959
32.7285 -37.508114 39.75251
41.243896 -43.931496 39.071136
37.716324 -31.047356 39.959
30.925728 -32.578869 39.752575
37.089539 -29.785725 39.704102
31.5723 -48.340488 39.058136
42.618721 -37.598686 39.752506
24.89398 -29.840292 39.752499
40.27541 -23.697994 39.959
39.390446 -27.52593 39.833549
24.034122 -44.639881 39.048004
25.096001 -46.313347 39.049431
37.960575 -32.203667 39.752594
23.484022 -32.637032 39.752499
40.79287 -23.609873 39.840153
41.288826 -45.624165 39.071198
28.742128 -46.944481 39.054329
30.228689 -46.730862 39.056328
34.531063 -30.638334 39.704102
40.748264 -38.154472 39.547417
38.979542 -44.723709 39.068092
26.217506 -32.066917 39.752506
40.951481 -39.07719 39.07074
38.272968 -22.627243 39.704102
26.729935 -40.631359 39.051628
24.057354 -29.170792 39.752499
29.322819 -42.438103 39.055111
35.476761 -24.17396 39.959
38.186687 -33.444206 39.752575
36.255985 -27.449396 39.704102
35.303135 -45.271736 39.063152
37.210579 -41.588261 39.065712
40.582226 -28.865173 39.83049
25.885662 -38.43998 39.165649
24.829891 -46.197048 39.049072
34.799183 -45.773682 39.062473
40.49107 -32.853561 39.752586
28.175329 -45.463013 39.05357
38.658787 -30.058123 39.704102
33.115822 -36.951267 39.752518
36.014587 -25.925375 39.704102
23.13653 -47.092297 39.046795
25.020447 -45.37067 39.049328
32.623585 -31.182236 39.752598
40.183369 -46.227127 39.06971
22.651623 -34.517487 39.752499
42.694427 -46.491123 39.073086
32.349506 -33.471252 39.752579
32.139999 -38.559181 39.058899
34.159817 -45.524704 39.061615
23.296196 -36.901436 39.752499
24.688574 -36.208061 39.752499
42.77116 -34.943604 39.752548
24.474936 -32.129669 39.752499
28.65148 -43.051849 39.054207
43.402706 -31.966017 39.752602
44.917751 -25.308784 39.704102
33.311348 -30.258547 39.959
25.570042 -41.410431 39.050064
33.017567 -36.19648 39.752533
35.232338 -22.40991 39.704102
30.901676 -25.945786 39.75256
39.970688 -24.079105 39.959
43.919556 -27.748882 39.704102
34.572166 -40.303947 39.062172
41.281494 -34.175949 39.752563
30.620956 -42.586983 39.056854
25.443335 -28.673063 39.752495
34.827385 -39.560406 39.062511
27.234261 -34.877819 39.752522
29.636372 -40.783669 39.055534
39.937641 -40.157284 39.069382
33.809669 -30.139423 39.959
37.857765 -34.589825 39.752552
23.591997 -41.977081 39.047409
34.651791 -27.546131 39.704102
34.910423 -24.068287 39.959
37.456467 -35.343857 39.752544
29.959141 -45.042931 39.055965
26.877911 -42.995979 39.051826
29.177593 -33.594486 39.752548
39.267712 -39.994617 39.068481
23.837994 -44.941833 39.047737
31.69663 -46.062893 39.058304
23.108625 -42.759254 39.046757
28.702793 -37.279961 39.75251
23.333302 -34.143414 39.752499
23.210548 -45.783012 39.046894
42.937027 -45.93185 39.07341
33.30542 -23.800758 39.959
38.717018 -31.961821 39.752602
23.89879 -29.083765 39.752499
34.994854 -42.693626 39.062737
30.042479 -36.982269 39.752518
37.256844 -28.365549 39.704102
38.364326 -24.392323 39.959
35.344276 -33.823963 39.752571
29.428595 -34.195286 39.752548
27.570364 -42.635002 39.052757
35.129215 -47.096867 39.062916
31.332621 -45.953861 39.057816
24.436462 -36.978733 39.752502
31.317108 -29.60924 39.752579
30.81867 -46.009869 39.057121
42.271095 -29.988846 39.704102
41.33086 -29.428368 39.704102
37.000519 -47.429756 39.06543
22.118252 -41.968651 39.045425
28.704605 -33.60017 39.752541
33.542023 -32.284508 39.752594
22.37443 -38.922398 39.045776
23.970125 -29.638512 39.752495
21.72007 -47.506435 39.044891
39.199535 -33.59721 39.752575
42.515411 -34.78672 39.752556
34.034328 -34.442642 39.752556
23.112411 -37.813026 39.752499
31.803308 -30.69916 39.752586
35.818298 -25.428448 39.704102
26.681187 -26.373383 39.752514
30.252457 -48.419136 39.056362
33.401749 -26.298603 39.959
23.964664 -34.731026 39.752499
36.193848 -38.576412 39.064346
23.674644 -24.223045 39.752495
40.541664 -25.707392 39.911903
38.992546 -40.537304 39.068108
26.356514 -41.160103 39.051125
38.920139 -47.653156 39.068008
23.472075 -35.014664 39.752499
27.970596 -35.260201 39.752533
35.751724 -48.488029 39.063755
28.22147 -31.38583 39.752533
26.012304 -46.863884 39.050659
23.113132 -29.203606 39.752499
41.783119 -23.602915 39.82748
37.018742 -29.519915 39.704102
23.235037 -47.139931 39.046928
28.828598 -33.873257 39.752544
27.829145 -22.641373 39.752529
40.693913 -24.239731 39.959
24.835089 -37.138012 39.752499
38.990124 -40.20842 39.068104
37.025822 -22.593697 39.704102
26.590052 -37.314671 39.752506
37.040459 -43.198158 39.065483
41.221024 -23.402714 39.704102
28.691542 -29.365263 39.752544
32.379307 -28.199778 39.752571
35.208092 -43.453873 39.063026
43.187439 -46.294846 39.073746
37.949451 -28.686274 39.704102
23.16984 -35.526939 39.752495
31.679928 -33.651558 39.752571
27.124432 -46.897614 39.052158
38.718021 -44.208183 39.067738
43.359726 -24.06403 39.959
23.130554 -38.187595 39.503128
33.002884 -42.48719 39.060059
38.317757 -30.869469 39.760529
41.231541 -36.19519 39.752529
28.227354 -42.092197 39.053635
37.631138 -40.321182 39.06628
31.900459 -47.289745 39.058578
40.039272 -41.873173 39.069515
42.873596 -39.149139 39.073326
44.376514 -31.001106 39.959
39.226105 -25.888813 39.704102
41.953506 -21.954861 39.704102
40.049538 -38.12841 39.582264
34.405148 -37.666611 39.752502
24.571535 -23.323492 39.752499
22.853846 -27.550043 39.752499
40.395828 -40.695995 39.069996
37.47694 -39.24905 39.066071
43.658199 -27.194527 39.704102
24.533991 -46.590446 39.048676
37.804268 -38.490131 39.098587
41.646164 -22.582104 39.704102
30.422474 -37.826622 39.752502
23.306593 -30.852228 39.752499
39.496498 -26.994083 39.959
24.604372 -31.231709 39.752499
35.020805 -25.010298 39.704102
24.665525 -25.912483 39.752502
30.292629 -37.973103 39.752499
39.598083 -48.458141 39.06892
27.412308 -28.72044 39.752525
35.227341 -22.94455 39.704102
43.327721 -31.822958 39.82383
35.26498 -36.918297 39.752518
23.477364 -34.289761 39.752499
34.720898 -43.129017 39.06237
29.804792 -24.39901 39.752548
25.382887 -35.416527 39.752499
27.190641 -22.873072 39.752522
29.602581 -46.998772 39.055489
29.190397 -38.695305 39.054935
28.83213 -44.373642 39.054451
42.233295 -35.778427 39.752533
34.560093 -37.21653 39.75251
36.540535 -42.894394 39.064812
31.1115 -37.657494 39.752502
39.469017 -26.326391 39.959
38.882839 -30.892548 39.802578
43.056564 -41.740776 39.073574
24.86978 -25.366455 39.752495
43.463352 -32.660378 39.752586
32.191174 -47.196121 39.058971
23.818472 -45.049057 39.04771
32.916565 -27.661306 39.752571
42.987755 -36.448334 39.752525
26.243931 -42.123154 39.050972
41.90707 -27.211445 39.704102
22.274477 -37.838501 39.752495
28.277205 -28.218075 39.752537
23.192005 -23.128838 39.752499
38.044701 -42.177193 39.066837
31.284651 -43.909405 39.057747
41.607883 -22.180275 39.704102
27.020287 -34.532249 39.752518
29.856533 -41.640564 39.055828
42.565865 -38.000755 39.752499
36.951321 -34.512501 39.75256
37.375256 -30.548965 39.704102
36.810482 -39.706356 39.065174
23.968748 -42.300453 39.047913
22.485497 -31.02005 39.752499
31.888943 -25.807922 39.752563
34.669189 -24.221346 39.959
35.628742 -38.77755 39.063587
40.513065 -27.120274 39.959
42.496807 -45.090904 39.072823
42.593464 -39.634312 39.072948
27.239815 -29.860008 39.752522
27.186413 -41.745354 39.052238
40.124187 -43.908386 39.06963
37.622471 -44.869026 39.066269
36.617664 -33.115578 39.752583
36.225571 -38.228516 39.448406
29.123774 -25.813965 39.752552
34.740997 -36.538486 39.752525
23.595087 -32.169518 39.752499
22.750015 -38.234028 39.44104
32.399193 -22.16688 39.752533
28.987606 -24.831438 39.752544
38.625679 -24.940727 39.792053
39.400139 -28.482481 39.853027
45.063683 -24.805025 39.959
41.876572 -35.953812 39.752533
25.261303 -27.83897 39.752499
33.722755 -27.681429 39.959
26.0322 -39.003838 39.050686
42.841934 -43.383789 39.073288
42.215672 -23.84861 39.959
33.49752 -34.500751 39.75256
37.99572 -25.325529 39.704102
40.070084 -32.101273 39.752602
26.014219 -39.335171 39.050663
26.347519 -29.43597 39.75251
25.377361 -32.151165 39.752502
33.779953 -44.837963 39.061104
25.978212 -30.189316 39.752502
31.144606 -45.582958 39.057556
42.430874 -40.204449 39.072731
23.49905 -27.217808 39.752499
41.962765 -31.948273 39.752602
23.879459 -22.891237 39.752502
39.808914 -30.905403 39.959
37.561531 -47.896042 39.066185
31.451822 -29.286659 39.752579
33.746487 -34.33173 39.752563
37.913246 -30.928043 39.867256
36.738358 -22.901661 39.704102
44.28125 -28.72081 39.704102
27.947254 -45.55127 39.053265
22.678835 -43.956558 39.046181
36.680588 -22.631214 39.704102
40.014568 -42.946083 39.069481
23.777706 -29.636497 39.752499
34.805477 -26.180252 39.704102
25.208424 -30.664055 39.752499
36.011948 -24.73151 39.959
37.673908 -24.803766 39.959
35.613926 -22.689255 39.704102
34.161736 -23.442633 39.704102
31.273689 -28.112267 39.752575
37.428692 -28.770622 39.704102
31.672251 -23.128847 39.752541
25.636135 -28.680588 39.752495
39.184097 -42.714859 39.068367
42.19368 -35.386787 39.752544
23.29987 -39.677307 39.047016
36.051575 -42.563866 39.064156
31.297541 -41.378143 39.057766
43.177193 -28.014326 39.704102
24.40099 -24.935543 39.752499
41.746986 -45.921425 39.071812
24.925219 -43.227852 39.049198
43.884262 -33.772583 39.752571
34.645294 -31.461905 39.959
28.426174 -28.501114 39.752541
39.025295 -29.825912 39.704098
27.280361 -37.145725 39.752514
36.141872 -37.125896 39.752514
28.960825 -36.347355 39.752525
23.649773 -23.751961 39.752495
29.685551 -32.931786 39.752556
24.057608 -27.554167 39.752499
23.48892 -36.133423 39.752495
31.03166 -40.829926 39.057411
27.954273 -42.149712 39.053272
23.905998 -38.355801 39.27821
23.123547 -34.646313 39.752499
43.20594 -43.132271 39.073772
35.448723 -39.910858 39.063343
32.035362 -26.975101 39.752567
35.540241 -27.010239 39.704102
34.962475 -41.550476 39.062691
32.846382 -40.00074 39.059849
33.314793 -44.468651 39.060478
29.475014 -33.658192 39.752556
27.647463 -38.307652 39.342594
40.163387 -33.950474 39.752567
28.400564 -30.452377 39.752537
27.444923 -26.168629 39.752525
29.539028 -39.635269 39.055401
33.903465 -26.308289 39.934986
27.18948 -48.106243 39.052242
25.109928 -34.565895 39.752499
38.739548 -26.619793 39.704102
32.1726 -44.084629 39.058945
32.615967 -43.100227 39.05954
22.652008 -36.121979 39.752499
40.909863 -35.719063 39.752537
38.216709 -38.117973 39.596218
38.451805 -26.270866 39.704102
27.001617 -30.10129 39.752518
28.692722 -26.020176 39.752541
37.703773 -40.53019 39.066376
39.356224 -33.550011 39.752575
36.365211 -31.131035 39.959
23.13941 -27.294657 39.752499
38.929295 -39.718792 39.06802
38.657639 -27.015415 39.704102
32.035931 -34.010521 39.752563
39.507027 -41.803204 39.068802
29.957167 -25.132515 39.752556
41.797546 -26.509682 39.704102
41.891617 -32.946457 39.752586
29.501442 -40.508667 39.055351
24.898634 -43.418991 39.049164
27.919678 -33.280846 39.752533
35.276939 -33.487228 39.752579
36.960796 -23.611111 39.842411
29.833624 -44.422798 39.055798
32.078869 -36.459991 39.752522
24.555885 -38.184711 39.506977
39.429195 -28.101997 39.911385
23.161339 -42.995506 39.046829
35.416096 -38.262001 39.403629
28.496101 -26.243748 39.752541
43.758518 -34.700771 39.752556
33.976585 -33.93539 39.752563
25.960831 -28.44986 39.752502
37.161293 -26.111866 39.704102
28.341949 -25.081238 39.752537
24.410282 -26.126516 39.752499
22.11507 -46.110104 39.045422
33.624905 -33.160664 39.752583
22.585306 -43.465317 39.046055
35.841263 -46.221169 39.063873
26.401911 -34.325516 39.75251
43.62159 -39.97887 39.074333
34.145905 -45.3424 39.061596
27.639725 -39.927418 39.052845
28.497292 -33.989876 39.752537
34.789795 -26.845915 39.704102
42.39669 -40.478142 39.072685
41.707645 -38.03315 39.709641
41.331528 -40.413063 39.071259
40.301586 -47.524467 39.06987
40.678852 -46.368252 39.070377
41.157471 -31.471107 39.959
35.267967 -34.956833 39.752552
22.159508 -45.548531 39.045483
32.465782 -46.562965 39.059338
31.002934 -25.322618 39.752556
36.766838 -41.547844 39.065117
28.227615 -38.734627 39.053638
34.003258 -28.399231 39.734692
44.219215 -31.031818 39.959
41.807747 -40.672367 39.071896
27.791256 -24.468868 39.752529
34.407684 -23.441175 39.704102
31.27639 -29.925999 39.752579
44.4133 -30.44206 39.704102
29.706596 -30.058977 39.752556
36.133804 -23.486877 39.704102
31.288893 -46.690479 39.057755
26.089231 -28.726416 39.752506
26.843842 -43.630592 39.051781
33.450859 -33.732849 39.752571
34.989601 -25.668253 39.704102
42.77422 -27.205185 39.704102
39.555199 -33.952763 39.752567
35.766994 -34.300381 39.75256
37.93895 -42.843422 39.066692
27.847015 -27.609339 39.752529
40.971802 -33.047657 39.752583
23.170643 -37.031704 39.752499
34.473747 -47.415283 39.062031
27.123676 -47.455444 39.052158
43.033165 -27.717773 39.704102
30.948797 -43.520134 39.057297
28.029867 -32.810089 39.752533
32.937233 -45.738602 39.059971
24.791237 -23.375992 39.752499
25.150417 -38.043564 39.695717
42.840157 -34.060379 39.752567
28.541052 -41.783356 39.054062
30.002668 -40.697411 39.056023
43.637352 -32.13047 39.752598
42.230675 -24.660072 39.959
36.775223 -25.084194 39.704102
32.321613 -41.539734 39.059143
25.200594 -38.430874 39.177834
23.5527 -33.017765 39.752502
34.946114 -46.506836 39.062672
24.333897 -32.524017 39.752499
24.977491 -34.240242 39.752502
33.119621 -23.873791 39.865406
25.00421 -26.070724 39.752499
36.599304 -25.14233 39.704102
26.306671 -26.23172 39.75251
27.211609 -40.300385 39.052273
29.052071 -35.308319 39.752541
29.463362 -41.596207 39.055298
29.981567 -39.115055 39.056
24.330708 -38.986717 39.048401
27.229336 -27.661249 39.752522
29.12048 -23.619102 39.752541
29.29162 -26.815899 39.752548
32.517914 -25.812613 39.75256
26.927149 -41.039482 39.051895
29.015619 -28.718973 39.752548
31.29015 -37.824074 39.752502
43.98727 -27.999519 39.704102
32.055248 -22.531937 39.752537
41.677139 -30.756987 39.704102
40.525608 -45.84684 39.070171
31.248632 -46.395836 39.057701
23.195448 -26.038677 39.752499
25.523928 -30.93017 39.752499
26.717737 -36.059082 39.752514
29.934818 -31.859734 39.752556
41.294956 -39.094261 39.071205
38.346115 -32.212021 39.752598
35.342655 -27.632484 39.704102
27.063595 -24.774639 39.752518
37.909439 -40.887909 39.06665
35.403008 -32.447479 39.752594
33.903893 -37.771057 39.752502
30.34499 -30.663612 39.752563
28.866409 -29.22839 39.752544
34.166557 -32.373882 39.752594
41.238575 -36.256485 39.752529
39.53759 -41.04361 39.06884
27.863338 -29.805626 39.752529
42.11174 -22.750366 39.704102
36.522526 -44.11005 39.064789
42.864006 -31.157732 39.959
30.444979 -23.368656 39.752541
31.619381 -22.980114 39.752541
33.034645 -38.036591 39.705044
28.616005 -47.837524 39.054161
38.016663 -35.923763 39.752533
38.501804 -29.882198 39.704102
29.669247 -31.407106 39.752556
23.985504 -36.550194 39.752495
29.356916 -25.463747 39.752552
39.875759 -29.16049 39.959
35.209839 -24.757839 39.959
36.701607 -39.870209 39.065029
41.708469 -45.869751 39.071762
36.643486 -24.940495 39.792477
33.976791 -22.97574 39.787815
28.519733 -42.016197 39.054031
44.160736 -29.772324 39.704102
26.966471 -46.430237 39.051941
36.04277 -47.213375 39.064148
24.101576 -40.222427 39.048096
29.98056 -31.092602 39.75256
25.349096 -34.891808 39.752499
42.507496 -38.122196 39.590576
43.96069 -25.397324 39.704102
26.579102 -41.609859 39.051422
27.455336 -32.36311 39.752525
34.130959 -23.64694 39.907696
29.347105 -38.029591 39.714401
32.189434 -38.177483 39.516647
29.805353 -29.785538 39.752556
33.690506 -46.591915 39.060978
24.295994 -48.497349 39.048355
31.11031 -34.476974 39.752556
33.478897 -44.73262 39.060699
23.667545 -34.166412 39.752499
25.810925 -32.160332 39.752502
43.40884 -37.70578 39.752502
34.650082 -28.966652 39.704102
29.557892 -30.549736 39.752556
33.834633 -30.188519 39.959
41.436821 -38.061123 39.672237
26.145847 -27.528389 39.75251
38.468727 -22.623957 39.704102
31.631392 -29.759453 39.752583
38.009136 -38.998409 39.066784
30.439463 -37.673115 39.752502
32.432442 -24.006647 39.752544
36.585011 -32.905655 39.752586
40.698486 -41.789665 39.070404
29.389154 -47.399483 39.055199
38.621529 -33.372116 39.752579
31.822071 -34.942474 39.752548
24.21203 -26.474693 39.752499
27.547749 -33.347496 39.752525
38.740108 -41.759998 39.067772
26.775612 -45.782246 39.051685
43.596779 -41.50721 39.074299
34.338207 -46.836666 39.061852
35.625328 -44.747326 39.063583
24.358213 -42.965107 39.048439
36.978745 -35.849857 39.752537
36.753918 -27.670918 39.704102
33.328014 -25.927832 39.959
25.781271 -39.979675 39.05035
28.235399 -24.06786 39.752541
38.794044 -31.731657 39.876087
40.271435 -43.359703 39.069832
30.681892 -33.326942 39.752571
37.289188 -30.862263 39.747402
24.735537 -29.852341 39.752499
37.288338 -40.042934 39.065819
29.63254 -27.332481 39.752552
33.697346 -29.134136 39.959
23.656607 -45.582787 39.047493
34.179832 -26.306129 39.704102
43.562416 -32.317013 39.752594
25.941402 -31.093197 39.752502
37.587421 -34.085609 39.752563
43.347225 -36.697353 39.752518
26.80929 -43.966824 39.051735
39.858067 -45.63171 39.069275
37.799351 -34.733833 39.752552
29.891434 -24.953247 39.752556
32.8783 -41.690231 39.059891
33.61768 -32.19836 39.752598
37.705444 -48.399845 39.06638
36.587547 -39.50843 39.064873
31.516285 -31.904739 39.752579
40.552567 -21.446838 39.890022
29.327744 -25.785709 39.752552
40.395515 -27.999983 39.959
27.719341 -29.451851 39.752529
41.485489 -23.173956 39.704102
38.654945 -24.211487 39.959
24.594353 -31.233698 39.752499
23.162321 -25.997856 39.752499
28.332317 -26.255459 39.752537
25.520224 -30.162432 39.752499
27.340349 -34.539009 39.752525
37.189671 -33.947968 39.752567
26.065552 -28.670414 39.752502
33.911278 -23.683966 39.959
44.676533 -29.567305 39.704102
25.009537 -36.769478 39.752502
42.282589 -32.785049 39.752586
34.331806 -29.36068 39.704102
40.795902 -44.047302 39.070534
38.752697 -41.034519 39.067787
39.158237 -28.257944 39.704102
31.821741 -44.276855 39.058472
25.27376 -22.737984 39.752499
42.24173 -44.26973 39.072479
34.125244 -24.926746 39.817532
39.641285 -30.772087 39.959
22.093187 -39.604832 39.045395
42.536564 -37.716988 39.752502
41.91217 -41.632591 39.072033
33.426292 -31.249269 39.959
35.400455 -36.332104 39.752529
37.938141 -40.829662 39.066692
24.436922 -26.676113 39.752502
28.106348 -24.635971 39.752533
25.967524 -35.351173 39.752502
35.378815 -40.414558 39.063251
41.267529 -40.490765 39.071167
42.471981 -24.503006 39.959
40.342957 -33.578873 39.752575
41.836922 -30.146339 39.704102
41.949413 -42.272568 39.072086
43.171692 -45.381439 39.07373
24.476536 -46.668137 39.048595
33.165497 -23.424049 39.89167
40.898434 -47.458878 39.070671
27.152002 -25.536537 39.752518
24.38945 -41.819225 39.048477
24.835457 -35.633713 39.752499
35.277916 -45.712242 39.063118
30.035591 -25.099274 39.752552
24.20233 -30.273848 39.752499
38.558777 -41.545475 39.067524
26.024666 -39.675987 39.050678
30.359362 -38.106895 39.611031
41.702118 -40.369358 39.071751
42.205566 -44.38195 39.072426
34.023064 -33.024101 39.752583
32.777126 -29.842541 39.752586
33.353134 -27.090996 39.959
42.156204 -33.393822 39.752575
41.431793 -24.390856 39.959
39.93322 -35.610825 39.752541
41.97184 -35.707169 39.752533
21.937439 -46.884251 39.045185
40.918602 -24.929195 39.813065
26.881626 -31.180098 39.752518
31.569414 -44.501175 39.058128
22.061251 -48.420589 39.045349
30.516075 -24.184696 39.752548
24.609837 -39.142223 39.048779
23.349592 -26.010622 39.752499
31.142052 -28.201672 39.752575
34.939758 -27.386089 39.704102
26.68169 -39.766106 39.051559
34.641357 -32.586555 39.75259
25.482018 -26.62447 39.752499
28.046877 -33.56358 39.752533
23.030851 -24.818455 39.752499
41.331223 -32.95359 39.752583
27.039612 -44.399002 39.05204
36.055901 -44.072784 39.064163
42.0242 -44.705635 39.072186
25.728916 -28.629068 39.752502
38.480835 -41.628876 39.067421
41.933319 -28.172853 39.704102
38.15081 -40.029839 39.066978
33.469597 -28.356794 39.959
24.637262 -28.525928 39.752499
43.417488 -26.291813 39.704102
24.392895 -44.874481 39.048485
26.10685 -38.705994 39.050789
43.122604 -30.615446 39.704102
30.759346 -44.190521 39.057041
36.337906 -36.624107 39.752522
36.301163 -32.956566 39.752583
29.698961 -41.405045 39.055618
42.619904 -29.479534 39.704102
29.852474 -38.844475 39.055824
25.741699 -27.280754 39.752502
40.188454 -37.490334 39.752506
27.981716 -48.00779 39.053307
34.433769 -26.507965 39.704102
43.266891 -40.642567 39.073853
23.027733 -29.270737 39.752499
28.824287 -28.383795 39.752544
35.125679 -28.678089 39.704102
42.834538 -23.516397 39.704102
42.287045 -26.837036 39.704102
31.656693 -38.086197 39.63871
28.434971 -41.480682 39.053917
24.642414 -26.752386 39.752499
27.06044 -34.012421 39.752518
26.615469 -29.731834 39.752514
41.108994 -22.245508 39.704102
38.00309 -27.77795 39.704102
36.34584 -29.46843 39.704102
29.621374 -22.882931 39.752537
26.869778 -41.293861 39.051815
34.997158 -34.639549 39.752556
31.287338 -46.020267 39.057751
40.939579 -27.943169 39.704102
43.356823 -38.682732 39.073975
27.31633 -44.878681 39.052414
34.759941 -46.661072 39.06242
39.376942 -38.441566 39.163525
34.44894 -30.636974 39.704098
27.628641 -27.181717 39.752529
37.772408 -34.417694 39.752556
41.956036 -33.308765 39.752579
32.740875 -29.712006 39.752586
23.300293 -23.669907 39.752499
38.362495 -30.622305 39.704098
22.750351 -46.915192 39.046276
24.095612 -28.166237 39.752499
41.554661 -44.271832 39.071556
36.959068 -47.868977 39.065376
27.436005 -45.408348 39.052574
42.924606 -40.522083 39.073395
24.443048 -30.10778 39.752499
26.634045 -31.105942 39.752518
22.145964 -43.670135 39.045464
33.509575 -47.302067 39.060741
42.169567 -33.457779 39.752571
25.641575 -34.040878 39.752499
23.162756 -36.486427 39.752499
38.34338 -46.146198 39.067238
33.487045 -23.6045 39.959
22.507635 -38.648403 39.045952
32.472549 -38.048855 39.688641
34.714478 -42.891682 39.062359
40.837929 -30.506691 39.704098
43.840515 -30.930941 39.872528
31.366043 -39.112183 39.057858
36.298721 -41.680637 39.064491
29.134434 -48.348564 39.054855
25.343252 -34.242756 39.752499
43.413975 -43.703423 39.074055
28.142822 -41.818684 39.053524
43.647072 -23.503029 39.704102
36.229698 -40.514839 39.064396
23.055157 -30.478668 39.752495
31.321377 -45.21426 39.0578
29.356539 -48.409218 39.055157
26.95672 -45.181007 39.051929
41.796539 -34.253674 39.75256
26.609697 -43.037415 39.05146
28.460882 -22.416267 39.752533
28.717724 -38.758057 39.054298
38.474304 -31.9011 39.779099
43.514935 -41.177002 39.074188
34.796402 -41.210609 39.062469
25.687647 -23.097164 39.752499
31.961115 -34.718723 39.752552
33.324444 -29.122416 39.959
30.976395 -37.828144 39.752502
42.169609 -37.274742 39.75251
23.154659 -24.060614 39.752499
38.234024 -21.265125 39.704102
27.025377 -34.40712 39.752518
23.77808 -33.742992 39.752495
24.146 -33.01342 39.752499
42.848484 -46.685066 39.073296
24.082031 -34.472374 39.752495
40.841404 -21.361641 39.704102
28.228605 -36.4646 39.752529
33.48394 -40.92498 39.060703
38.588428 -29.82477 39.704102
33.875492 -37.797852 39.752502
21.949871 -41.720688 39.0452
31.083252 -31.414314 39.752579
33.327866 -37.419075 39.752506
33.037941 -36.100643 39.752533
36.427422 -24.634747 39.959
26.29003 -38.594444 39.051033
37.690788 -45.636993 39.06636
28.810009 -28.959467 39.752544
39.733421 -44.854362 39.069103
41.098305 -31.909731 39.774162
35.687378 -47.920563 39.063667
38.777149 -34.163391 39.752563
23.116833 -43.826492 39.046768
38.035393 -25.515617 39.704102
34.77187 -24.679333 39.959
30.830004 -40.675629 39.057137
34.228451 -39.304115 39.061707
34.737614 -48.010681 39.062393
31.704348 -38.420223 39.192066
41.401417 -36.693153 39.752522
32.84536 -43.83889 39.059849
21.784706 -47.696728 39.044983
32.408913 -33.072609 39.752583
25.421522 -24.489937 39.752499
39.355072 -43.772869 39.068596
32.395565 -33.654823 39.752571
41.219437 -26.401031 39.704102
38.207619 -33.029587 39.752583
40.844105 -39.958237 39.070599
32.47374 -31.499935 39.752598
25.535526 -39.917656 39.050022
22.783407 -42.195618 39.046322
25.191648 -46.65057 39.049557
38.705498 -44.109089 39.067726
28.262136 -46.797501 39.053688
41.084839 -24.510046 39.959
39.872272 -43.505508 39.06929
28.539825 -27.020231 39.752541
39.0942 -44.933376 39.068249
40.785332 -31.080601 39.959
36.512054 -28.357903 39.704102
29.649261 -45.358421 39.05555
34.91008 -31.827805 39.821053
35.497826 -30.953382 39.913422
30.190794 -36.398209 39.752525
32.686867 -48.66864 39.059635
29.830067 -31.38979 39.752556
26.04398 -28.605789 39.752506
29.075415 -27.424 39.752548
28.892841 -28.801567 39.752544
31.855822 -43.453472 39.058517
32.284512 -47.343971 39.05909
41.181435 -29.058575 39.704105
31.176559 -28.062817 39.752575
23.800383 -43.934074 39.047688
22.606342 -31.831657 39.752502
34.042023 -38.416336 39.197266
38.141876 -21.731724 39.704102
25.079182 -39.792492 39.049408
25.426807 -43.64505 39.049873
32.928307 -47.797207 39.059959
27.653872 -31.026648 39.752525
22.802877 -24.376225 39.752495
27.716854 -39.244667 39.052948
37.071148 -40.793091 39.065525
29.506487 -48.295643 39.055359
25.741316 -37.355274 39.752502
23.182554 -27.663143 39.752499
27.689083 -40.419998 39.052917
43.679993 -33.148331 39.752583
37.446457 -24.936485 39.799782
24.96139 -45.355049 39.049248
31.08572 -40.84544 39.05748
28.587147 -34.860985 39.752541
39.417004 -48.672504 39.06868
43.740074 -34.037319 39.752563
37.171844 -37.991478 39.752502
36.471294 -38.458157 39.141346
36.425102 -42.737633 39.064659
28.408155 -23.15682 39.752541
23.752205 -46.345062 39.047623
26.785999 -38.754242 39.051701
39.594608 -22.952415 39.959
40.627621 -28.482399 39.73938
35.724308 -37.562592 39.752502
42.653496 -25.366505 39.704102
31.957718 -45.896072 39.058651
43.147945 -22.437365 39.704102
42.216583 -33.208042 39.752579
37.35981 -44.545307 39.065914
35.177853 -42.9683 39.062981
31.137691 -47.083111 39.057549
36.91341 -46.665321 39.065315
28.005728 -43.364944 39.053341
28.355114 -41.611256 39.05381
21.971893 -44.37722 39.045231
34.331486 -37.44368 39.75251
28.866272 -33.455013 39.752548
29.201462 -25.556553 39.752552
26.416227 -37.345116 39.75251
36.17522 -47.22065 39.064323
27.146921 -35.73167 39.752518
41.005096 -42.865547 39.070816
37.388054 -32.19072 39.752598
35.099964 -27.970556 39.704102
29.178562 -44.967552 39.054916
40.679398 -44.71801 39.070374
39.475204 -34.975094 39.752552
37.161991 -31.471725 39.959
25.426256 -43.25396 39.049873
40.817024 -27.136486 39.704102
24.50185 -45.996319 39.04863
36.373486 -37.36541 39.75251
28.291506 -45.536182 39.053722
35.61655 -40.743443 39.063568
33.48431 -37.524971 39.752506
36.264458 -36.995743 39.752518
35.375019 -22.18734 39.704102
43.324345 -33.701717 39.752571
26.402504 -28.415802 39.75251
24.175787 -31.32329 39.752499
28.430096 -33.217773 39.752541
29.167515 -41.182838 39.054901
34.953957 -45.032684 39.062679
26.804405 -48.446468 39.051727
24.200184 -41.788475 39.048225
27.553005 -38.139557 39.567356
30.345701 -40.970749 39.056484
42.368294 -28.407188 39.704102
22.856617 -27.746626 39.752499
33.195602 -26.07597 39.908909
36.934486 -24.56694 39.959
31.758877 -30.761354 39.752586
38.857128 -39.697906 39.067928
40.91433 -27.363792 39.704102
32.314922 -35.117668 39.752548
40.6101 -37.330238 39.75251
25.897516 -33.235767 39.752506
41.292076 -37.035423 39.752514
37.635868 -22.10537 39.704102
42.198372 -25.631353 39.704102
36.365803 -38.719788 39.064575
26.970726 -46.399914 39.051952
27.351749 -31.574089 39.752518
22.100567 -48.189308 39.045403
31.342339 -36.226475 39.752525
38.109051 -41.794975 39.066925
22.4725 -42.944626 39.045902
32.454765 -47.773045 39.059322
43.993713 -26.835178 39.704102
36.848167 -22.525362 39.704102
39.240761 -21.907793 39.704102
29.637491 -32.787506 39.752552
25.013023 -31.793175 39.752499
23.251923 -37.936821 39.752499
24.435186 -25.836155 39.752499
30.830095 -39.009808 39.057137
37.853283 -26.184816 39.704102
33.852276 -25.837219 39.959
26.136511 -32.551895 39.75251
40.921547 -36.631256 39.752522
25.563669 -27.892178 39.752499
39.041409 -21.469831 39.704102
34.346813 -30.952723 39.912216
29.617067 -23.505762 39.752541
41.937737 -40.894337 39.072067
29.652294 -45.580799 39.055557
38.22065 -43.515202 39.06707
25.922466 -28.6073 39.752502
38.222878 -47.626934 39.067078
29.072243 -34.709881 39.752548
25.875154 -33.226555 39.752502
37.012814 -37.73431 39.752502
22.979113 -34.552322 39.752499
31.143938 -48.615566 39.05756
33.789967 -25.241032 39.959
36.801674 -45.560974 39.065163
22.384596 -41.107704 39.045784
32.299168 -32.621651 39.75259
32.816574 -41.653175 39.059807
33.570232 -34.790909 39.752556
34.414188 -34.338127 39.752556
29.814285 -38.38393 39.240597
27.192932 -40.266647 39.05225
41.614464 -40.608116 39.071636
38.401928 -38.146881 39.557568
41.484989 -28.257553 39.704102
32.676727 -38.4226 39.188889
41.771175 -38.071274 39.658661
25.214775 -39.442799 39.049587
43.482071 -29.53985 39.704102
27.49592 -34.622917 39.752525
27.663183 -46.283173 39.052879
23.644148 -41.594345 39.047478
33.948601 -22.112715 39.844398
43.942173 -29.122793 39.704102
34.029675 -41.469086 39.061436
37.439533 -23.80048 39.959
41.882267 -46.000381 39.071995
35.615543 -31.706528 39.890472
37.350636 -34.224049 39.752563
24.549257 -32.321354 39.752502
35.686798 -24.244219 39.959
32.674896 -35.421631 39.752544
33.319687 -46.960442 39.060486
23.85619 -42.542389 39.04776
38.28595 -25.101822 39.704102
41.493885 -42.775742 39.071472
31.142902 -43.588997 39.05756
39.029907 -25.932034 39.704102
38.982578 -23.317247 39.704102
33.785648 -45.051067 39.061111
41.806774 -38.719227 39.071896
25.699842 -23.458279 39.752502
40.921356 -35.252323 39.752544
22.347498 -36.529018 39.752499
38.774075 -39.013779 39.067818
27.422489 -41.609978 39.052559
28.346718 -28.953814 39.752537
22.447449 -46.357895 39.045868
28.979675 -22.637615 39.752533
27.444786 -40.380062 39.052586
22.662464 -35.902382 39.752499
22.741184 -33.522675 39.752495
34.450489 -33.721733 39.752571
36.03973 -40.417835 39.06414
32.791042 -42.541641 39.059772
44.182465 -35.943859 39.752533
35.089775 -42.239052 39.062862
33.141605 -26.425913 39.877991
39.844929 -21.92692 39.959
23.216557 -40.796394 39.046902
28.012249 -42.712486 39.053349
41.657936 -41.092846 39.071693
31.495325 -25.019932 39.752556
37.863159 -21.448048 39.704102
42.420395 -26.376198 39.704102
22.97488 -23.101986 39.752499
34.374916 -32.938416 39.752586
28.19626 -38.823029 39.053596
42.891895 -45.776478 39.073349
34.145275 -23.201035 39.704102
35.840363 -36.544327 39.752525
23.972427 -24.651455 39.752499
23.739761 -24.049858 39.752499
43.970505 -37.275703 39.75251
33.979492 -21.744987 39.782394
40.643002 -28.218161 39.708511
27.52413 -38.714912 39.052692
36.265537 -39.694252 39.064442
33.087833 -28.92029 39.847221
43.482384 -43.636261 39.074142
35.664288 -34.971443 39.752552
28.341541 -37.819683 39.752502
30.179163 -44.226707 39.056259
41.518433 -39.397224 39.071503
29.706118 -42.669243 39.055626
29.788265 -35.57935 39.752541
36.913834 -27.820261 39.704102
39.39629 -24.862492 39.934601
39.055016 -44.881367 39.068195
37.657013 -31.945868 39.753475
24.514687 -47.696358 39.048649
29.906237 -28.310228 39.752556
37.367081 -43.064663 39.065926
27.483177 -33.683464 39.752525
37.022408 -48.64679 39.06546
42.151913 -21.789669 39.704102
42.099148 -38.163223 39.535713
37.948605 -32.41703 39.752594
40.377796 -48.615211 39.069977
37.956551 -48.196884 39.066719
39.589001 -33.319344 39.752579
28.536406 -44.043079 39.054054
41.397438 -29.509947 39.704102
30.28241 -34.185909 39.752563
33.945091 -46.495712 39.061325
28.56179 -33.122467 39.752541
28.537907 -43.102119 39.054054
34.753056 -46.290226 39.062412
23.196754 -28.91852 39.752499
29.709377 -26.071056 39.752556
40.614655 -28.98502 39.765408
40.927242 -34.599518 39.752556
42.009064 -36.237545 39.752525
37.74855 -37.89299 39.752502
24.308964 -35.607746 39.752499
22.434008 -33.783348 39.752502
36.269085 -33.073444 39.752579
38.554398 -28.33614 39.704102
40.406761 -21.551231 39.959
44.131222 -34.951546 39.752548
41.492847 -46.676533 39.071472
35.679985 -33.750809 39.752571
24.019087 -40.949966 39.047985
39.369839 -44.912666 39.068615
24.308941 -33.562988 39.752499
40.332081 -38.846703 39.069912
41.703003 -38.519077 39.071751
28.40481 -44.480427 39.053879
33.307426 -27.026083 39.959
39.217995 -40.532318 39.068413
37.072353 -28.772774 39.704102
31.578245 -23.577072 39.752541
36.539635 -28.172312 39.704102
44.44223 -32.650135 39.75259
32.931755 -22.876898 39.75787
42.833214 -47.13546 39.073269
25.216879 -43.958733 39.049591
27.86491 -31.55719 39.752533
37.7882 -38.130932 39.578892
22.80056 -25.995806 39.752499
28.982903 -34.598629 39.752548
37.068504 -43.858208 39.065525
40.666702 -31.655033 39.919945
26.818521 -34.906616 39.752518
30.954115 -25.0641 39.752556
36.154118 -30.340275 39.704102
26.119864 -24.882841 39.752506
34.942223 -35.950882 39.752533
33.618809 -42.2174 39.060886
35.45517 -43.682938 39.063354
30.632393 -40.809841 39.056873
33.102116 -38.066925 39.664478
31.401093 -33.542141 39.752575
29.440311 -44.352615 39.055267
41.656254 -37.594952 39.752502
25.32654 -41.519405 39.04974
38.621109 -42.339737 39.067612
42.167507 -30.673637 39.704102
35.466095 -39.812531 39.06337
30.252386 -33.059967 39.752563
30.883232 -31.872999 39.752567
39.22826 -45.625969 39.068428
42.073341 -36.673702 39.752518
40.835243 -32.71413 39.75259
37.347321 -23.418653 39.704098
29.626362 -36.873512 39.752518
36.615345 -39.179661 39.064915
27.66498 -48.026844 39.052883
38.389198 -22.114677 39.704102
30.883215 -31.391083 39.752571
29.501682 -32.455864 39.752556
25.663422 -34.166588 39.752499
38.377438 -44.000885 39.067284
23.728067 -37.542496 39.752499
21.933039 -43.941269 39.045177
22.432827 -45.276447 39.045849
39.137012 -39.450703 39.068302
36.006622 -33.865562 39.752571
32.956902 -40.289875 39.059998
30.239832 -26.596016 39.752563
39.646263 -25.774719 39.959
26.651901 -42.5867 39.051521
22.535194 -41.523499 39.045986
34.084244 -38.720192 39.061512
34.599888 -34.25922 39.752563
37.952652 -27.137711 39.704102
41.451672 -40.357552 39.071415
38.031929 -44.997742 39.066818
42.317356 -43.465458 39.072578
32.179371 -45.863411 39.058952
36.668423 -34.714817 39.75256
30.156567 -38.427895 39.181812
26.048267 -32.945541 39.752502
31.31152 -39.572803 39.057785
44.156403 -35.586781 39.752541
40.568939 -47.074856 39.070225
26.344175 -28.429527 39.75251
25.303854 -23.604843 39.752499
37.959064 -48.052856 39.066719
40.369511 -33.228828 39.752579
22.203999 -43.696148 39.04554
33.950134 -29.745222 39.841316
28.350918 -32.7878 39.752537
28.910244 -44.770279 39.054558
42.429924 -32.475018 39.75259
42.572651 -43.473366 39.072922
33.574669 -48.284504 39.060829
33.591408 -37.967072 39.752502
23.799383 -42.883034 39.047688
30.927956 -33.325596 39.752575
27.227802 -34.896309 39.752522
28.71526 -30.703432 39.752541
31.361031 -40.601891 39.05785
44.176712 -33.721302 39.752571
35.855915 -39.134468 39.063892
31.159464 -23.421543 39.752541
24.883839 -42.532532 39.049141
38.25983 -23.077255 39.704102
41.034317 -38.23267 39.442852
33.316208 -30.810604 39.959
34.431671 -27.362499 39.704102
32.157688 -28.142693 39.752571
37.567501 -26.585743 39.704102
30.740036 -30.602039 39.752571
43.132565 -46.02924 39.073677
38.509914 -29.227417 39.704102
40.82679 -38.012878 39.736748
32.197182 -44.546925 39.058975
32.8713 -46.013508 39.059883
26.797104 -41.64146 39.051716
22.770018 -24.836468 39.752499
42.836815 -45.892529 39.073277
26.830036 -27.890331 39.752514
24.774988 -44.532539 39.049
40.105328 -40.258183 39.069603
39.673141 -34.103283 39.752563
33.504482 -27.715998 39.959
32.474548 -45.022148 39.059349
37.295971 -29.453751 39.704102
37.217731 -30.03705 39.704102
35.996353 -35.220985 39.752548
25.338137 -24.067888 39.752499
38.855762 -30.197662 39.704102
24.421204 -40.979744 39.048523
30.421825 -24.331234 39.752548
43.651142 -27.612577 39.704102
30.732922 -30.38743 39.752571
39.07608 -44.199768 39.068222
26.950243 -23.742764 39.752518
36.14875 -24.395859 39.959
43.18692 -22.587339 39.704102
38.65345 -31.192144 39.959
25.106991 -38.358093 39.27515
42.166504 -29.540739 39.704102
26.911608 -25.39497 39.752518
40.428955 -41.77108 39.070038
36.386639 -23.765862 39.959
29.060564 -29.252693 39.752548
29.068378 -23.465233 39.752541
23.665215 -39.948807 39.047504
34.531593 -46.320282 39.062115
29.051086 -33.367004 39.752548
22.960081 -25.104252 39.752499
34.188114 -48.396862 39.061649
43.072014 -48.167671 39.073597
32.221172 -37.845612 39.752502
23.797215 -31.208961 39.752499
37.295517 -47.592861 39.065826
27.996393 -26.334618 39.752533
31.063627 -36.169014 39.752529
29.796982 -34.921539 39.752548
29.930195 -24.055559 39.752548
33.614128 -45.471783 39.060879
37.31282 -48.010109 39.065849
31.359573 -33.750336 39.752571
40.765182 -45.796967 39.070496
35.811581 -43.425728 39.063835
28.561066 -37.539185 39.752506
40.189404 -30.923775 39.959
34.653019 -47.329422 39.062275
37.832993 -48.077503 39.066547
23.589483 -32.249832 39.752499
23.220779 -34.558071 39.752499
41.595207 -44.349953 39.071609
38.535618 -34.061783 39.752567
27.91223 -23.131117 39.752533
23.601276 -22.910812 39.752502
41.355515 -23.646784 39.907406
28.110327 -23.772461 39.752537
34.155331 -29.604343 39.704102
31.681814 -46.316326 39.058281
43.348198 -33.114147 39.752583
28.865316 -27.950623 39.752544
39.073822 -24.421711 39.959
31.115561 -35.142776 39.752548
37.076561 -32.508114 39.752594
43.763252 -29.564013 39.704102
39.376617 -30.534664 39.805779
28.335913 -37.563133 39.752506
41.300079 -44.064407 39.071213
32.063835 -39.041523 39.058792
27.591175 -41.214783 39.052784
26.510174 -26.099106 39.75251
38.196487 -22.50333 39.704102
39.010025 -48.105316 39.06813
34.160915 -35.43573 39.752541
32.473892 -36.096527 39.752533
37.482597 -25.764338 39.704102
42.551559 -28.181328 39.704102
34.223701 -40.897163 39.061699
37.875584 -42.442795 39.066605
27.140776 -47.611755 39.052177
34.67168 -32.065681 39.752598
29.40844 -41.356407 39.055225
25.417297 -25.42152 39.752499
29.000938 -33.48621 39.752548
39.701336 -22.881231 39.959
28.910694 -37.355022 39.75251
41.501297 -24.279156 39.959
22.79257 -24.017742 39.752499
24.196581 -37.362129 39.752502
36.670998 -22.787317 39.704102
41.750546 -32.548561 39.75259
38.210476 -37.924282 39.752499
36.100548 -28.276514 39.704102
24.311712 -43.673332 39.048378
33.113071 -37.905354 39.752502
41.374081 -37.586052 39.752502
43.24614 -46.233696 39.07383
42.900135 -44.150734 39.07336
24.66988 -40.257996 39.048855
35.348122 -22.044548 39.704102
31.21582 -36.273659 39.752529
24.127562 -41.399017 39.04813
27.278603 -46.880951 39.052361
32.838879 -32.149544 39.752598
22.232077 -44.260368 39.045582
25.399471 -38.256084 39.411545
42.010887 -41.30764 39.072166
33.650433 -29.921062 39.959
24.503748 -34.687656 39.752499
42.893105 -43.603806 39.073349
41.283695 -30.314224 39.704102
24.798216 -32.959713 39.752499
42.409023 -25.221148 39.704102
38.228592 -33.275333 39.752579
35.905785 -22.315863 39.704102
25.879738 -32.744286 39.752502
30.504887 -26.958092 39.752563
29.578617 -37.738243 39.752506
30.911789 -42.578537 39.057247
33.721432 -34.432102 39.75256
39.438324 -26.812243 39.929722
40.692993 -43.001915 39.070396
34.996407 -32.992611 39.752583
23.996899 -31.742746 39.752499
32.106541 -37.289875 39.752506
36.629078 -23.025196 39.704102
28.671518 -34.30323 39.752541
24.920118 -35.325249 39.752495
22.84268 -45.103447 39.046402
33.759388 -46.159008 39.061077
29.950901 -44.098862 39.055954
27.869024 -29.411343 39.752529
40.527878 -29.943262 39.939575
31.708809 -35.889542 39.752529
32.404919 -25.294641 39.752556
29.62299 -36.814991 39.752522
44.112064 -24.45426 39.959
24.827784 -31.503025 39.752499
40.620651 -39.579887 39.070297
38.851547 -34.204128 39.752563
24.823032 -45.199055 39.049061
44.027229 -26.952967 39.704102
33.308464 -39.309761 39.060467
31.448507 -42.015251 39.057968
38.091263 -46.175068 39.066898
37.972656 -29.566931 39.704102
43.210693 -29.222271 39.704102
30.658691 -23.582026 39.752541
33.71801 -22.549816 39.959
40.518703 -42.930748 39.07016
27.595394 -27.776733 39.752525
36.314724 -45.582581 39.06451
38.873421 -36.464169 39.752525
30.886921 -34.670074 39.752556
38.74728 -21.803923 39.704102
44.717331 -25.178358 39.704102
35.828625 -46.634033 39.063854
44.698071 -27.218191 39.704102
36.005333 -38.98914 39.064095
33.547646 -41.774506 39.060791
23.290182 -48.582973 39.047005
36.10865 -39.213989 39.064236
43.217873 -25.597448 39.704102
42.700649 -45.610714 39.073093
30.539803 -33.843075 39.752571
40.93581 -41.35059 39.070724
32.792416 -32.077641 39.752598
32.52092 -46.349602 39.05941
34.487579 -23.658945 39.929562
31.559566 -36.275253 39.752529
23.213785 -42.643528 39.046898
24.204382 -43.598495 39.048229
29.361284 -29.971828 39.752548
41.592598 -40.587212 39.071606
27.405087 -38.116249 39.598526
29.046074 -28.02117 39.752548
24.134722 -26.669508 39.752499
36.588573 -24.059521 39.959
34.367428 -36.804218 39.752518
35.35194 -43.782703 39.063217
24.927177 -31.629507 39.752502
22.619896 -32.838581 39.752499
38.132374 -33.525703 39.752575
43.366447 -27.988647 39.704102
26.307568 -37.056561 39.75251
42.393513 -43.508636 39.072681
32.899914 -31.863304 39.752602
36.785553 -47.277809 39.065144
33.387253 -33.355869 39.752575
34.825855 -26.023851 39.704102
33.90712 -26.430841 39.927647
25.838493 -40.486153 39.050426
33.888924 -25.790588 39.959
22.341393 -38.841274 39.045727
37.046005 -43.307396 39.065491
29.18668 -34.211594 39.752548
31.016676 -33.247551 39.752575
29.81337 -22.720659 39.752537
29.903545 -37.528412 39.752506
23.406887 -44.067375 39.047157
41.943699 -29.850719 39.704102
27.987297 -34.556206 39.752533
27.978054 -38.138588 39.568649
23.884737 -31.630369 39.752499
23.864761 -43.241386 39.047775
30.727161 -46.687454 39.056999
36.734592 -26.475241 39.704102
31.166101 -27.735287 39.752571
38.944145 -25.549026 39.704102
43.991402 -35.652237 39.752541
29.4083 -29.454304 39.752548
37.048462 -22.841049 39.704102
40.366371 -39.335136 39.069954
39.432346 -29.064947 39.917713
35.867043 -24.003376 39.959
29.334362 -38.372974 39.255245
40.346931 -33.648891 39.752571
42.695553 -43.532951 39.07309
26.389317 -28.310261 39.75251
34.569843 -29.271759 39.704102
34.823551 -47.749001 39.062504
25.872271 -38.89949 39.050472
34.356441 -47.227581 39.061878
41.147133 -27.465469 39.704102
23.709347 -44.049538 39.047569
24.416946 -33.50153 39.752499
29.386524 -40.218636 39.055195
41.280529 -22.343941 39.704102
41.411182 -37.028179 39.752514
29.559896 -29.181572 39.752556
39.781555 -31.888676 39.786213
32.167053 -22.725479 39.752537
36.153713 -42.452751 39.064293
34.951279 -33.424603 39.752575
38.330177 -43.45137 39.067219
40.224297 -25.962353 39.959
28.545719 -43.968601 39.05407
38.467869 -27.277664 39.704102
28.357191 -44.370544 39.05381
26.20521 -35.437725 39.75251
25.938164 -23.98595 39.752502
32.4347 -24.980829 39.752552
29.996527 -40.765469 39.056019
35.936691 -47.222649 39.064003
32.683167 -21.96871 39.752529
35.268684 -43.077351 39.063103
32.556374 -26.407051 39.752563
