# .PCD v0.7 - Point Cloud Data file format
VERSION 0.7
FIELDS x y z
SIZE 4 4 4
TYPE F F F
COUNT 1 1 1
WIDTH 1506
HEIGHT 1
VIEWPOINT 0 0 0 1 0 0 0
POINTS 1506
DATA ascii
-34.371601 -11.024342 -5.8797636
-30.992241 -8.9477634 -2.8353148
-45.623001 -13.868401 0.19987811
-32.103756 -13.240845 6.4796858
-44.113201 -18.007858 0.92527127
-31.996336 -9.2371426 -3.0409861
-32.10379 -14.836826 6.6919789
-34.371601 -10.969784 -3.9807241
-35.517067 -7.9114814 6.1604218
-45.623001 -13.553053 0.67377806
-39.711601 -7.6630015 7.0833445
-42.128658 -8.3434601 4.9706349
-33.622501 -10.783523 -1.77724
-30.580585 -9.2948341 0.84397554
-32.103645 -13.453848 2.2197211
-36.169918 -8.5340109 3.8641274
-32.103771 -14.81331 5.9545221
-36.55368 -10.7692 0.76508021
-45.623001 -15.193691 0.059889235
-30.698326 -8.8656063 -5.5862403
-25.52511 -8.3084593 3.2131002
-35.532768 -9.2655115 1.1638677
-33.151672 -9.6747627 0.090315759
-45.778519 -10.769201 8.0484409
-32.103565 -13.281858 0.10350299
-25.123312 -8.0949764 2.5140564
-34.04163 -9.8301573 -7.3926563
-43.576023 -10.769201 1.037367
-34.803825 -11.750734 -1.4604821
-43.852123 -9.1778049 1.4994134
-33.166492 -9.5770206 -6.1953936
-36.085979 -10.7692 1.1039886
-35.337078 -10.7692 3.9985514
-31.870758 -9.2019777 -4.1481538
-46.745602 -11.046686 0.43223637
-34.011093 -10.7692 4.753716
-42.632378 -8.5133381 7.9176111
-36.06778 -10.7692 7.9734902
-45.905865 -10.328482 -1.6225338
-44.456833 -13.633551 -0.3522
-32.465469 -17.376348 -4.8489933
-32.364204 -17.702728 -4.725287
-44.758183 -10.769199 3.0487201
-27.726429 -8.0072365 -2.9099317
-27.46175 -8.3060246 -0.19244558
-44.590267 -9.1736193 6.4857988
-42.461422 -8.4556828 7.848402
-32.103813 -15.404321 7.2613902
-46.1898 -11.289974 6.7029204
-37.925732 -8.1873894 5.1457233
-45.758575 -11.367958 -0.66930002
-39.023754 -10.769199 4.843442
-32.10376 -11.414201 6.6657228
-33.169949 -10.769199 6.8743033
-32.362789 -10.7692 9.0803471
-26.483871 -7.9935241 -0.53363538
-39.742294 -9.2276249 1.3096929
-33.622501 -10.893135 -6.0993009
-44.113201 -12.929016 0.7391029
-46.053898 -11.55316 -1.3819296
-29.52187 -8.6074371 4.9697299
-32.103664 -14.282249 2.741919
-32.103325 -12.927124 -7.5947227
-32.103729 -15.891653 4.4197736
-44.113201 -13.411705 1.5612668
-27.197552 -8.2227268 7.0654693
-33.666222 -9.3033867 1.1985258
-37.07066 -10.976511 -0.66930002
-32.31131 -9.3296394 -5.0057611
-28.864523 -8.6256905 -0.5478636
-35.709484 -9.5773144 0.013525367
-39.291283 -8.8977137 2.526468
-28.503944 -8.2331581 -5.1048965
-34.856461 -10.7692 6.2128029
-32.103607 -11.050376 1.9121293
-33.794014 -8.7106075 3.2090654
-38.191917 -9.406374 0.64786476
-33.963337 -7.138598 9.0102577
-31.20908 -9.0231724 -2.0404634
-43.111279 -11.107424 -1.4024763
-36.142216 -9.9517813 -1.367696
-32.149704 -17.780581 -7.1247239
-31.588623 -9.4384947 0.02334322
-36.846401 -7.9475546 6.0292068
-46.12056 -10.7692 3.0851727
-44.992783 -11.374325 -0.66930002
-34.984894 -9.0032921 2.1307173
-37.161449 -9.8087025 -0.83825815
-39.518299 -9.3764591 0.76015639
-32.103642 -17.279915 1.8399837
-33.358597 -10.7692 -6.6405735
-26.438478 -7.7226901 -2.2331884
-32.103813 -15.499231 7.1620326
-32.103333 -11.673122 -7.3274317
-37.222336 -9.1591167 1.5588973
-44.113201 -15.096406 -0.18861878
-40.44664 -10.7692 0.47015586
-37.370621 -7.6013498 7.3075037
-38.305733 -10.7692 0.99263424
-44.113201 -18.554863 1.516984
-45.623001 -20.343853 1.5378519
-44.113201 -17.304981 -0.11605659
-33.027237 -9.537322 -6.6469884
-37.34465 -10.7692 5.3843594
-47.124298 -10.118391 6.3793831
-35.745811 -10.7692 2.893878
-44.8274 -12.537411 -0.35219997
-32.103691 -11.986036 4.495657
-32.103638 -17.253996 1.7867191
-32.103741 -12.140827 6.1066475
-32.103676 -12.811479 3.8453608
-43.474258 -10.331964 -1.4826031
-44.113201 -15.444171 0.59466791
-34.236938 -7.3274603 8.3137178
-46.1898 -10.988785 -0.38522437
-32.103725 -16.057602 4.2543106
-34.141575 -10.7692 1.0517137
-25.176939 -8.6445341 6.2831321
-44.223995 -11.458045 -0.3522
-46.120239 -10.7692 1.8224599
-27.337671 -7.8960247 -3.7443194
-32.10334 -13.233573 -7.020741
-44.12759 -14.063097 1.8141
-44.113201 -12.334682 0.36051667
-36.760902 -8.6936779 3.2757742
-32.954548 -10.7692 -2.2073157
-32.522804 -10.769201 -4.6595597
-32.103897 -17.996563 8.8905392
-34.371597 -10.760311 -1.7002065
-45.623001 -18.107924 0.36060807
-38.727787 -7.2077923 8.7617311
-46.904781 -10.326601 6.4064512
-45.992935 -9.6466589 0.42157418
-44.113205 -16.607506 0.047476619
-32.103729 -14.063332 4.9253826
-46.745598 -10.873442 6.2085853
-43.496956 -10.7692 7.4769201
-32.099087 -9.2555847 1.8829334
-27.645918 -8.4242096 0.26152951
-32.103848 -15.834799 8.1729078
-47.124298 -10.237193 4.0486355
-41.347042 -10.7692 7.2271175
-33.05603 -9.5466776 -7.8188324
-44.511772 -16.727543 -0.3522
-40.276741 -9.9720535 -1.436597
-24.490822 -7.943532 2.626277
-33.622501 -11.459065 -2.5893104
-35.904205 -10.7692 5.7273116
-42.612461 -9.3102846 1.0087698
-36.999847 -10.7692 9.0393391
-24.821953 -8.2886982 4.3139958
-38.863716 -10.936728 -1.4321344
-32.103626 -16.341217 1.4042292
-32.103809 -17.09597 6.4723063
-38.564049 -10.769201 -0.35686904
-29.102772 -8.4071484 -6.7815609
-37.523869 -10.674194 -1.4414897
-32.103462 -11.862533 -2.9319105
-32.103806 -13.167645 8.1090565
-32.10376 -12.553312 6.6574984
-45.623001 -15.848633 1.6991006
-28.929605 -8.6498661 5.0200667
-33.60675 -8.6003447 3.639257
-27.660435 -7.9907112 -5.6493025
-40.530327 -10.7692 2.6752205
-46.1898 -11.135651 0.68276995
-32.393169 -9.3522301 -3.9174471
-40.111954 -10.7692 1.5006379
-30.047886 -8.6789112 -6.294189
-32.103344 -11.224953 -6.9631095
-32.632694 -10.7692 6.6129737
-35.109177 -8.9097939 2.4759159
-29.586124 -8.5561028 5.1251936
-46.745602 -11.511473 1.3675689
-32.908108 -10.7692 2.7695777
-38.671799 -9.2193623 1.3386519
-32.103653 -16.692293 2.2279809
-39.266632 -8.0508165 5.6516137
-44.693378 -10.899647 -0.3522
-39.364296 -10.769199 7.4833961
-33.871124 -7.4555941 7.8403635
-32.103752 -16.461582 4.9762545
-44.695484 -17.591833 -0.3522
-47.124298 -10.075278 3.8835859
-29.98506 -9.1434145 2.9703984
-43.552895 -8.8237734 7.8382325
-32.103348 -10.871542 -6.8652754
-32.103489 -11.708536 -2.1878524
-38.098778 -10.769201 7.5212169
-37.602913 -9.345233 0.87264317
-32.1035 -12.67974 -1.8757882
-44.349602 -12.245448 1.8141
-26.708078 -8.5040493 2.4273992
-32.103554 -11.509093 0.13419962
-46.745605 -11.402007 -0.40790603
-45.37941 -15.559481 1.8141
-43.52557 -10.7692 0.51298249
-34.795368 -10.7692 1.4987538
-31.301682 -8.2121716 5.7405334
-32.103832 -12.000462 8.8774662
-33.59927 -9.8206844 -0.56064367
-32.070518 -8.2909708 5.2141695
-32.079369 -9.2617664 -3.8221705
-37.283699 -10.8114 -1.4431666
-45.14159 -10.7692 5.5566721
-24.167717 -8.1890564 4.8045387
-40.997074 -10.769201 4.5737824
-46.686733 -11.8008 5.8721962
-45.623001 -16.704773 -0.28006232
-35.412182 -9.2120361 1.3610307
-32.1036 -13.124965 1.0815643
-37.647591 -9.4753056 0.39271986
-32.103706 -15.789379 3.6936293
-32.103329 -13.283438 -7.4023485
-34.0247 -11.8008 -2.8518848
-32.103683 -17.708019 2.9717617
-47.124298 -10.160182 2.78704
-34.346897 -11.8008 -1.6840494
-37.145996 -7.1415443 9.0039358
-45.758148 -10.769199 7.8118048
-29.691345 -8.7814064 -0.97214729
-32.103828 -15.354509 7.8580422
-46.148006 -10.04931 -1.6339999
-32.103451 -16.457088 -5.1960754
-27.632381 -8.7745972 5.0208101
-34.039188 -11.8008 -4.8791938
-36.101677 -8.5983028 3.6267831
-43.068565 -8.6604385 8.7205133
-43.149143 -10.7692 1.9454464
-32.714581 -10.7692 -6.6438518
-44.910007 -11.709307 -0.66930002
-36.052624 -8.1932373 5.1214662
-35.701416 -9.4086199 0.6360209
-33.966694 -11.662867 -0.66930002
-34.31155 -9.4405956 0.51603734
-34.371597 -11.40218 -5.1820765
-29.280851 -8.5855761 5.1249528
-26.545465 -7.7753344 8.8224049
-25.638124 -8.726656 5.8473682
-46.745602 -11.366559 3.5209122
-35.360443 -11.560416 -0.66929996
-45.623001 -11.467882 0.43708721
-42.81477 -8.5748453 5.1565857
-32.103661 -14.295393 2.6450112
-36.595615 -9.0757694 1.8655684
-34.101379 -11.8008 -2.3205659
-35.866257 -7.4500217 7.8637757
-41.629829 -8.1752338 6.2191262
-34.49284 -7.4040666 8.031395
-34.126629 -10.7692 4.2016892
-32.103447 -10.926923 -3.3018825
-31.429537 -9.1300201 -1.7244682
-39.42305 -8.4330502 4.2413354
-36.285294 -9.1000051 1.7756877
-25.8475 -8.0061722 0.66324067
-32.103382 -11.081395 -5.5718532
-43.0742 -10.7692 1.5986848
-36.16629 -10.769199 -0.65174657
-35.860165 -9.6775522 -0.35615689
-30.198837 -9.2823734 1.4302806
-40.222046 -9.1213531 1.702538
-33.723888 -10.826035 -0.66930008
-32.103825 -15.716928 7.3316708
-40.72826 -10.334278 -1.4382793
-32.103729 -14.77425 4.5403471
-44.113201 -17.793812 1.5931157
-33.334747 -10.7692 4.0097914
-44.151302 -13.557583 -0.3522
-45.623001 -19.518665 0.86670494
-44.950439 -10.7692 -0.072521597
-33.72961 -7.2932844 8.4391069
-32.103573 -14.147861 0.12977827
-32.1035 -15.865026 -3.4201503
-30.401539 -8.7820539 -7.7133484
-32.103554 -15.286963 -0.48101687
-32.340469 -10.7692 5.6086044
-42.503315 -8.4698114 8.5909405
-27.698778 -8.8742523 3.1251647
-33.498528 -9.8438053 -0.60684806
-40.028824 -10.7692 6.9878106
-37.742367 -10.769199 3.1076961
-27.989145 -7.9681735 7.6794906
-33.622501 -11.782952 -2.5368247
-32.103722 -14.979742 4.3238583
-29.553316 -8.5819874 -2.0404735
-45.355942 -9.4318361 2.1662984
-35.934963 -10.7692 2.2819047
-44.015347 -10.7692 2.950376
-34.371601 -11.429049 -1.9059119
-26.864927 -8.7496223 3.7659476
-41.330185 -10.983036 -0.66930002
-30.68869 -9.2212238 2.4690647
-43.394329 -10.769199 6.8063469
-46.745602 -10.832155 5.9098487
-26.839108 -8.1738167 7.3527851
-45.070984 -15.291506 1.8141
-44.151756 -10.7692 1.2986192
-44.63335 -9.7137766 -0.47728938
-26.560698 -8.3955555 1.9726925
-33.361519 -10.7692 -4.2457743
-34.497826 -10.342886 -8.9580317
-36.603981 -10.7692 2.1144514
-31.8158 -9.2493134 -1.6169343
-42.906666 -8.6058359 5.0426483
-37.798218 -10.7692 1.3088675
-32.103577 -13.010012 0.44761539
-42.915833 -9.7136574 -0.47930467
-46.1898 -11.191732 1.6028951
-32.103588 -14.57679 0.58286357
-31.548733 -9.5072651 1.1987844
-44.337006 -10.478039 -0.3522
-42.54908 -9.2387571 1.2726247
-39.438087 -9.8903933 -1.136458
-33.622501 -10.886128 -4.3082194
-36.28302 -10.795904 -0.66930002
-47.124298 -10.045459 4.8188419
-39.041336 -11.543915 -1.4308941
-35.414566 -10.7692 4.241725
-46.010124 -9.6524553 0.16343385
-33.373383 -8.7216167 3.299047
-32.103825 -17.785051 6.8521338
-40.510101 -7.8780565 6.290904
-47.102325 -10.02079 2.4387748
-32.103344 -13.339001 -6.8701653
-42.719742 -11.760887 -1.40521
-31.061195 -9.0523586 -1.5899255
-34.979683 -9.5826941 -0.0073729753
-32.103775 -12.119649 7.1691785
-32.56855 -9.4036407 -4.9082937
-33.746479 -9.7929211 -1.4253155
-40.872284 -8.4106293 4.3261433
-46.1898 -11.193579 3.6321573
-36.242184 -10.769199 7.9949136
-43.67733 -11.8008 -1.0309725
-32.831802 -8.1606016 5.4106026
-31.57926 -9.1177349 -3.8301649
-32.103596 -13.956011 0.83189237
-31.208036 -9.0146275 -8.0347376
-46.745602 -10.517307 8.0606852
-40.547783 -9.4961548 0.31992418
-42.600052 -8.5024338 8.4539547
-43.85347 -11.652622 -1.397294
-42.824753 -10.7692 1.1417282
-32.103416 -11.09184 -4.4938922
-41.808578 -9.4468737 0.50358725
-42.847324 -8.585825 4.6921816
-32.86515 -10.7692 -1.9319491
-38.106651 -10.7692 7.9761529
-36.097904 -10.769201 -0.55354184
-39.204918 -10.7692 7.1406417
-45.623001 -15.633272 1.6874543
-46.745598 -10.53054 2.8744538
-33.465084 -10.769199 3.2385798
-44.437645 -10.769201 6.250649
-46.581486 -11.8008 5.2365813
-32.103325 -14.418774 -7.5602474
-27.293144 -7.8849692 -5.6969347
-34.832623 -7.2079072 8.7557383
-44.982937 -10.769201 0.46357372
-33.881351 -9.7828588 -6.1393661
-32.103664 -15.753511 2.5688164
-39.698708 -10.769201 7.0420785
-37.881676 -10.7692 8.2162666
-43.660336 -10.849495 -1.3986425
-46.1898 -10.937986 6.1294918
-37.525238 -8.1620502 5.2386556
-44.249626 -15.771142 1.8141
-45.623001 -14.383833 0.14203247
-36.259903 -10.769201 2.2445705
-42.599186 -9.3526325 0.85248131
-44.113201 -20.106667 -0.1862251
-32.103813 -15.055861 7.4722509
-46.1898 -11.718156 5.0991726
-30.432568 -8.7877932 -4.1838694
-45.987713 -10.7692 3.5869341
-44.113201 -10.972569 0.63523948
-35.383801 -10.44664 -1.4564325
-32.514946 -10.7692 -5.1269741
-32.103806 -12.203899 8.0776443
-31.964458 -7.7827525 6.9994521
-39.022907 -7.4861159 7.7350965
-44.649841 -13.448862 1.8141
-31.055355 -9.4524975 1.0486574
-37.495369 -8.5335197 3.8678353
-44.113201 -14.522814 0.39393207
-32.103374 -14.946411 -6.4975362
-35.502254 -10.27577 -1.6340001
-46.745602 -10.494505 6.5653863
-44.113201 -17.417294 1.1820314
-46.148205 -10.7692 0.70392436
-44.22834 -9.0515614 4.5762548
-32.230934 -9.3066816 -5.2171478
-45.890095 -10.7692 2.6951768
-32.161552 -8.6522684 3.9398029
-41.591778 -9.1340265 1.6577302
-36.908726 -10.7692 0.11646426
-44.347618 -13.21538 -0.3522
-37.444054 -10.7692 6.9832892
-33.691319 -8.3848886 4.4108696
-43.932652 -10.7692 -0.46669564
-34.120621 -9.3585386 0.85788262
-33.642319 -10.7692 2.4896166
-32.103462 -10.988544 -2.7560682
-32.103527 -17.432514 -1.4403546
-32.103508 -16.485853 -2.0206008
-44.113201 -15.232485 1.2625744
-37.852257 -9.2330227 1.2870746
-35.327557 -10.7692 6.018404
-39.018394 -10.769199 7.1823788
-39.9524 -9.6627216 -0.29557824
-32.103371 -13.414452 -6.0368543
-33.622501 -10.95322 -4.406775
-42.982552 -10.7692 3.6362274
-32.837471 -10.7692 -3.8119302
-29.59906 -8.5468159 -3.1723616
-33.159439 -8.6055851 3.7695773
-45.48576 -9.4756165 8.7021122
-35.319115 -11.187202 -1.4568841
-29.090839 -8.4003181 -3.0364606
-44.113197 -12.583142 0.73475224
-35.368561 -10.769201 2.8406558
-34.718342 -10.046666 -8.3366814
-44.113201 -11.376686 0.13126546
-33.946068 -8.7398787 3.1012659
-26.783726 -8.596282 2.9008348
-44.849514 -12.226566 1.8141
-30.624266 -8.984046 3.3071845
-37.521919 -7.5700459 7.4232368
-31.347719 -9.0499458 -2.6142402
-34.538448 -7.6441736 7.1454306
-45.623001 -15.968493 0.20125052
-25.909546 -7.9378009 8.473856
-43.76553 -10.769199 5.7192206
-32.10376 -11.511939 6.7328739
-34.19521 -11.8008 -4.0008698
-46.06971 -10.28475 -1.6339999
-32.103859 -16.905766 7.905427
-26.591379 -8.5790997 6.0393124
-32.103382 -13.08172 -5.6158633
-40.848915 -10.769201 2.3395841
-32.103455 -13.490576 -3.7938476
-37.473671 -8.1278706 5.3647089
-38.247307 -10.7692 8.4689474
-39.400688 -10.7692 1.4090283
-42.057999 -10.7692 0.38276356
-37.7318 -10.769199 6.1766062
-25.761593 -7.8232899 -0.38768029
-32.103828 -16.264061 7.1206713
-32.10334 -11.103882 -7.0872307
-30.248838 -8.7359896 -5.4118042
-47.124298 -10.163634 7.4396009
-29.719421 -8.5838709 -5.8102355
-32.103859 -15.623653 8.7432261
-39.570438 -10.7692 6.8467474
-32.103695 -12.230407 4.6550908
-32.558071 -9.3435888 1.4276406
-44.159046 -15.985404 1.8141
-31.827847 -8.4940653 4.5952797
-38.239403 -7.8527074 6.3811994
-44.113201 -14.763029 0.89309311
-32.103806 -14.560058 7.4055405
-39.07869 -11.8008 -0.91948164
-41.264278 -8.1180019 5.4065409
-38.306274 -8.7215805 3.1750205
-34.273716 -9.8927383 -2.6886292
-35.769722 -10.897359 -1.4537377
-30.024277 -8.6693401 -3.2351229
-32.103687 -15.311666 3.2089977
-34.915768 -11.8008 -0.80523986
-38.927357 -8.4406233 4.2126822
-33.677158 -11.8008 -7.2567711
-45.210369 -15.066532 1.8141
-32.103676 -10.794438 3.9934106
-44.658035 -11.479018 -0.3522
-44.113197 -11.913736 1.7287912
-46.1898 -11.151534 8.6336918
-44.113201 -15.736557 1.026469
-38.665531 -7.8880343 6.2514448
-45.623001 -13.796013 1.7292615
-27.405628 -7.9168987 -5.1799989
-46.1898 -10.963221 8.6155558
-32.103863 -15.606793 8.9533253
-32.871552 -9.6091738 -1.1009607
-35.696121 -10.7692 6.5958762
-36.752136 -10.769201 4.4794207
-46.46167 -9.8047352 6.846612
-36.475258 -10.7692 1.3814206
-45.623001 -12.094438 -0.20937522
-32.688221 -9.4354658 -1.9937129
-34.384838 -10.7692 0.14386237
-37.335175 -9.9184017 -1.2428169
-44.760448 -10.619301 -1.3909612
-36.519955 -10.7692 1.1921694
-32.32692 -16.803738 -6.4923983
-37.439621 -10.7692 -0.62235391
-47.124298 -10.184465 -1.027343
-37.188637 -10.7692 5.1942735
-37.673454 -7.8898988 6.2431469
-33.32391 -9.6219025 -5.6909285
-43.146458 -8.6867056 3.9674811
-28.976892 -8.996726 1.6926515
-43.646187 -10.769199 7.4625387
-32.103828 -15.400766 7.7525935
-32.103493 -13.202905 -2.6992497
-36.186489 -9.1593828 1.5564331
-27.637964 -8.8745909 4.6746187
-42.811199 -11.8008 -1.2582562
-33.169632 -10.7692 -5.441535
-29.829933 -9.2083864 1.5899459
-32.635033 -9.5762348 -0.90336537
-33.25111 -10.769199 -5.5491495
-33.895699 -11.8008 -8.0530424
-32.103683 -15.096886 3.1826944
-44.686539 -14.620038 -0.3522
-28.615131 -8.2643919 -4.232729
-32.234585 -9.3076305 -5.1028132
-46.1898 -10.911218 6.6870975
-38.223457 -7.6377239 7.174499
-32.103661 -14.182987 2.7127967
-32.103844 -17.494507 7.4397626
-34.452038 -10.342275 -4.0958343
-32.103748 -16.592175 4.9337797
-32.103764 -14.072849 6.2225313
-43.549313 -9.6294203 -0.16754994
-45.497795 -18.191792 1.8141
-42.632599 -10.7692 1.0717294
-34.371601 -11.070892 -2.8166554
-34.720112 -10.769201 3.2970364
-39.278965 -10.7692 3.8977754
-32.103706 -14.108203 4.1171942
-45.243492 -10.7692 -0.40945873
-28.842615 -8.6373129 -0.43317604
-44.710983 -9.2143297 5.0725861
-46.745602 -11.768067 7.3494587
-37.751945 -7.1873899 8.8356247
-38.05835 -10.7692 7.8403749
-36.112537 -11.659796 -0.66930002
-44.320213 -10.769201 5.7837143
-32.3731 -9.3502998 -8.1664934
-44.832134 -11.983919 -0.3522
-46.745605 -11.726864 -0.81149125
-42.135418 -11.8008 -1.1430233
-27.750614 -8.4583387 0.30246496
-42.465488 -8.5322361 3.8796723
-46.206142 -11.8008 2.6953356
-40.525745 -9.6007099 -0.06592834
-42.997383 -10.7692 7.223527
-32.103638 -17.711378 1.642314
-39.446598 -10.7692 6.044064
-44.307804 -12.264107 -0.3522
-32.205551 -9.5820475 0.72340506
-34.371601 -11.482579 -2.2759309
-32.103371 -14.681574 -6.5899105
-33.622501 -11.153902 -6.8732176
-46.155136 -9.7013588 3.2794864
-44.714523 -10.792923 -0.66930002
-32.103592 -17.277224 0.45546234
-44.285576 -15.760271 1.8141
-45.34787 -19.726856 -0.3522
-32.103657 -15.726647 2.3977716
-35.084953 -8.0299263 5.7227249
-32.1035 -17.31929 -3.0668328
-32.103828 -14.955549 8.1185617
-44.25312 -10.769201 0.27120811
-32.103767 -15.491907 5.3955088
-32.103752 -15.17684 5.1823092
-33.558662 -10.7692 -8.2711105
-39.600311 -10.7692 6.4139795
-32.103851 -17.162134 7.6503949
-44.2626 -10.7692 -0.56732213
-44.37653 -10.7692 7.9286633
-24.560745 -8.0928211 3.4845259
-40.078995 -10.7692 8.2966576
-44.113201 -19.259237 0.61542398
-44.273029 -10.936532 -1.3943645
-38.708664 -10.7692 -0.0080847144
-36.324738 -10.769199 -0.23149753
-42.554619 -10.7692 1.8289282
-32.103813 -17.531939 6.6244011
-32.103577 -15.757375 0.19115436
-43.80695 -11.243362 -0.66930002
-39.538094 -9.5694199 0.048126698
-34.693226 -11.312502 -1.4612544
-46.745602 -11.700362 -0.34079641
-32.217827 -10.7692 7.4399476
-36.9104 -10.587039 -1.4457731
-26.505547 -7.8582311 8.5501785
-46.77602 -10.326601 0.18632689
-44.113205 -19.625051 0.77602303
-29.371426 -7.6110983 8.4506359
-44.635494 -17.734465 -0.3522
-40.300091 -11.538104 -1.4221051
-44.057144 -9.1893883 1.456957
-44.90453 -13.900969 1.8141
-32.103622 -17.566114 1.2625377
-32.1035 -12.083895 -1.9313245
-44.94482 -18.97855 -0.35220003
-25.939625 -8.4696312 3.5462823
-32.772858 -10.7692 -7.3584127
-45.958336 -10.7692 1.9711744
-44.291336 -10.7692 5.9229612
-31.369638 -9.0248756 2.9193497
-46.1898 -11.515711 3.3434083
-42.252209 -8.5410109 3.8469853
-46.745598 -10.593443 2.180213
-33.218849 -10.7692 -6.2269077
-37.669724 -10.7692 6.0620494
-33.316795 -10.7692 -4.6682267
-29.067135 -7.6234927 8.5088863
-45.623001 -19.862257 -0.35156077
-27.150328 -8.9106464 4.3241386
-41.699867 -10.7692 6.4981742
-26.756609 -8.1259794 -0.14093506
-44.355156 -16.526041 1.8141
-41.271286 -8.0543194 5.8319325
-37.2309 -11.8008 -0.89960432
-45.623001 -17.758938 1.3476655
-34.675385 -9.2496557 1.2211529
-46.189804 -11.567242 8.2435293
-45.623001 -16.033257 0.46148711
-37.863697 -10.769201 8.8266563
-38.96785 -9.1652241 1.5388547
-32.10379 -14.193378 7.2395134
-43.153389 -8.689044 8.8518982
-45.387104 -10.7692 3.7437179
-44.496864 -16.434454 1.8140999
-34.812805 -9.190671 1.4390161
-32.103622 -14.711052 1.5411999
-34.416718 -8.1315193 5.3468785
-32.10334 -14.310804 -7.1265416
-32.103786 -15.610241 6.0385523
-32.879402 -10.769199 4.883358
-34.578106 -11.461223 -0.66929996
-43.314243 -8.7432919 3.781996
-43.183392 -11.800799 -0.8815459
-33.260017 -8.2581654 4.9325948
-44.714043 -19.562037 -0.35219997
-32.103851 -15.51237 8.6236315
-45.031742 -10.7692 7.2333651
-33.901955 -9.7866058 -3.7270646
-32.103802 -13.494429 8.07726
-45.623001 -19.879091 -0.21223758
-38.175446 -10.769201 3.2109959
-32.1035 -13.214011 -2.3578479
-46.977489 -9.9786901 2.7808342
-32.10363 -15.992146 1.7134999
-29.184658 -7.4839721 8.9503613
-31.617002 -9.3765001 -0.43355727
-32.103455 -13.145586 -3.6036134
-32.973457 -10.7692 -7.7958207
-45.779427 -9.5746527 0.18491013
-42.001091 -11.603098 -0.66929996
-30.672844 -8.9574776 -1.5334543
-36.965275 -8.975461 2.2362478
-42.70768 -9.3712425 0.78395694
-30.992348 -8.9479713 -3.0303984
-45.382317 -10.7692 2.3285301
-44.856041 -15.908588 1.8141
-44.824085 -10.7692 4.891911
-40.156464 -9.1834602 1.4732594
-27.81164 -8.5037222 0.49377215
-36.623642 -8.058526 5.6193867
-41.969231 -8.2896938 6.6236925
-33.876411 -10.7692 4.2367206
-40.74361 -8.2254829 5.0091815
-45.623001 -18.177067 0.74153548
-46.025711 -10.7692 8.8346844
-27.884792 -8.881669 4.568378
-34.762562 -8.1635723 5.2290888
-29.438869 -8.834053 -0.18444517
-29.986217 -7.5568638 8.433485
-32.103802 -17.69268 6.2516608
-31.106974 -9.0746841 -1.5233979
-38.820961 -10.769201 3.4949532
-33.860847 -10.7692 0.3401351
-32.103764 -11.719321 6.7314835
-44.194111 -18.33275 -0.3522
-45.623001 -13.442539 1.1508633
-47.028839 -10.3266 8.5945473
-41.582443 -9.4398003 0.529365
-32.168884 -16.715612 -6.6523285
-43.098194 -11.422994 -0.66930002
-38.494598 -7.243175 8.6308298
-39.973289 -10.7692 4.4841843
-32.10355 -14.273101 -0.40702659
-46.369057 -9.7735033 5.1711082
-32.103729 -15.084139 4.5042124
-32.103863 -17.72691 7.9076724
-34.534756 -10.7692 9.1856842
-28.697502 -8.1919727 6.6738596
-45.161522 -9.366272 3.5244355
-31.292881 -7.9839778 6.529264
-38.501869 -7.3473577 8.2463903
-32.1035 -14.511889 -3.0023341
-46.745602 -11.199829 7.8571243
-45.623001 -11.825672 0.037007209
-34.173782 -10.7692 -0.25285438
-32.10371 -15.724326 3.8767126
-38.283451 -9.5524235 0.10905081
-33.301922 -9.6121187 -1.8827693
-40.933056 -9.93155 -1.2861953
-33.190773 -9.584033 -6.2169447
-36.838051 -10.7692 3.3326943
-32.103512 -11.801546 -1.2321516
-25.187851 -8.2822647 3.6313219
-30.682758 -7.6450639 7.8987222
-46.494678 -9.8158646 7.2934656
-32.465492 -10.7692 -0.19659841
-41.995686 -9.405899 0.65505433
-45.172379 -10.7692 6.8373594
-34.69537 -10.345525 -1.7678047
-38.871056 -11.8008 -1.2748835
-45.217983 -9.3853121 0.81770182
-26.752596 -8.258172 0.73440599
-33.695251 -11.8008 -1.7689886
-34.371601 -10.842163 -5.0235028
-41.061787 -9.9797602 -1.4639127
-32.103844 -17.846708 7.3588099
-42.980701 -8.630805 8.5832253
-43.207539 -10.7692 1.388342
-44.694355 -9.2087231 2.5576978
-45.379757 -17.610245 1.8141
-31.042553 -7.2656178 9.0860529
-33.626263 -10.7692 3.5352154
-39.962574 -11.8008 -1.3188303
-32.168659 -10.7692 0.31283557
-32.10384 -14.902383 8.5539522
-32.819305 -9.0989084 2.1835771
-33.659557 -9.7157726 -2.5996699
-44.414639 -10.7692 3.6320338
-46.1898 -11.452055 4.6301441
-34.054508 -11.8008 -2.9828391
-27.685335 -8.0678768 7.4369211
-33.622501 -11.033445 -3.9766288
-42.425671 -8.5146236 3.9446096
-32.103828 -16.995623 7.0142388
-32.103672 -11.166617 3.8530626
-44.603378 -13.994812 -0.3522
-39.981667 -9.6328907 -0.1854561
-32.103619 -13.904186 1.4480156
-45.601528 -10.7692 4.9164085
-47.124298 -10.30519 -1.0977006
-36.530243 -8.7270756 3.1522043
-36.342907 -10.7692 9.0724459
-45.035782 -9.3238649 3.2131162
-42.306774 -10.7692 3.0152268
-38.39431 -9.5250759 0.21012866
-41.094814 -10.7692 7.7984447
-36.721161 -11.8008 -1.1190047
-35.797386 -7.2178335 8.7204876
-44.163624 -13.082958 -0.3522
-28.088669 -8.1121454 -3.550036
-34.610954 -9.98948 -2.2600286
-32.1035 -17.626812 -3.9175515
-44.113201 -19.469551 1.019035
-39.531708 -11.0936 -1.4274702
-45.623001 -10.678211 1.1911179
-27.989737 -9.0585594 3.9244237
-32.103344 -12.152189 -6.9517522
-32.103554 -15.003351 -0.38732284
-41.556786 -11.371496 -1.4133303
-41.336033 -8.9774551 2.2351336
-33.808006 -10.769199 5.7092705
-32.103592 -17.315523 0.48379123
-31.065845 -8.9706392 -4.6855264
-41.73085 -10.769201 4.6047783
-39.844925 -9.4208746 0.5967207
-32.103519 -11.429583 -1.0126951
-46.216656 -9.722106 1.884376
-41.71674 -10.769199 5.0039029
-41.945435 -8.6139278 3.5774753
-32.103626 -15.864084 1.5295527
-33.67601 -8.4577122 4.1421208
-28.156906 -8.5078011 5.7655783
-45.250973 -18.321085 -0.3522
-32.103622 -11.294787 2.3220727
-33.805702 -10.7692 7.9240508
-46.130939 -9.6931992 4.2985716
-28.763124 -8.6399555 -0.27668512
-32.103504 -15.28498 -2.0109234
-43.079712 -9.6538019 -0.25819215
-29.8699 -8.3064289 5.890851
-25.030233 -8.3881426 4.6026549
-46.49757 -9.8168411 5.9817715
-32.205856 -10.769201 -6.5245719
-32.103703 -11.892458 4.8412886
-45.201546 -10.7692 6.060185
-36.677063 -10.534261 -1.4474024
-42.594944 -10.769199 2.7662776
-46.745605 -11.697434 5.3190861
-32.103825 -11.438307 8.5947647
-38.387527 -10.769201 4.3301725
-34.647537 -10.7692 -0.060276747
-32.103672 -12.596766 3.8118284
-32.1035 -17.182516 -3.2360988
-45.342606 -10.692581 1.8141
-42.519806 -10.104849 -1.6339999
-46.1898 -11.217557 8.2094135
-32.103416 -11.323087 -4.3425674
-26.907877 -8.0876465 -0.65748763
-32.103367 -15.841089 -7.130712
-27.013798 -8.3788204 6.5888891
-30.878546 -9.3954315 1.8061888
-46.590363 -11.8008 2.3272078
-30.226696 -9.1030426 3.0292737
-44.113205 -13.06753 0.6265521
-34.47998 -9.6777611 -0.35890019
-32.10376 -17.892242 5.0084968
-40.5732 -10.7692 0.54880619
-32.103828 -16.078184 7.2003379
-25.29216 -8.2922506 7.4580493
-45.343678 -9.4277 2.7300775
-40.86272 -7.9165339 6.6002598
-27.780418 -8.9515333 3.4899004
-33.470051 -10.7692 -5.7021017
-47.019154 -10.3266 7.2008615
-45.568027 -9.6135616 -0.10614629
-46.02195 -10.7692 6.9860764
-44.728661 -10.769199 7.8775187
-44.202644 -9.0428972 4.8494902
-31.408964 -9.2764854 -0.72639585
-32.064514 -9.3493071 -1.3954244
-32.103676 -15.236938 3.0349655
-45.762329 -10.7692 2.2708421
-45.328987 -17.343863 1.8141
-32.103603 -12.151261 1.4973421
-30.829882 -7.6749105 7.7471442
-34.392635 -11.136105 -0.66930002
-27.454937 -7.9596109 -2.4559798
-32.103336 -11.723823 -7.1280036
-46.1898 -10.886207 5.0806794
-32.103714 -14.7004 4.1175427
-33.752579 -11.8008 -1.6679112
-32.103333 -12.696871 -7.3877535
-30.915657 -8.9253578 -2.4501648
-44.726524 -9.2195711 4.8372011
-45.025276 -10.7692 -0.35502249
-44.655945 -11.727129 1.8141
-40.462448 -9.6085234 -0.094850063
-45.879047 -9.6082497 1.9067196
-44.600811 -10.7692 7.6973233
-31.84445 -8.0018749 6.2846856
-35.701904 -10.769201 -0.30251876
-26.920748 -8.0907907 -0.65935755
-32.103699 -13.303517 4.3409176
-34.035847 -9.7378368 -0.42015332
-43.72702 -10.7692 7.0957413
-45.623001 -20.197397 1.4196401
-32.1035 -13.997662 -2.6260781
-38.063049 -9.0225468 2.0640626
-43.345745 -10.7692 3.6972282
-45.485359 -17.193844 1.8141
-33.432549 -10.7692 -0.0062570572
-34.532173 -9.9354153 -1.265166
-32.309841 -8.3672085 4.8722568
-39.583603 -9.8109703 -0.84316361
-46.74229 -9.8993711 6.5082102
-33.335724 -10.7692 -4.1452241
-46.1898 -11.397114 1.6726224
-32.169556 -9.3210821 -1.764662
-42.081348 -9.5008717 0.30471402
-34.371601 -11.335415 -3.7806053
-34.085541 -9.8409138 -5.3071389
-44.595295 -12.550276 -0.3522
-32.103813 -17.364305 6.6248856
-46.745602 -10.433304 5.1646309
-34.342667 -11.8008 -4.0874953
-31.334852 -8.2487946 5.6034169
-33.596264 -10.769201 8.8157434
-34.608246 -10.34436 -5.2575254
-32.10334 -12.467665 -7.1274786
-32.1497 -17.527866 -6.3491745
-32.378819 -10.7692 6.7397051
-26.751842 -7.9282093 -1.431675
-43.404339 -10.7692 3.0859721
-32.1035 -17.716228 -3.1872585
-39.423496 -10.7692 5.5993695
-38.231232 -10.769199 3.0437744
-37.308495 -10.7692 0.16966671
-44.323662 -15.903044 -0.3522
-34.92131 -11.351233 -1.4596617
-38.930862 -7.2650299 8.568965
-47.069511 -10.009722 0.72271001
-34.35181 -9.6584158 -0.25145769
-44.690269 -19.887888 -0.3522
-41.417946 -8.7193346 3.1877599
-32.103531 -12.546975 -0.89584672
-30.400833 -7.9171495 7.055275
-35.934284 -10.769199 3.8195715
-27.449478 -7.8563194 8.2436752
-32.103653 -17.380009 2.1042705
-28.750505 -8.0822735 7.0340405
-27.582214 -8.4914713 6.0124292
-42.838428 -9.4690428 0.42325151
-32.103363 -12.471506 -6.3185244
-40.459984 -10.7692 0.25036159
-32.541599 -17.039183 -4.7695794
-33.930634 -11.8008 -2.1052718
-33.543446 -10.7692 6.6896477
-29.738527 -9.1226807 1.1869704
-41.371872 -10.7692 6.8169737
-32.923576 -10.7692 -4.843277
-36.822754 -10.769201 4.8621349
-35.053478 -9.9445124 -1.3424318
-44.113205 -14.817811 0.5166021
-40.122284 -10.7692 2.2773159
-32.103371 -13.210403 -5.9511595
-34.371601 -10.512043 -6.8203158
-28.327858 -8.1831131 -5.8430071
-36.48439 -11.009942 -1.4487478
-44.113201 -10.45899 0.8595227
-30.235481 -7.4860816 8.594553
-34.371601 -10.744406 -3.9621823
-45.295689 -12.594932 1.8141
-44.272263 -11.164975 -0.66930002
-46.745602 -10.594096 0.45128059
-38.443527 -10.769199 8.6279278
-42.546532 -9.7450628 -0.59572303
-30.117512 -7.7099972 7.8626032
-38.472435 -10.7692 5.9127393
-40.511673 -9.154294 1.5813944
-32.103836 -15.18242 8.198349
-31.964029 -9.2512169 -1.8638619
-46.745602 -11.238609 -0.86144853
-44.113205 -11.386967 0.11655974
-29.181721 -8.4294662 -6.3178554
-47.035324 -10.3266 -1.558831
-32.103718 -14.435235 4.2059736
-42.041958 -8.3142223 7.9005861
-44.738121 -10.7692 2.4493294
-45.623001 -19.397774 1.1870626
-32.1035 -15.120205 -2.0567756
-41.311954 -10.7692 -0.6616205
-35.179459 -10.632646 -1.4578593
-44.113197 -11.046803 0.016330654
-32.103523 -14.114651 -1.1045593
-33.424553 -10.769201 6.0031166
-44.57737 -16.346861 -0.3522
-44.328346 -10.769199 3.6725838
-44.318489 -10.7692 0.91273195
-45.623001 -11.994651 1.4373077
-46.15757 -10.7692 7.1230741
-42.276546 -8.4360294 4.2344227
-44.274845 -11.8008 -0.67555445
-41.908054 -8.4835377 4.0585818
-44.599518 -11.259815 -1.3920847
-37.61002 -7.7546406 6.7421823
-28.559841 -9.0377579 2.6921108
-32.10339 -11.897295 -5.3923988
-32.103817 -14.659903 7.8793683
-32.103325 -11.061529 -7.7342191
-32.103775 -16.855701 5.4938693
-38.361908 -10.7692 5.3523083
-34.642704 -8.7490711 3.0683432
-31.690231 -7.5494261 7.8938999
-40.107025 -8.0277538 5.7379193
-32.103798 -17.659821 6.00073
-32.103783 -11.469132 7.2970762
-45.623001 -18.272482 0.45064437
-36.956284 -10.769199 4.8409195
-32.541885 -9.5811615 -0.7079649
-44.563759 -14.648705 -0.3522
-27.710438 -8.0051699 -5.7120395
-32.103539 -12.904105 -0.58608037
-26.851877 -8.5438766 2.4373181
-34.371601 -11.650393 -8.5175343
-32.589966 -7.8312826 6.624866
-28.191023 -7.6983871 8.5415726
-42.036697 -9.5710783 0.045576453
-32.103317 -11.516294 -7.8896203
-41.981781 -9.6108513 -0.10126951
-33.76899 -11.8008 -6.4247551
-32.770447 -7.6155591 7.3078723
-44.113201 -17.258566 0.99460554
-45.800266 -10.7692 5.0951486
-30.593704 -8.8345013 -4.5132637
-36.532623 -10.7692 6.6632605
-40.190651 -10.769201 0.20161492
-38.716366 -9.9003935 -1.1743891
-44.165886 -10.7692 0.082563773
-31.834419 -7.4391661 8.2257662
-45.248974 -10.7692 6.5626211
-35.94294 -7.1343317 9.0288324
-32.31974 -17.438074 -5.3185492
-43.483891 -10.7692 5.0100784
-25.803955 -8.2533188 2.3628654
-39.46225 -10.769201 3.1476924
-28.376015 -8.9275675 4.2473898
-45.132946 -10.890636 1.8141
-45.623001 -15.863729 1.7165885
-32.103374 -11.568107 -5.8487005
-44.463493 -10.94863 -0.66930008
-32.103855 -17.369041 7.7949815
-42.625633 -9.9973068 -1.5264251
-38.665421 -9.6469774 -0.23931831
-32.429585 -7.6417785 7.3306403
-33.622501 -10.823385 -3.6086802
-27.445744 -7.9277315 -4.3843608
-28.009663 -7.9515328 7.7299919
-32.103542 -10.792246 -0.24362329
-43.131622 -10.7692 8.6127558
-37.21962 -10.7692 8.2109776
-33.878643 -10.7692 2.2232506
-46.1898 -10.918599 8.4120846
-46.829277 -9.9287071 0.29388952
-43.8349 -9.9144745 -1.2190369
-45.407108 -9.5556822 0.10720927
-32.103756 -15.641999 5.1187072
-44.197601 -11.238825 1.8141
-33.769497 -10.7692 3.3727417
-27.725643 -8.0073948 -3.3351641
-32.103477 -11.727372 -2.5013106
-32.103439 -13.853577 -4.3558006
-43.377991 -8.7647896 6.9236069
-34.930855 -11.324256 -0.66930002
-34.056576 -7.2332249 8.6612024
-29.357735 -8.1941452 6.4473915
-44.382568 -11.8008 -1.1925737
-25.944622 -7.7368908 -1.2755452
-32.59288 -9.6638527 -0.25405824
-37.771805 -9.7931528 -0.78000599
-32.103771 -12.087699 7.008359
-45.623001 -17.900629 1.384147
-45.273045 -19.528408 1.8141
-31.638037 -7.2380953 8.9833155
-46.745602 -10.462973 0.66366398
-32.69693 -10.7692 8.9233131
-33.759418 -11.8008 -5.8621497
-45.623001 -10.793817 1.0792829
-44.260017 -19.834084 1.8141
-43.07214 -10.769199 1.6637471
-34.187218 -11.8008 -6.6929522
-32.103638 -13.777284 2.0614529
-44.992218 -11.162434 1.8141
-45.421288 -9.4538746 5.5603523
-35.329498 -11.186785 -0.66930002
-29.446388 -8.5050201 -5.5748405
-34.371601 -11.494817 -3.0929887
-43.15387 -8.6892052 5.688055
-37.497677 -8.2648411 4.8593016
-30.81848 -8.898838 -4.0709839
-32.103825 -14.379196 8.4118347
-44.113201 -11.769565 0.43158275
-46.141453 -9.696743 6.1006613
-33.553093 -10.7692 -8.6026382
-41.812965 -10.7692 1.1212171
-46.745602 -10.52492 0.45829713
-38.235313 -10.7692 6.2039528
-46.745602 -11.419327 4.4969335
-32.1035 -13.175352 -1.8183738
-45.623001 -18.023155 1.2906854
-36.305195 -9.5210876 0.22185946
-39.458908 -11.8008 -1.2189685
-45.034821 -13.285354 -0.35220003
-34.900604 -7.2941532 8.4375753
-41.038303 -7.9757471 7.1616144
-41.18755 -11.50459 -0.66930002
-32.851845 -10.7692 6.5350547
-45.972919 -9.6399069 4.7145286
-35.068474 -10.769201 7.974813
-32.103794 -15.506933 6.2937088
-30.099085 -8.6936913 -6.3319292
-41.295338 -11.174269 -1.4151558
-32.541599 -17.998316 -4.2364941
-32.103565 -10.820265 0.64464545
-42.43174 -9.7432938 -0.58936137
-45.892658 -11.800801 -0.77177292
-45.414585 -12.237964 1.8141
-43.25185 -10.7692 1.282038
-36.799599 -10.769199 0.28620613
-32.70697 -8.7956676 3.2650852
-41.039589 -11.698758 -1.4169416
-38.860313 -10.7692 7.7919016
-32.417904 -10.769201 2.7384703
-43.213207 -10.7692 0.40510967
-37.723366 -7.7391648 6.7994499
-28.044092 -8.6379366 5.3548574
-42.197292 -10.7692 5.7289758
-46.943008 -10.326599 8.0179825
-28.384094 -9.1095448 3.4712472
-45.430408 -10.532182 -0.3522
-34.917183 -8.7791338 2.9577971
-27.456594 -8.8901854 3.6536946
-46.639023 -9.8645449 8.3634138
-44.302288 -10.7692 0.73239636
-31.598671 -7.7465272 7.2455282
-44.113197 -11.904619 1.1558906
-37.327473 -10.646168 -1.442861
-34.173332 -7.8358135 6.4377255
-45.464367 -9.4849758 0.36821193
-32.103706 -15.57393 3.7911596
-44.113201 -15.857422 1.4665462
-35.174171 -10.7692 1.4246624
-36.164223 -10.7692 6.7743068
-43.37299 -10.769201 3.1577229
-42.820278 -10.7692 2.236825
-46.1898 -11.227123 4.3550715
-41.899326 -10.7692 4.8409877
-42.340057 -10.7692 0.20657055
-31.511305 -9.3838396 1.6362319
-26.564566 -8.1270676 0.20232797
-32.103539 -13.650919 -0.78976846
-33.527512 -9.6825981 -7.9589715
-44.113201 -12.931727 0.14371312
-32.103516 -15.695002 -1.536541
-44.376507 -9.3552036 0.84553248
-42.976078 -8.6732645 3.3599894
-28.029716 -7.9207468 7.8293552
-38.030891 -8.2965994 4.7428708
-26.54603 -8.1771812 7.4384098
-45.554596 -18.792171 -0.35219997
-32.3218 -17.772814 9.5123835
-37.034695 -8.4613018 4.1336699
-28.470453 -8.2246513 -6.3614631
-46.1898 -10.838765 0.44518048
-44.113201 -14.115864 1.3310931
-36.433441 -11.8008 -0.78881955
-32.778568 -8.6882238 3.6113319
-33.760582 -8.7645903 3.0226307
-32.391876 -10.769199 0.32755435
-32.103783 -13.742977 7.2271543
-35.833199 -10.179541 -1.6339998
-34.022167 -11.8008 -8.6399794
-38.956703 -8.3700628 4.473105
-31.437866 -7.3468089 8.6753407
-28.420067 -8.920249 2.1648774
-40.727425 -10.7692 3.5028324
-41.847965 -9.2377129 1.2754786
-32.1035 -14.662704 -2.2438641
-32.164188 -9.2894564 -7.4229589
-44.565155 -15.611237 -0.3522
-46.87056 -9.9426289 7.9631987
-33.856777 -9.2999239 1.1472406
-36.016346 -11.57147 -1.4520159
-34.502876 -9.9590082 -2.9849443
-40.348885 -7.743248 7.4385781
-40.860455 -7.9157701 7.5775261
-37.372391 -10.7692 2.2098327
-27.777859 -8.9919977 3.7601731
-39.400497 -7.4234114 8.5680552
-32.103603 -13.108124 1.1721394
-32.103512 -15.731221 -1.7076302
-46.908844 -9.9555407 2.3441277
-32.103374 -12.604144 -5.9036508
-44.424496 -11.503645 -0.66930002
-35.694771 -7.5206013 7.6030827
-36.82177 -11.8008 -1.2072419
-40.419743 -11.612859 -0.66930002
-32.141647 -9.2806082 -4.822279
-36.802719 -10.7692 1.5511074
-31.970915 -7.7197104 7.2144089
-33.031883 -10.7692 -2.2994869
-46.745602 -11.454679 8.0547686
-35.645615 -7.4963799 7.6923943
-39.096348 -10.7692 5.5537825
-43.239727 -10.7692 -0.57397687
-32.103474 -11.814924 -2.6187892
-33.997879 -9.8187256 -8.6835747
-35.213383 -8.4407635 4.2068577
-39.646866 -10.769201 3.7404063
-26.684431 -8.2706184 0.9354654
-32.103664 -11.369452 3.6518373
-32.103836 -10.907131 9.0236874
-32.103493 -13.312729 -2.7643843
-32.200317 -16.733126 -5.744092
-25.689196 -8.6086092 4.8974876
-44.887337 -15.447699 -0.35219997
-30.260159 -9.0639496 3.1527958
-32.103672 -16.502003 2.7273486
-32.103447 -13.934082 -4.2164507
-31.341551 -9.2648745 -0.68468386
-29.412615 -8.5566864 5.1807356
-32.103821 -15.371964 7.3715034
-35.473122 -7.1516781 8.9641466
-43.073315 -8.6620388 5.176959
-44.571636 -19.356377 1.8141
-43.675819 -10.7692 2.0459933
-37.079739 -11.18646 -0.66930002
-32.103752 -16.345995 5.021481
-32.103577 -16.564865 0.11310303
-34.807022 -9.827713 -0.9117772
-36.280518 -8.8731737 2.6127234
-35.674644 -7.9809866 5.9041615
-46.122005 -9.6901855 2.2782445
-34.36937 -11.8008 -1.6521869
-43.742798 -10.7692 2.8404796
-38.136044 -8.211937 5.0554385
-42.660896 -11.8008 -0.79769564
-40.365189 -8.7227154 3.1737761
-40.454559 -10.7692 0.047270417
-32.103424 -10.865614 -4.2016711
-45.623001 -20.367397 0.89389819
-35.344482 -8.3319521 4.6085749
-32.655994 -10.769201 -3.404799
-46.1898 -11.371396 7.2606058
-30.066507 -8.7759867 -1.6643666
-45.623001 -19.076262 0.21597195
-34.062714 -10.7692 0.96765006
-33.664932 -10.7692 8.7067833
-35.446266 -10.7692 5.1364565
-45.293869 -10.769201 4.1290631
-40.615749 -10.7692 7.0273056
-46.455616 -11.8008 2.6476297
-40.590557 -10.7692 5.6872902
-26.005377 -8.3911972 2.9160075
-31.108315 -8.2282724 5.7492256
-29.924175 -8.9938726 0.015953541
-46.1898 -11.22695 0.46066862
-44.113201 -13.433968 1.0860946
-46.577881 -9.8439255 -0.1689449
-39.83445 -7.5697589 8.1589355
-42.923111 -11.8008 -1.153175
-31.358353 -9.055171 -5.0012455
-41.350788 -11.180931 -1.4147687
-35.492294 -9.3083839 1.0056078
-32.103653 -12.905884 2.7455971
-45.570679 -17.754288 1.8141
-32.103508 -15.18841 -1.7683786
-40.037659 -10.7692 -0.51994568
-35.375252 -10.769199 0.46943694
-31.042109 -8.5262947 4.7449121
-28.065889 -8.9541216 3.0072687
-40.665947 -11.8008 -1.0631591
-45.388905 -9.4429531 3.2564664
-37.353416 -11.8008 -0.97794449
-38.980698 -10.769201 1.7954384
-39.402573 -9.2224817 1.328186
-29.891848 -9.1189632 0.89419854
-32.103424 -11.45767 -4.0966158
-37.619057 -8.9977875 2.1547949
-41.628799 -10.7692 6.0879245
-43.736736 -10.769201 6.9057131
-46.745602 -10.923614 6.5578804
-31.418911 -8.5181656 4.6479278
-40.159321 -9.4846859 0.36169541
-44.249897 -9.0588322 2.5908842
-41.921616 -10.334723 -1.6251608
-25.495163 -8.2375708 2.7998776
-44.113201 -12.977816 0.34788847
-39.266273 -7.7464256 6.7748594
-44.072578 -11.76056 -1.395764
-37.539284 -10.7692 0.099345684
-34.813721 -9.9855127 -1.4940696
-27.060036 -8.9020061 4.7719011
-36.158104 -10.769199 6.0309691
-38.415138 -10.7692 8.3878527
-32.103668 -17.820847 2.4223545
-44.113201 -19.900898 0.23104408
-34.842346 -9.5436363 0.13655901
-24.267582 -8.2150545 4.8005323
-32.363922 -17.628025 -4.1303215
-44.113205 -16.425739 0.46627802
-32.103439 -13.066381 -4.0019059
-32.10368 -16.469017 2.9160078
-39.192932 -10.7692 1.0375007
-34.371601 -10.680387 -2.4087844
-42.523952 -10.7692 2.0503294
-31.81599 -7.4842587 8.0766001
-46.677338 -9.8774662 8.5405111
-26.387875 -7.896883 -1.0004115
-46.745605 -10.926373 5.7275219
-45.619385 -9.6481028 -0.23353577
-46.745602 -11.450275 4.7223897
-27.329998 -7.8939819 -3.9285767
-34.051453 -9.8282852 -2.2038958
-34.619144 -10.344506 -3.7648058
-27.405697 -7.6361222 9.0164709
-32.103634 -15.244881 1.7981861
-34.978977 -11.060073 -1.4592592
-43.186844 -8.700326 7.237545
-31.013908 -9.34799 1.9246612
-46.421715 -9.7912598 8.5101967
-44.113201 -15.455233 0.98327172
-38.707569 -9.5438128 0.14143455
-44.32246 -12.867023 1.8141
-39.375828 -9.2091017 1.3775234
-35.123722 -10.547354 -1.4582484
-45.623001 -12.622349 1.6778051
-30.741909 -8.8798027 -7.4021101
-39.523979 -10.7692 0.96787393
-43.398499 -8.7717047 8.0762157
-28.367373 -8.1941032 -5.4124746
-34.888992 -9.5271263 0.19755328
-34.614731 -10.7692 4.5397687
-32.93399 -9.507206 -3.0493023
-40.901745 -10.7692 4.2082829
-35.732414 -11.025698 -1.4539983
-36.330276 -11.117326 -0.66929996
-34.205467 -11.8008 -7.4747114
-40.544994 -10.7692 3.0092239
-30.404964 -9.0035372 -0.7620548
-37.837654 -11.006641 -0.66929996
-40.162277 -10.7692 5.9065247
-31.743462 -8.101759 5.9742227
-38.792427 -10.7692 3.9301152
-32.103455 -15.906069 -4.8519468
-32.103584 -16.223188 0.32079554
-32.103745 -12.131884 6.1870923
-32.103325 -13.557699 -7.5304389
-31.475071 -8.4528742 4.8541365
-42.283379 -8.9443598 2.358618
-32.103695 -14.169521 3.6199834
-38.534142 -10.236088 -1.6339999
-33.622501 -11.378309 -2.339292
-46.709332 -9.8882551 6.7822747
-44.273952 -18.788189 -0.3522
-31.280693 -9.0325289 -4.697649
-24.645687 -8.5318613 6.2197385
-32.689682 -10.7692 0.76243615
-40.433102 -7.7716479 8.4672108
-32.355244 -8.4890985 4.4374537
-37.571075 -11.8008 -1.0545001
-34.04504 -11.8008 -3.0088506
-37.755775 -7.476862 7.767436
-37.181725 -9.6254301 -0.16192722
-39.385262 -7.6688213 7.0614038
-42.150372 -9.258214 1.2002567
-32.103676 -11.068543 3.9146523
-31.003691 -9.2162504 -0.41272604
-32.103745 -16.606445 4.7538757
-35.405518 -9.3472166 0.86218357
-32.103619 -13.073641 1.5740079
-43.496906 -8.8048916 7.3846931
-35.679424 -10.769201 1.7465076
-43.013905 -8.642004 4.0031462
-40.874588 -8.7680397 3.0072494
-42.301399 -10.7692 7.9387655
-45.623001 -17.670767 1.068969
-35.955662 -8.8041487 2.8669748
-40.49427 -8.6477938 3.4504304
-44.612774 -16.10253 1.8141
-32.521637 -9.3926821 -7.727212
-42.287525 -10.7692 3.329051
-37.522102 -7.7178631 6.8777671
-44.113205 -14.528591 0.61123675
-43.51717 -8.8117256 5.1635852
-32.103794 -13.900125 7.5782318
-32.10376 -14.14676 5.9831638
-32.103355 -14.636628 -6.8352017
-34.629414 -10.7692 7.6645889
-43.474171 -9.5383673 0.16834086
-31.112095 -9.2257233 2.3131323
-45.881893 -10.7692 2.8787928
-34.220726 -9.8822594 -7.9679842
-32.103573 -12.750579 0.37787223
-32.561222 -10.7692 -2.9433069
-45.501114 -17.313862 1.8141
-34.430252 -10.341984 -7.262156
-41.936066 -9.6641617 -0.29805982
-32.103798 -15.84393 6.3269129
-45.909618 -10.404128 -1.3829371
-43.890007 -10.7692 0.88720179
-32.103661 -11.915828 3.6366439
-44.849789 -14.277909 1.8141
-43.297348 -9.2758713 1.1367418
-38.875408 -9.2494545 1.2278986
-44.887371 -10.7692 1.395918
-39.691608 -9.5026054 0.29490101
-33.465378 -9.8197556 -0.75706249
-46.745598 -11.400494 1.2267647
-32.103363 -11.042612 -6.3577852
-45.483578 -9.4748812 7.5522332
-45.623001 -15.752547 1.6235948
-37.473312 -10.7692 5.3337307
-32.103809 -17.315269 6.50736
-32.119095 -17.692019 -3.9937968
-32.1035 -16.564486 -2.2777667
-44.463253 -11.8008 -1.2477117
-36.487293 -9.0677872 1.8948671
-27.921928 -7.6574888 8.7716627
-39.386902 -8.2503853 4.9153442
-34.162926 -11.8008 -8.0623016
-44.414364 -9.1902142 1.4544237
-46.1898 -11.246115 5.3877702
-32.931694 -9.5074139 -4.0076294
-29.197704 -7.4500203 9.0629501
-32.522579 -9.5916233 -0.60545456
-32.1035 -14.949121 -2.3767622
-30.712999 -9.0125685 -1.2418647
-32.103821 -14.943098 7.9049492
-41.280918 -10.7692 0.093026221
-36.57386 -11.8008 -0.98356026
-29.837898 -8.616456 -4.1122198
-45.057167 -19.230419 -0.3522
-32.10355 -10.806254 0.13496587
-39.556938 -7.9930058 5.8653579
-45.054962 -19.224346 1.8141
-28.092842 -8.7095623 1.3536856
-33.770325 -10.7692 0.79443485
-38.426521 -7.7326722 6.8244138
-34.151035 -9.7904329 -0.63947701
-32.103588 -14.660992 0.59263051
-35.283245 -9.7966108 -0.79632258
-30.52124 -8.8126144 -3.3917046
-28.552967 -8.2467842 -4.5589046
-42.853485 -10.7692 -0.43574512
-36.862545 -7.1920943 8.8169909
-46.745602 -11.228832 0.41854927
-31.535742 -9.5693188 0.97522378
-46.075546 -11.006588 -0.66930002
-46.745602 -10.380626 3.9454005
-34.405403 -11.596759 -1.463264
-32.103359 -14.224905 -6.6278186
-47.124298 -10.315331 1.7551562
-34.371601 -10.440435 -1.7018638
-39.695751 -9.1527958 1.5857563
-41.484222 -10.7692 3.6560917
-45.623001 -11.704964 0.29569918
-32.541599 -17.209736 -4.5228229
-29.813715 -7.7767253 7.7335792
-42.713844 -11.460013 -1.4052513
-38.985405 -10.7692 0.4814055
-27.471409 -8.6478243 2.0357945
-32.1035 -15.908618 -3.5464303
-32.103325 -11.277229 -7.623898
-32.103844 -14.575676 8.8691578
-37.35405 -7.5704165 7.4216285
-32.103451 -12.196699 -3.4241645
-34.27174 -9.8955679 -6.4398351
-32.103622 -14.993923 1.550189
-40.582161 -10.7692 0.85480082
-32.444611 -8.8252764 3.2501442
-32.103642 -16.100628 1.9305482
-32.103832 -16.650606 7.1923542
-32.244949 -16.758039 -6.8723431
-44.923603 -14.603035 1.8141
-34.371601 -11.304302 -8.1178446
-46.1898 -11.603055 1.2255344
-46.932076 -10.326601 8.7690172
-36.901943 -10.7692 4.6456466
-29.333771 -8.3960381 5.7600965
-32.10379 -16.773182 5.9185958
-33.73341 -9.7390671 -4.8342199
-43.53318 -11.334007 -1.3995303
-43.963997 -10.7692 5.1224995
-34.371601 -10.618428 -6.0297475
-32.103325 -14.120943 -7.4585867
-35.031868 -10.769201 6.5669641
-36.448513 -10.7692 8.5736475
-44.538002 -10.329692 -1.6339999
-44.831169 -10.769199 1.2599916
-36.291695 -10.7692 7.4487028
-32.103764 -17.099798 5.1474829
-38.185654 -10.7692 5.6155725
-36.386391 -10.60258 -1.449432
-45.485718 -10.769199 7.4496775
-46.745602 -11.133198 0.6275779
-38.439148 -7.6937504 6.9680595
-39.969772 -10.7692 3.4997947
-37.993439 -7.3090906 8.3868732
-30.65926 -8.6683264 4.382791
-33.098251 -7.4266009 7.9462471
-37.106636 -9.1036186 1.7635276
-39.076214 -10.7692 6.5404
-35.423725 -10.7692 2.2074301
-36.810089 -10.7692 7.6247239
-44.113197 -14.49533 1.2690604
-46.189796 -11.720024 5.0293956
-44.532516 -13.954365 1.8141
-34.71661 -10.24944 -8.9197264
-30.807528 -9.0558834 -1.1227881
-38.101871 -10.769201 4.5340228
-42.494041 -10.769201 4.616673
-38.873825 -10.860223 -0.66930002
-32.10355 -12.180031 -0.27673674
-42.641426 -11.744278 -1.405757
-35.908199 -10.7692 7.5751262
-32.103592 -14.745828 0.66396463
-44.596722 -15.041288 1.8140999
-46.993118 -9.983963 -1.3233256
-32.103485 -13.870921 -3.231945
-42.935818 -10.7692 7.2922444
-32.103577 -10.825086 0.95039558
-41.663544 -9.1869812 1.4624176
-34.875389 -10.341221 -1.4803677
-44.206642 -17.595255 -0.35220003
-32.103367 -11.040174 -6.2344952
-27.985161 -8.0801105 7.2953444
-31.375427 -8.4358549 4.9457922
-25.851841 -7.9388037 0.21313071
-42.788452 -11.8008 -0.87643826
-37.673111 -9.2201939 1.3341582
-43.051258 -8.8984737 2.5290415
-45.623001 -11.14307 1.8023818
-32.103558 -15.520324 -0.34546977
-34.176468 -9.864686 -2.6413252
-46.745598 -11.543093 8.2146502
-28.174486 -8.1377668 -4.5482197
-46.729336 -11.8008 0.52557641
-38.550755 -7.6287537 7.2080631
-32.103439 -12.008017 -3.5692387
-41.288319 -10.7692 3.867322
-39.740379 -8.2230873 5.0165849
-32.103516 -15.798046 -1.6296496
-44.380493 -9.1028719 5.8498983
-32.103825 -11.600101 8.6379414
-46.745602 -10.450171 1.4333732
-45.623001 -19.156677 1.5835197
-34.371601 -11.057291 -4.5685701
-25.931089 -8.1837883 7.6196222
-44.789703 -13.390066 -0.3522
-42.78191 -8.5637646 4.7923145
-36.539814 -10.226853 -1.6339999
-32.103523 -12.714317 -1.0918707
-38.872433 -9.6765862 -0.34828359
-28.396524 -8.655592 5.1771631
