# .PCD v0.7 - Point Cloud Data file format
VERSION 0.7
FIELDS x y z
SIZE 4 4 4
TYPE F F F
COUNT 1 1 1
WIDTH 1565
HEIGHT 1
VIEWPOINT 0 0 0 1 0 0 0
POINTS 1565
DATA ascii
62.229507 17.12813 -12.532161
57.034401 22.570543 0.92396474
55.59214 24.014156 -11.523808
55.434898 8.3548889 -4.1017933
55.434898 7.9350548 -3.100738
58.671978 20.934517 -10.778596
55.278599 2.3498859 -13.570529
55.24284 24.362255 -3.6208901
55.434898 8.8021498 -6.1433616
61.74297 16.461651 -7.8850002
58.712952 15.22846 -11.869515
55.434898 11.694277 -12.899914
55.881969 23.723532 -5.9305196
56.031906 23.574648 -12.944018
53.865444 25.739883 -6.0998011
54.023678 25.581148 -2.6646538
59.383377 15.230339 3.7944126
57.483452 22.121557 0.086648107
60.223511 19.381897 -2.1508741
55.434898 13.179935 -4.0311217
55.435459 13.470594 -12.348163
62.228771 17.332132 -7.5552049
58.739433 15.228535 -12.154578
58.143963 21.461142 -0.79265702
54.541096 25.063887 -3.3396893
54.742516 24.863653 -11.174362
59.200954 26.973404 -6.635016
59.163589 15.229721 -9.6824865
58.326111 21.280037 -8.6676798
60.687794 18.917681 -0.11308467
55.434898 8.9774332 1.7130966
55.434898 13.006347 -7.7494545
58.82996 28.610989 -7.2401819
57.7939 25.049374 -1.4195957
55.278603 7.4525938 -13.432296
57.858879 21.748402 -16.60181
55.434898 5.118319 -9.4817848
55.434898 8.7344904 -8.8058147
55.278595 4.1408811 -12.386115
55.434898 7.4521937 1.3748895
60.698196 15.234013 -16.270184
57.968815 25.173672 2.3606863
55.434898 5.0683856 0.9503876
58.774979 15.228636 -4.3963509
58.851452 15.228851 -3.564373
61.721962 17.883665 2.0799174
56.619476 22.986126 -6.1125736
55.434898 9.2037687 -3.0138659
62.229843 16.792881 -14.792711
58.179604 15.226967 -16.267365
55.434898 2.1701574 -7.7031794
58.594147 26.861666 -8.5376015
58.584488 15.228103 -6.536829
61.122398 16.246778 -2.0905371
59.659222 19.947594 -12.263328
56.674305 15.222761 -11.52503
55.434898 12.762634 -1.5370545
55.435928 13.951321 -13.7321
55.434898 13.366507 -8.863472
58.153526 24.447718 -5.3931646
57.879906 28.099236 -5.2286115
61.714958 16.455488 -10.856943
55.700592 26.788635 -8.2131329
59.469337 20.135958 4.4478488
55.434898 10.864235 -0.55419219
55.434898 12.585959 -4.6083155
59.686825 19.918503 3.826659
57.873825 21.731239 -0.83019167
61.339054 18.266514 1.5398686
59.104198 28.437016 -6.3310971
56.285988 23.320007 -8.9909925
60.306355 19.299206 -3.4142907
59.296387 15.230092 -10.478864
56.321404 15.221779 1.7423235
60.711212 15.23405 1.3489794
58.153534 21.907967 -1.436942
61.531723 18.07469 -8.3268156
55.111088 24.494446 -6.6912971
55.434898 6.0114126 -5.2671504
56.668377 15.222748 -3.3148775
55.434898 12.227778 0.18456197
60.824799 15.234367 -6.6723733
61.122398 16.000357 2.5473998
55.434898 14.143893 2.5403724
56.728455 26.920605 -8.5140915
55.435341 13.943887 -9.7121124
55.434898 4.0919027 -2.9764082
55.434898 14.897944 2.0784204
58.153511 26.113689 1.4126101
53.761986 25.844194 -11.918003
55.434898 3.3532548 -6.1969385
56.285519 23.319317 0.067546427
55.434898 10.383245 -7.0244365
59.651279 15.231087 -2.9044495
58.335468 21.269667 1.6496756
55.278595 6.022965 -12.77072
62.229137 17.224957 -10.022264
58.153511 26.589632 0.47077143
55.434898 12.629812 -10.123781
56.041988 15.220993 -15.457705
58.153503 25.567924 0.48690531
55.434898 13.054872 -0.47026563
57.7939 22.736641 -0.69941688
55.434898 8.6259327 -4.3303366
58.523819 15.227933 -6.8526073
56.962357 27.664497 -8.5745859
55.434898 4.3221521 -3.559458
61.111721 15.235169 -16.315269
55.434898 12.619866 -1.9356514
57.7939 24.116219 -3.3261571
57.053009 27.258602 -8.3296204
62.016327 17.590542 -11.06229
61.364674 18.240904 5.4376831
54.080147 25.526476 -14.686322
58.821175 26.970655 -7.6310139
55.435219 14.031757 -8.540143
60.10611 19.500223 -8.6973467
58.250587 15.227169 -10.948892
62.228584 17.203056 -6.2805037
61.356438 16.376598 -10.717215
56.746727 22.858549 -3.8581007
55.435631 14.008493 -11.45104
55.43491 14.281046 -5.4406209
57.7939 25.293713 -0.64390093
56.405888 15.222015 1.5790333
54.437519 25.169079 -14.290394
59.588013 27.848576 -2.8676944
58.430988 21.174158 -1.1739931
56.901726 27.190384 -8.3165913
55.434895 15.038759 -2.2405729
55.932076 15.220689 -3.7297297
58.15358 23.603682 1.6456022
58.153595 21.953728 2.5256035
60.061329 19.544598 -6.0127072
56.766903 22.838076 -1.8325124
55.434898 12.726171 1.7750226
56.740952 15.222949 -10.867605
59.230793 28.330122 -5.1209135
58.163433 15.226928 -0.66234428
55.867569 15.220507 -6.9821248
55.434898 7.4127293 -1.5681056
55.434898 12.081518 -4.8511591
59.623543 15.231007 -9.7962923
62.018486 16.522131 -13.138312
55.435043 14.248517 -6.4814701
61.122398 16.17749 3.8487685
57.776382 15.225842 -11.430023
56.119617 15.22121 -12.891721
55.464291 15.21938 -7.1920128
58.321812 15.227367 -12.886755
61.122398 16.185688 5.3523798
61.561817 18.043783 2.6861856
58.842407 26.486149 0.91582489
57.938011 21.667463 -4.4225359
56.108788 15.22118 -10.762115
55.434898 2.8527808 -5.0054483
55.278595 3.2029185 -12.605893
59.216049 27.281467 -0.67281389
59.467506 20.137794 -2.1703556
58.617062 27.687845 -5.2748609
58.153599 21.59675 -5.828598
60.092381 19.514593 -13.064518
60.355419 15.233054 -5.3654909
55.267952 26.892082 -8.4352045
58.042831 15.226589 -6.492641
55.434898 3.2324114 -3.2075379
60.950619 15.234719 -16.792542
55.434898 14.873547 3.5993757
55.278599 9.0839462 -15.000508
56.205318 24.1063 -6.2185001
55.434898 14.108767 5.4321413
61.248604 18.358135 -10.704289
57.41341 22.192247 -5.9969578
58.830238 26.791864 -3.9819908
55.210541 24.395393 -9.3145142
62.181999 17.424774 -10.313094
56.875519 24.045473 -6.2185001
59.222382 15.229889 -0.87058473
58.153549 24.863564 1.6099708
61.750797 17.854887 -3.2523031
55.434898 10.052281 0.9111793
55.434898 9.7501173 -0.37612379
59.57251 20.034893 -16.260851
60.439568 15.233292 -1.3915493
55.434898 11.789062 3.5412524
58.131897 22.408314 2.4900029
57.16473 22.440659 -4.3540273
56.37434 23.23173 -9.4303551
60.401588 19.204876 -9.398181
55.434898 4.1692929 -0.92314631
55.434898 12.467208 1.7006574
61.122398 15.616442 -1.1147618
60.263901 15.2328 3.9854302
55.434898 9.9166212 -6.3195648
59.995209 15.232046 -13.134929
55.278595 9.1262894 -15.934364
58.052765 27.935289 -2.4513836
56.935623 22.66976 -4.4392724
57.7939 23.311646 0.067539722
55.278603 9.407011 -14.455174
55.691502 10.33145 -11.590186
60.177498 15.232556 -12.40032
54.232002 25.37418 -11.624425
58.181267 27.805029 -3.7945945
60.316162 19.289255 5.2125463
55.434898 8.8258066 0.44532025
58.153538 22.33087 -2.023298
55.434898 12.300066 2.4816508
55.530167 24.075388 -6.5230598
57.930084 21.675953 -8.1783886
55.886372 26.265409 -6.2185001
55.691502 7.2223988 -10.062044
55.219997 24.384678 0.00093692541
55.434898 5.090848 -9.0702877
55.436275 15.162836 -11.451313
54.761528 24.843704 -4.8705726
61.859619 16.487318 -2.8268986
58.558372 28.913071 -4.7555833
58.153515 22.155262 -0.13882545
55.434898 4.7783875 -9.25422
58.311699 15.227337 -16.447119
55.434898 10.385307 0.36181498
55.434898 2.3894024 -8.2206526
55.982731 15.220832 5.8068829
55.435692 13.856733 -12.446678
59.205612 20.399979 -4.3227181
60.377926 19.228088 -6.3777475
59.546204 15.230791 -8.5450926
55.434898 10.623907 -6.0095267
55.518715 3.771265 -10.556991
57.914383 21.690691 0.046620965
58.330101 15.227394 3.6971765
62.021862 16.522993 -9.4172564
58.153526 25.244131 1.3060102
55.434898 10.602265 -5.006968
55.434898 5.808136 -1.8405924
55.434898 4.7810888 -4.6089997
55.436073 13.992435 -14.580947
55.278595 8.241374 -13.555246
55.434898 7.5254035 0.94848537
62.2281 16.67749 3.9364598
59.061203 20.544037 -0.7300266
55.434898 8.0256929 2.5000978
56.75106 15.222979 -5.3083243
61.320526 16.368696 1.9886301
55.929062 23.67572 1.2147787
61.301628 18.304142 -4.1401944
58.828114 27.448002 -4.8367157
59.198586 27.000082 -7.5729055
55.434898 7.9346251 -0.81798977
55.278599 7.5596275 -11.517156
55.435043 12.453241 -13.409587
54.122849 25.483389 -12.07736
55.278599 5.5310645 -15.716444
57.605927 22.000883 -13.592093
55.791294 23.81572 -16.191517
59.03376 20.571896 -4.876739
55.278595 1.7533889 -12.203674
60.666107 15.233923 3.0550406
53.965019 25.640566 -7.8006043
61.930832 16.502991 -4.5454736
61.261101 18.346035 -13.375524
57.681244 28.614744 -7.8475013
55.434898 11.437486 -3.3367617
55.778595 15.220259 -4.9547849
61.508514 18.097509 -5.6923451
58.153515 25.836021 -0.17647779
59.576332 27.900764 -7.394094
57.97485 28.017727 -0.23465586
57.933407 21.672224 -5.459887
61.441284 16.395267 -13.641042
58.893593 15.22897 3.5086734
55.434898 4.6737733 -1.3581903
57.210468 22.394602 -2.1662271
54.630196 24.974609 -2.1132395
61.951164 17.655151 -7.3637104
55.434898 11.601594 -12.699413
58.153576 24.984573 -6.0262518
55.434898 14.172945 3.615201
57.7939 24.472136 -1.9260354
56.655643 22.949474 -2.8374724
55.434898 5.4039774 -4.3630047
55.434898 6.9361796 -9.3882704
55.435162 12.383612 -14.470441
55.435009 15.128685 -2.8749936
58.635796 15.228245 -10.687529
61.283398 16.360527 3.9909055
55.278599 3.5125799 -13.000916
58.444607 15.227713 -4.4008608
58.41518 27.398159 -8.6051979
57.819763 15.225964 -10.442347
61.122398 15.314671 -11.262444
55.434898 3.8746858 -5.1458573
60.337273 19.268322 -3.5556421
57.344593 22.260439 -1.8057301
55.434898 9.6860199 -7.9772372
60.715515 18.889961 -2.3726645
61.118851 15.235188 4.9704165
59.074368 28.476435 -0.24209177
60.662331 18.943144 0.56411362
55.434898 12.284794 -10.731669
56.587456 15.222522 -4.2340975
53.646698 25.959932 -15.028698
58.153595 22.049578 2.0379648
58.470039 15.227781 -9.7053595
61.525673 18.0812 -11.378409
55.434898 10.367808 1.0078125
57.750637 23.592743 -6.2185001
55.311226 5.0279369 -10.644878
57.7939 22.475761 -2.3220165
57.7939 22.448517 -1.8592317
55.068825 24.536427 -4.793767
55.434898 13.585057 3.2153749
56.190308 15.221413 -1.4433272
55.691505 10.294543 -10.861318
56.672596 15.22276 2.7986236
58.993473 26.419003 -6.2513356
60.443619 15.233301 -9.6380653
61.231419 18.374136 -0.88205218
56.861137 22.746002 -16.301996
59.351093 28.187008 -7.8579006
57.925919 15.226263 0.24076587
61.328171 16.370378 -3.7058563
59.948353 15.231918 5.8196726
59.394146 20.212477 -11.13383
55.434898 7.8566523 -1.117689
58.831116 26.877872 -3.629123
61.122398 15.682645 -9.2195396
61.054138 18.552891 -12.761785
55.435806 13.881214 -13.182569
54.227253 25.377283 -0.23509519
54.917885 24.687504 -5.8139009
55.434898 12.887434 -4.7281895
59.804096 19.801249 5.9284744
55.434898 12.306887 -11.710953
60.726601 15.234093 -1.653101
57.772285 21.8339 -9.314621
57.7939 22.731609 -4.7858105
55.434898 12.05803 -3.10409
58.393658 21.212051 -5.6386442
59.669861 19.935467 5.5488739
55.434898 11.099143 -4.1915436
62.229027 16.825056 -9.3127337
61.483246 18.122349 5.4459848
55.434898 14.615736 3.4264948
58.921658 20.684153 -6.0064487
55.278603 8.4272518 -15.829246
53.914051 25.692104 -11.664021
61.92104 17.684616 3.3849735
55.443485 24.161716 -4.223443
53.570805 26.03483 -8.3566446
55.278599 3.6158879 -10.953833
58.427826 21.177738 -4.6439848
55.176315 24.142029 -6.2185001
55.435833 15.018193 -8.9686852
57.7939 23.983131 -3.5993009
58.153515 25.477224 1.2381219
55.434898 12.921459 0.80078971
55.278603 3.8635042 -13.901661
55.434902 10.134437 2.8342795
55.434898 3.8598464 -9.4992943
56.949303 22.657829 -16.198032
55.434898 11.786386 -2.8408782
55.434994 12.241917 -13.868384
55.434898 12.040073 -12.638002
55.694748 23.91 1.3813064
56.719864 22.886017 -7.9218478
55.131569 24.473101 1.6835425
55.434898 5.0033793 -7.8559327
61.122398 15.852131 -8.1352482
55.434898 12.246738 -9.3210678
58.619564 15.228203 4.2786946
55.436337 14.697828 -13.671772
55.434898 5.6865492 -3.4908288
59.907104 15.2318 -12.841353
55.434898 5.4850054 -6.8202314
57.33046 22.274527 0.96563101
59.216255 27.262827 -0.59010267
55.468758 24.138084 -15.269607
55.436279 14.626366 -13.543083
58.453735 21.151978 -5.636888
62.228832 16.946526 -7.9922915
58.629471 20.975706 4.4675632
58.085426 15.226709 1.8356361
62.070854 17.534821 4.2044868
58.153542 22.011549 -2.1296492
59.938652 19.66782 -9.7741899
55.434898 10.521483 -4.0437651
55.278599 9.423418 -12.855455
57.657677 15.22551 -15.666254
61.532463 16.415331 -17.020727
60.477707 19.128643 -8.5636082
56.375141 26.634937 -8.271265
55.434898 11.916244 -1.4110402
59.519859 20.085447 3.6751215
54.992455 24.61219 0.59863323
55.434898 13.368744 -7.1672406
55.434898 9.9207706 -5.3089881
55.435219 13.88175 -9.1080074
55.435287 14.357206 -7.7606425
58.263607 15.227203 -14.641559
58.096954 26.535027 -8.4196281
55.55267 10.213125 -16.023819
60.687798 15.233984 -5.5179691
55.200195 24.40448 0.068762541
56.280212 23.325087 -4.2994204
55.278599 5.3043928 -11.91923
61.122398 15.76109 -7.1677222
55.434898 8.0967073 -8.8663626
55.278599 7.5536575 -12.892831
55.278603 7.0704989 -13.972425
55.434898 8.9403954 -2.850075
55.158043 24.447071 -3.8357186
60.519321 15.233514 -4.2192574
55.458096 10.949228 -14.018488
55.436016 15.032752 -10.15117
55.701591 23.904903 -12.747023
55.434898 9.7442131 -8.4697208
56.778343 22.826561 2.2232788
55.278599 7.8864441 -14.618406
55.434898 10.880103 -7.1253319
55.434898 8.0296078 -7.9806166
58.909271 20.697239 -10.707147
54.235352 25.369473 -2.4815428
59.723816 15.23129 -1.4167423
55.434898 7.5264492 2.0718112
60.021538 19.585253 -11.822922
57.243343 22.361635 1.1723449
62.15147 16.551538 -4.0900064
61.122398 16.101931 3.6236207
57.942234 15.22631 0.57245338
60.221909 19.385017 -12.642527
58.413795 15.227628 3.8700318
56.914928 28.090591 -8.643115
55.434898 9.0434542 -3.6514719
59.773464 19.831877 1.142592
59.524605 20.082348 -13.276165
62.167168 17.440351 -15.360223
55.434898 11.271574 4.13131
55.434898 11.68218 -2.9900222
57.926464 15.226265 4.5090704
55.691502 9.4395103 -10.433528
55.434898 9.7291622 3.6200628
55.434898 9.2743979 -2.3590233
61.122398 15.861691 -8.3334055
55.699661 23.907293 -15.842301
55.636791 15.219864 5.8442273
59.836128 19.770092 -8.1314411
55.434898 10.642209 -1.2390583
56.409199 15.222019 -15.935903
55.434898 11.414562 -1.9058609
61.122398 15.970578 3.4627924
57.669804 26.422499 -6.2185001
61.122398 16.233992 -8.5787029
54.950691 24.654127 -1.9884715
55.434902 8.5498667 -7.7418532
55.434898 13.840232 3.5610757
59.017517 20.587717 3.6643395
58.153564 21.317629 3.9811859
57.620789 21.98641 -16.201118
58.679905 27.404289 -8.4445772
55.434898 12.208534 2.7908759
55.434898 7.5868216 0.87870181
56.007225 23.598728 -8.8984127
58.305252 21.299873 1.9729075
56.87302 15.223316 -14.27067
55.434898 11.817427 -6.7874832
59.465149 15.230564 -7.3532271
56.315285 23.289587 -1.3713232
61.752693 17.853386 -5.9050765
55.434898 9.6319008 3.2507873
57.810448 21.795069 -4.7435675
57.382866 22.223886 -13.360082
59.208401 27.171535 -3.6944327
55.435959 13.633669 -15.164591
55.434898 11.313562 -0.35947931
55.434898 2.9836559 -0.24441922
56.169514 23.435375 -1.6153257
62.18145 16.558134 -0.64448917
59.271812 27.664499 -2.7553008
58.085472 25.175667 -5.2937551
55.434898 14.946218 0.26883972
55.434898 9.0173168 -8.995388
57.738663 15.22574 -0.51788563
55.278603 3.550957 -13.19397
61.112141 18.493397 6.3895025
59.618477 19.986845 -1.6218718
59.198296 26.617708 -7.6858964
55.434898 5.1732426 0.8875041
55.442722 15.219322 4.2845893
53.572224 26.034363 -14.797152
55.434898 7.6639481 -9.7335396
58.450771 15.227732 -2.8319921
55.434898 7.5449114 2.3882139
58.496239 21.108919 -1.4736465
60.414909 19.192101 -13.095773
58.153564 21.463535 -3.2841835
58.265896 15.227212 -7.5330391
61.122398 15.506199 5.0329823
59.429276 15.230465 -5.5633926
61.40464 16.387205 -16.23542
55.434898 7.4093275 -4.8012819
55.682205 15.21999 -5.4372349
55.278599 5.1613946 -11.74572
62.228096 17.300701 4.3238564
61.750862 16.463387 -8.9322672
57.7939 24.063629 -4.0976796
60.973518 18.631996 2.7057343
55.801376 27.357651 -8.2218094
60.295799 15.23289 5.5948257
57.908318 21.696751 -1.520394
62.228241 16.698441 -3.9974494
56.895863 22.710648 -12.090118
61.122398 16.049789 -16.77536
60.931255 15.234664 -9.1728439
55.278595 5.3546562 -12.853354
60.864285 18.742487 -11.184512
55.434898 8.0822248 -5.4935231
55.434898 2.8108916 -2.0194466
61.122398 15.939512 3.5551162
55.434898 13.877394 1.6383244
58.620171 20.985008 3.6693833
55.434898 8.0512457 -2.327065
55.278595 2.6979871 -13.473595
59.739708 15.231334 -2.6405113
58.153507 24.941692 0.58121902
55.434898 12.361534 -5.7761393
61.34462 18.26195 -9.4641523
58.872948 28.645651 -2.5540743
60.555984 19.049921 -5.5674896
57.7939 24.509392 -0.64146292
59.579708 28.000275 -6.0852237
56.813343 15.22315 -11.60024
58.231667 27.70232 -7.9920664
61.499207 16.408014 -9.5387039
56.831482 22.773848 -4.1488209
55.434898 10.168198 3.0114348
55.232094 24.373863 -9.420949
56.355225 15.221872 -3.5545292
55.434898 11.803716 1.8606559
57.701202 15.225634 -9.0266457
59.751282 19.855106 -9.3397036
59.266529 28.30467 -2.6638327
61.227795 18.377758 -1.6166196
60.141544 15.232457 2.4663351
57.799751 15.225911 0.77548802
55.434898 13.721935 -3.7046881
60.209183 19.397514 -11.095852
55.637653 2.6947198 -10.506611
59.375191 15.230312 -14.137421
55.434898 10.678188 -8.3982334
59.527237 15.23074 -3.887701
60.030117 19.577034 -14.25587
55.792484 26.7054 -6.2185001
57.625648 21.981443 -15.489017
59.130676 20.474569 3.4485149
55.434898 9.2206326 2.693162
55.434898 12.778788 -9.3496046
59.286137 28.007908 -8.380867
59.575825 27.992268 -7.5896053
54.058372 25.547249 -7.9674296
58.130402 25.343655 -0.42715275
55.434898 3.3501284 -8.8840342
59.541538 15.230779 -6.32758
62.228855 16.977684 -8.092186
60.287106 15.232863 -4.9100256
55.434898 14.613391 1.4580755
62.21611 17.390432 -8.7117195
61.652294 17.953709 -5.4472342
57.600136 15.22535 -9.9789085
55.434898 4.3286438 -9.5566845
58.042637 21.411018 -6.2185001
57.228352 22.376616 -0.62395072
61.754501 17.851128 3.3480389
55.434898 11.961192 -6.7794743
61.411049 18.19639 -15.300587
58.843323 27.013964 1.2830205
61.51189 18.093702 1.8133094
55.434898 13.652812 -5.1285801
55.43663 14.930889 -14.786461
57.788391 21.817533 -7.5271988
59.497772 15.230658 -2.5167027
60.560776 19.045444 -7.6636648
55.434898 2.6204102 -6.8382769
58.153549 26.550484 -2.533278
62.229488 17.33415 -12.417758
60.146461 19.458935 1.5821096
62.2286 16.965942 -6.3817229
55.435661 13.469296 -13.728268
54.515392 25.089912 -5.5100741
55.137581 27.090233 -8.4281626
61.603027 18.002583 3.8748765
60.967072 15.234767 3.598655
61.294617 18.3125 -13.21297
55.434898 5.2792063 -2.9812155
57.430645 28.267014 -7.2038913
59.73724 15.231328 0.92010593
57.357437 24.672123 -6.2185001
55.434898 10.438133 3.6688159
58.153564 21.405804 -0.53606039
55.4356 13.43907 -13.46163
58.153519 26.07465 -0.4272922
55.434898 6.3946819 -2.7750993
58.153572 21.108536 3.4916449
55.278595 5.5780163 -11.596262
55.434898 5.7220402 -7.6893973
58.846687 26.419001 -8.0605459
55.874142 23.731056 -3.898633
59.391861 27.664499 -6.2860303
58.089752 21.51557 -3.2849116
57.736916 15.225731 -12.826724
56.671974 15.222758 -0.076016784
55.434898 3.1429381 -7.1557207
55.434898 7.7990437 -0.77964503
54.77565 24.828964 -0.43347338
57.726463 21.880821 -16.716839
61.738857 17.867176 -5.617496
55.434898 10.903071 -8.5410872
61.235039 18.372021 -12.836585
60.847237 15.23443 0.51701355
58.946312 15.229116 2.5228572
55.208649 24.398308 -16.191336
59.106422 28.445614 -1.6201483
58.153587 21.175102 -4.059649
55.265663 24.340549 -11.131852
56.122952 23.482788 -7.4029045
56.771194 27.733013 -8.3748913
59.551338 20.05411 -3.1191278
61.145004 18.460533 2.9565732
55.434898 9.6526775 -2.6161916
57.160305 22.446419 -13.313927
60.203384 15.23263 -8.5227699
55.434898 10.885352 2.5005436
57.716042 15.225674 -9.8454676
57.7939 23.385885 -1.2373507
60.150528 19.454868 5.2392325
61.231068 18.374617 -3.5927248
60.390392 19.215034 -1.3602061
59.921379 19.685232 -10.703135
55.434898 9.6295519 3.0203583
61.122398 15.906857 -2.540477
55.434898 14.496618 2.0729184
55.434898 11.045022 -12.517217
55.278603 4.5510616 -14.651154
58.830708 27.199667 -3.7939503
55.278599 4.4875064 -15.370625
55.736027 23.868729 2.3544331
57.839165 21.765896 1.1686395
60.058685 19.54752 -7.9028673
55.691502 10.37434 -13.367699
58.62027 28.861082 -4.0407305
55.434898 7.4540048 -7.8881974
60.978245 15.234798 4.4653106
55.525467 9.41257 -9.8741131
62.037842 16.526535 -6.4253302
55.434898 11.336048 -15.58621
59.607971 15.230967 -2.0547309
55.434898 3.6567297 -9.4853334
55.434898 13.258911 3.2888379
61.77029 17.837206 -15.449971
58.703579 28.789881 -3.6283493
57.973751 28.013275 -2.4861329
55.434898 6.9518085 -4.4592342
61.122398 15.845495 -11.930726
55.278603 7.5758743 -11.774741
55.799686 15.220319 -8.0397968
58.897003 15.228979 1.5784984
59.326065 20.280685 -12.060629
61.826172 17.779474 0.82296181
59.711273 15.231252 -11.554193
55.278599 9.0612583 -14.042408
60.954811 15.234731 -15.910646
61.122398 16.173815 -7.1513958
58.750053 15.228564 -10.519466
57.639565 24.807446 -6.2185001
58.147888 27.839563 -3.1625288
55.434898 12.666491 -6.5763359
55.434898 4.2281437 -4.9177423
61.122398 16.093779 4.9386778
55.434898 11.492504 -12.222482
56.735092 26.743404 -8.302269
59.992207 15.232038 -11.356861
55.278603 7.3998036 -13.888815
55.434898 9.5699959 -4.5748029
58.754566 28.746571 -3.2559128
60.737404 18.870197 -16.866394
57.527248 15.225147 -5.0313277
55.691505 10.598365 -14.355862
61.78009 17.825542 4.8698292
60.571945 19.035069 -12.990133
60.033798 19.571583 1.4832085
55.306225 2.7743354 -10.646997
56.755939 15.222993 5.0547223
56.34977 23.257107 -14.884269
55.434898 6.2448406 0.31053758
58.162529 15.226919 -15.868281
57.808266 28.177704 -2.104167
61.373207 18.233639 -11.320168
55.434898 13.113697 -7.6548243
55.818459 23.788046 -12.720752
55.860725 15.220486 -12.679215
59.120872 15.229605 -0.20203251
60.123516 15.232407 -11.46583
57.077591 25.914299 -6.2185001
55.434895 13.454325 1.0443228
56.663788 22.941097 1.8323905
61.335495 18.270075 -1.2065157
54.39106 25.21529 -12.671534
60.264103 19.341389 -2.9437509
61.481659 16.404152 -8.7965078
60.708992 18.898449 -15.77455
59.452721 20.1542 -13.124963
60.584774 19.021477 -7.8307791
56.742867 27.865566 -8.1731901
57.077225 22.527725 1.0092287
59.816174 19.789173 0.073641777
56.087482 15.221122 -7.8699179
57.955223 28.027058 -4.320262
59.598129 27.739681 1.0551257
57.847229 15.226044 -2.6899681
55.278595 3.6602261 -11.004961
55.434898 6.9107127 0.74124742
55.278603 4.126698 -13.724314
60.586578 15.233701 -13.401155
60.898571 18.707666 -7.551734
55.434898 10.741106 -6.4608698
62.2281 17.128902 -1.0987413
57.332619 15.224604 -8.8205643
59.204697 26.813406 -5.1569757
58.917515 20.687706 4.9053864
61.365376 18.240196 -1.0307086
55.434898 10.673573 -2.1584544
58.091576 27.896618 -2.5852518
61.123066 18.483082 -6.8112259
55.278595 9.2061005 -14.583949
55.434898 12.915549 -1.2003484
62.204788 16.563271 -0.57039768
55.434898 14.998924 4.2988071
55.278595 3.0781136 -14.504385
61.346275 18.259295 0.01348567
58.153515 25.913502 -0.13203192
55.434898 11.005514 -3.4653411
57.832863 26.519253 -6.2185001
55.434898 4.1225123 -1.6401826
57.062775 22.544029 -13.935151
60.965569 15.23476 -13.03828
55.434898 11.818999 -12.983851
57.909592 21.696064 -5.6055574
58.297409 15.227298 -14.146142
55.278599 3.8443646 -13.142447
57.7939 23.982849 -5.0767121
59.065872 20.540653 -10.724857
55.434898 11.241855 -12.461959
57.017918 27.644012 -8.3265953
58.380081 15.227533 3.1327178
55.313492 24.293415 -15.801282
57.785316 15.225866 -12.120943
60.088737 19.517033 -4.963304
60.106819 15.23236 5.8452392
57.99667 21.609243 -7.3049974
56.960678 22.644337 -1.9460782
61.150711 18.456469 -13.72064
57.657997 21.947037 1.962971
58.582848 21.02433 -15.4297
55.434898 11.298125 -7.9869514
59.89048 19.71648 -13.119148
55.691502 10.41958 -10.806097
60.846935 18.758566 -1.599998
62.228096 17.094769 -0.35731363
60.319496 19.287106 -10.388036
57.37381 15.224716 -15.164515
59.170898 15.229741 -15.399405
57.7939 22.870075 3.3887784
60.756966 18.850533 -16.149122
57.7939 24.25032 -2.8829875
60.328808 15.232981 0.2625156
62.166115 16.55476 1.597937
60.603062 15.233748 -9.3771038
61.122398 16.286892 3.2495084
61.122398 15.933342 -1.9522274
55.434898 13.427862 -4.452291
55.434898 15.178623 1.2818615
55.434898 7.2017546 -2.0244863
55.58889 24.016106 -2.7439895
54.606476 24.999756 -11.723918
61.122402 15.471407 5.5063071
59.220062 26.458141 0.91197157
55.278599 7.543467 -10.780651
55.434898 8.4036999 -7.5285525
56.020164 23.304869 -6.2185001
62.091606 17.514071 5.035306
58.413811 21.191334 3.9522045
58.968582 20.637724 -9.276968
55.434898 7.3184361 -0.18005371
60.891953 18.715588 -16.352144
55.434898 7.5171866 1.1426861
60.084473 15.232297 -13.885607
59.483551 28.114544 -3.6680028
55.434898 8.7907724 0.6697706
55.260666 24.344563 -4.5254116
60.265484 19.341557 -13.397608
59.865593 15.231688 1.8515804
62.017002 17.589334 -7.4704762
59.34901 28.222555 -7.4596167
58.838448 27.367134 -0.67709017
55.434898 11.714757 -1.0187272
55.278599 5.5809927 -14.747375
55.434898 14.611938 4.8749804
61.492302 16.406494 -8.1797867
55.434898 10.031152 0.19746757
59.930588 19.674776 0.66073263
56.781311 26.888624 -8.3062401
56.14983 15.221298 -0.89804125
58.600128 15.228148 -6.9266963
58.036804 21.568285 0.021136522
56.363861 15.221893 -10.948751
55.434898 7.7078004 1.6506525
62.147251 17.459023 -6.9801292
55.434898 2.5142632 -4.9087477
55.435017 14.968312 -3.5465825
55.278603 9.6593685 -15.06511
59.594296 27.990507 -0.4291288
58.153587 26.663645 -5.6067395
55.434898 3.030493 -7.2461991
58.903625 20.701586 1.9073919
55.434898 11.509219 -5.4747777
55.278603 2.3563004 -11.020285
60.837975 18.767527 0.073770761
54.090656 25.515923 -14.411379
55.136806 24.468439 -4.7296987
55.434898 11.758923 0.76603138
55.434898 8.4716063 3.1810832
61.383522 16.382559 5.7711658
57.7939 23.831402 -3.2629707
59.201706 15.22983 -1.4148304
59.208302 26.491104 -3.7329843
54.737049 26.557949 -6.2185001
58.193939 21.411701 -5.3568068
55.278595 5.4167109 -15.513767
55.961765 23.645151 -15.445377
55.434898 13.599878 -2.011831
58.432533 27.173899 -8.1179762
59.111549 15.229575 -9.6223841
55.434898 3.2812197 -2.9389124
59.893433 19.711929 1.7545041
62.228451 17.27577 -5.4049788
61.503834 16.409031 -11.683987
55.691498 9.5230684 -10.183847
57.5159 15.225119 1.4551072
58.223728 28.818481 -7.3228068
55.681141 23.923748 -1.9662942
55.278599 7.2284994 -15.321518
55.278595 7.0788665 -13.200127
60.914764 15.234619 -6.1424065
55.278599 9.1377697 -13.054049
62.022762 17.582907 6.6704545
57.268944 27.664501 -8.659277
56.806942 22.798746 -6.5978899
57.409077 22.197962 -15.278223
55.434898 13.300064 -4.3095112
55.434898 7.9141345 0.9297266
59.482269 20.125067 -15.887543
55.434898 4.7084718 -5.0333958
61.10289 18.502645 -0.82541645
56.050148 23.556007 -10.219755
55.434898 13.784214 4.6982665
58.749317 20.855877 -0.42951679
59.300331 20.304941 3.7425301
55.434898 11.372592 -10.998782
58.274311 15.227235 -9.4043674
53.820229 25.785475 -8.6689615
55.278595 4.4654903 -15.613359
62.073029 16.534121 -12.019707
58.827446 26.728519 -5.1051011
61.122398 15.552975 -8.8551531
55.435177 13.762888 -9.2823792
55.434898 11.131879 -0.22312963
57.7939 24.057802 -0.81355804
55.434898 11.696379 -5.1133709
58.95874 20.647415 -8.3173609
58.829079 27.217714 -4.4500189
59.082451 15.229493 -11.94319
55.278603 7.7639246 -11.652011
55.743603 24.463831 -6.2185001
58.153519 25.618883 -0.7965461
56.32983 23.276131 -8.7536364
58.153603 23.219185 2.2665794
56.164917 15.22134 3.9712677
55.434898 11.079058 3.752491
55.865841 23.739929 -7.7612891
55.360817 10.131909 -14.167678
61.204529 18.40102 2.3575671
58.153572 21.127796 3.6116455
57.283146 15.224461 -14.765663
61.981102 16.51405 0.30572277
61.048824 18.557205 -6.0315137
58.514027 28.86569 -6.8722439
58.782021 27.664499 -8.6247759
55.463882 10.175538 -13.622055
58.49802 27.700863 -6.1241736
57.04287 15.223794 -7.009707
62.110718 16.54257 4.0386553
60.90543 18.700352 -4.4849167
61.47834 16.403421 0.50149298
55.434898 11.798795 -3.1866674
61.31118 18.294619 -4.3364563
55.887894 23.718147 -9.5876884
55.435741 15.211212 -7.5864682
60.251892 19.355328 -14.62915
55.434898 3.977634 -0.7218703
61.018417 18.587107 0.19392419
57.189701 22.415546 -3.3928642
53.730453 25.875692 -11.723972
55.654926 15.219911 -14.303163
58.08503 21.522158 -15.831856
57.873535 15.226117 1.3556345
55.434898 14.894877 0.48315942
58.619198 28.861956 -4.0648026
55.434898 2.3275504 -4.4786119
61.054199 18.551327 2.1521935
60.576752 19.028702 6.193893
57.609795 21.995386 -2.6105695
55.12661 24.478559 -4.2159615
56.841877 22.763039 -0.49780405
62.229431 17.067572 -11.988933
61.122398 15.73597 5.0534701
58.153511 26.322002 0.11120957
55.278603 3.432045 -12.091259
60.084911 15.232298 -13.188833
61.927937 17.678595 -8.855835
61.238792 18.36879 -16.382372
62.135021 16.547665 -13.353403
62.22974 16.774189 -14.094628
56.722916 22.881979 1.4182899
55.434898 13.714459 -1.874547
55.434898 6.9792356 -3.8321724
57.415638 22.189871 -4.9835725
55.495262 24.111485 -14.574954
62.228363 17.021851 -4.776289
57.7939 22.69524 -1.3793054
53.588722 26.016981 -8.8328972
54.209236 25.397392 -14.643476
56.299706 27.251144 -8.4909334
55.434898 12.519652 4.7424331
60.811401 18.795071 -9.2025394
58.153545 26.049179 -5.5082946
55.434898 2.5864284 -7.1639867
55.434898 5.5201206 -8.347271
55.278599 5.707972 -12.071011
55.508278 24.098289 -13.361216
60.440079 19.165951 -6.4212937
55.278603 9.216011 -14.921808
56.78973 22.815212 -1.5756407
55.434898 8.1191387 -3.4357393
53.762352 25.843449 -9.4044619
55.434898 6.5172758 -5.5037923
55.278595 6.2695889 -12.038002
60.571503 19.033951 3.0611427
55.278599 5.0230927 -11.574831
58.153534 25.826046 -3.2861016
58.264244 27.733362 0.39147568
58.653923 15.228299 3.4448538
57.819443 21.787819 -16.50868
62.228104 17.182581 4.3506169
58.153564 21.814642 4.4735584
55.434898 3.1165299 0.081644773
55.434898 9.1734638 -4.6737065
60.54998 15.233599 -5.2685733
60.039665 19.567003 -11.019444
56.65287 22.952667 -5.6906366
57.562008 22.043848 -7.224412
60.422611 15.233242 -4.3199387
61.543068 16.417664 3.4124484
61.150772 18.456696 -15.692595
62.010365 16.520489 -6.2079659
58.522064 21.083092 3.1630847
55.538239 24.067965 -10.904541
58.84182 20.764753 -11.194761
56.1936 15.221417 -13.560295
55.434898 13.15706 -3.2481761
58.153587 21.676809 2.9539089
55.800983 15.220325 3.1689169
62.208721 17.39698 -1.8653173
57.37986 15.224733 -9.7618389
58.58445 21.020718 4.4255867
59.541893 28.064039 -3.6666472
61.206688 18.398865 -1.4603016
56.679764 15.222777 -7.3330975
55.562881 4.2537422 -9.9116335
57.794167 21.812435 -12.100001
60.276871 19.328592 -2.7648687
59.462204 15.230556 -10.819058
61.637127 17.968487 -2.0338111
55.434898 8.9202957 -6.0947862
61.67054 16.445713 4.7926702
55.434898 11.307574 -3.9976597
55.436245 14.60228 -13.40804
61.661205 17.945423 -9.6643295
61.681656 17.925245 -11.51803
57.500854 28.470592 -6.5020609
61.323624 18.283846 -15.554895
57.936512 22.616816 -5.2548914
55.436657 14.807785 -15.442291
61.471367 16.401888 -11.756782
55.434898 6.6310496 2.7392216
58.797604 28.715334 -0.55907017
55.434898 2.8184397 -3.3778949
58.153595 21.010103 0.53305274
55.278599 3.4780478 -12.794184
58.205891 21.399364 -2.7242608
55.434898 11.218485 -7.730763
62.128918 16.546576 6.407486
57.015167 22.591358 -12.079287
55.565468 3.8095741 -9.9142237
55.434898 6.2389355 -0.030845642
57.397377 22.209278 -12.728477
57.827408 21.777649 3.1617901
55.434898 3.5691595 -0.26166809
55.285065 24.321075 -10.627873
57.278847 22.327902 -13.421164
61.387249 16.383377 -13.931643
55.434898 14.576796 5.0415492
58.735748 15.228527 3.7546325
60.912582 15.234614 -15.792494
55.278599 7.2992735 -13.366572
61.122398 16.067564 0.3301065
58.15358 21.086643 2.9561734
55.434898 7.7021213 -5.8201804
55.434898 8.1864548 -0.40196204
57.7939 24.056881 -3.0723927
58.153503 26.332088 0.43838546
57.7939 24.343636 -3.5402963
55.434898 10.083111 -4.5500989
55.434898 6.4453139 -6.1241446
60.674095 18.932903 -12.834126
55.434898 6.4754634 -8.5015001
55.434898 7.2396002 0.27157652
61.395424 18.210352 -4.0877123
55.434898 8.314538 -7.5705566
55.874386 15.220527 -6.6310596
59.921463 19.685163 -10.819903
57.110165 22.495909 -8.9912062
59.069649 15.229462 -3.2959752
61.434174 18.172628 -11.027563
58.12326 24.905142 -5.3036108
57.619728 15.225409 3.5639653
55.434898 10.678389 2.5216005
54.388474 25.155437 -6.2185001
55.806343 23.798639 -2.5104821
55.434898 13.565539 -1.5301888
55.434898 4.9993048 0.65925062
60.827328 18.778168 0.69779205
60.303497 15.23291 -0.7401669
58.153599 21.022451 1.5670505
58.125179 21.480015 -2.3728375
59.415627 15.230429 5.3426929
59.688126 19.917671 -5.3855619
60.22398 19.381445 -2.5493548
55.278599 2.9852469 -11.415657
55.434898 10.458407 1.6896434
60.26334 19.343195 -9.9807034
58.153545 25.956776 -5.7178135
58.762451 20.843983 -10.292763
61.029285 15.23494 -9.0450459
58.511581 21.093578 0.27163422
62.230152 17.212986 -16.847454
61.457069 18.148518 0.51278615
59.449352 15.230523 4.6421456
55.434898 8.6514244 -5.7886481
61.37104 18.235134 -6.8032789
61.122398 16.009651 5.9875994
62.229279 17.314381 -10.983034
56.939022 22.666254 -3.7300353
55.434898 5.4723949 -6.8524227
55.278599 4.2022314 -13.268164
58.153595 21.718725 1.8154839
62.22419 17.383551 -16.779381
53.774048 25.832584 -14.978722
61.850842 17.75514 -5.1759748
55.434898 11.691521 -8.2552462
55.434898 8.7158079 -5.0366297
55.434898 8.1935043 -5.9609065
60.233562 15.232714 6.1378083
60.477371 15.233396 -11.588772
61.132427 16.327307 -16.098097
61.997299 16.517614 -8.1682138
59.495113 20.112223 -15.899984
62.229794 17.110222 -14.43841
55.434898 10.760872 2.1852419
58.824341 27.232283 -6.3547153
55.434898 10.475185 3.295918
58.153564 21.643034 -3.8096378
58.122108 15.22681 -8.2753563
60.681252 18.925993 -14.479991
55.166927 24.437864 -1.6550713
55.653519 10.753204 -14.413933
59.383743 20.221544 4.2113996
61.122398 15.694292 0.97228372
56.070633 23.53513 -7.5508976
56.015442 23.591309 -14.260869
59.644764 15.23107 5.67978
61.107452 18.498083 2.9493961
56.587967 15.222525 5.9199114
60.611172 15.233769 -7.2784443
58.15353 26.29723 -1.2044855
55.504604 2.9105299 -10.562967
57.090504 26.151007 -6.2185001
57.897232 15.226184 -0.94630986
57.7939 22.93359 0.27650952
55.434898 4.9485965 1.363607
55.435337 14.013085 -9.419219
55.434898 6.7712626 2.3070803
55.224358 24.38147 -8.565464
59.310425 20.294853 4.568882
55.435287 13.560251 -10.801363
55.278599 2.6240039 -11.018273
61.253826 18.351734 1.0473785
60.815178 18.790319 -0.052154422
61.122398 15.477708 -2.1330972
59.545799 20.059513 5.061398
57.867577 24.413128 -5.2369184
55.434898 14.755296 0.50864589
58.932953 28.58679 -5.6490288
55.481548 15.219425 -15.378137
55.870304 23.734482 -1.144352
62.228191 17.355776 -3.6540842
55.278599 7.4588614 -15.804279
60.423992 15.233246 -13.413465
58.695847 28.795977 -3.8961873
55.434898 13.599988 -5.1621771
56.245735 23.360695 -11.953244
61.675629 17.931625 -13.868744
57.325771 22.280277 -8.6733389
61.011238 18.594925 -6.9672942
55.434898 10.311973 -8.3820591
55.938629 23.668079 -14.036335
55.633057 7.1798534 -10.508556
56.992317 22.614124 -11.52339
57.334385 22.270782 -2.7173274
60.362743 19.242687 -1.829923
56.50663 23.099453 -9.438098
55.791122 15.220296 1.3115771
55.267776 24.337597 -5.4783187
57.0233 15.22374 2.1349738
60.722912 18.883209 -6.893671
55.434898 3.6443214 0.32007837
59.131329 26.419001 -3.0547156
57.7939 23.877731 -2.9667726
54.781517 24.82373 -4.9563103
60.30648 19.300179 -10.786158
58.15358 21.471708 -4.8009214
55.434898 9.7446938 -4.1133423
59.111263 28.428669 -7.3283005
55.434898 12.774749 -2.3798771
62.228767 17.032248 -7.5417643
55.434898 6.0865293 -2.7961464
55.278599 8.1283436 -14.250519
59.207901 27.01186 -3.8924067
55.434898 9.4999847 -2.8531158
59.213402 27.548996 -1.7191744
59.920399 15.231836 -7.6255684
61.199013 18.406534 -1.501112
58.737461 20.867729 3.4597418
59.924984 15.231853 -2.1161203
55.435238 15.044722 -4.7590528
57.839176 15.226022 -1.9153421
55.12088 24.075829 -6.2185001
58.663799 20.942297 -8.102005
56.355843 23.250389 -10.513763
59.211075 26.968718 -2.638303
57.128185 22.478579 -13.627825
60.051373 19.55471 -7.067513
59.192322 15.229801 -14.172955
55.434944 12.675353 -11.888322
60.194672 19.410736 -0.77717078
61.760883 17.846022 -11.449217
55.434898 12.238217 -11.877028
55.434898 1.7105846 -8.6849804
55.435169 14.310719 -7.129621
57.255585 22.349653 -3.2324538
61.509838 16.410353 -2.6037197
55.362526 24.242176 0.21760666
57.330555 22.274433 -0.12848747
58.153557 21.879576 -3.1159408
61.825752 17.779888 4.9513464
58.837631 27.420931 -1.0053105
61.122398 16.077976 -14.544893
55.434898 12.472168 -4.2102852
59.475517 15.230597 2.6379499
56.494705 23.111286 -8.8473091
62.2281 17.241451 -1.5445805
59.266891 20.339376 -8.8583641
58.499134 21.106413 -4.4962125
58.153519 25.640556 -2.1492317
61.929707 16.502586 -15.865073
59.459316 28.143381 -0.15169775
61.122402 15.382614 1.867682
55.495884 15.21947 -0.68258607
60.005646 19.600357 -6.5893755
55.434898 11.488465 -15.277974
55.278599 4.7217035 -13.85964
61.729404 17.877159 -9.1769619
59.212692 26.610474 -1.999804
55.278595 10.093345 -15.680943
55.434898 5.2636719 -2.5675442
55.149845 24.455536 -5.627862
59.306068 20.300047 -7.8045912
55.434898 2.3483779 -9.0410757
55.434898 14.61145 0.78422081
60.97831 15.234797 -12.548465
61.47699 18.128599 6.7770181
57.010979 15.223703 -10.349576
55.434898 10.679844 -6.8444695
58.153526 22.389511 0.7257905
59.904152 19.703293 -16.341694
54.16925 25.43639 -8.0429907
61.675186 16.446735 -10.181844
60.202293 19.403111 0.86061561
59.957153 19.648212 0.45353901
55.90094 15.220597 -14.588799
61.464966 18.14213 -12.958327
55.459248 8.6310091 -9.8077173
55.434898 13.474441 -1.5251517
55.66927 15.219956 1.8891461
58.828438 26.763355 -4.7073421
57.98568 27.122231 -8.5819998
55.585117 15.219718 -10.904441
57.806618 21.798435 -0.97659826
56.837975 15.223223 6.067102
58.828423 27.189068 -4.7131252
55.278599 9.4617891 -13.973292
53.993568 25.611748 -5.971415
59.412903 20.192387 4.8843384
55.247673 24.358173 -8.687583
56.126244 23.479366 -6.5290327
58.966473 28.56538 -2.2415378
55.434898 12.776169 2.9569871
58.049068 23.885811 0.47125944
53.561584 26.044075 -8.5471725
55.434898 10.718755 2.0115316
55.434898 10.499899 -8.9186277
61.122398 16.17647 5.2628555
56.738811 26.446724 -8.3026142
54.865921 24.740742 -14.446294
55.118835 24.486935 -8.2367554
56.019405 15.22093 -11.075653
58.685699 27.679607 -7.4984088
55.947632 15.220732 -9.5247593
61.006336 18.600109 -8.8920078
55.434898 9.7664509 -8.6996937
59.211948 26.47477 -2.2942386
60.390911 19.215244 -7.3374958
55.434895 12.805298 1.0514476
55.497883 15.219476 -6.4970036
55.278603 9.5358067 -13.219261
55.436066 14.626593 -12.060331
55.434902 13.94233 1.6942376
57.728142 15.22571 -4.2035584
57.189476 22.415489 3.4507725
54.307343 25.297201 0.34840074
56.364532 15.221899 3.9029799
55.278595 1.5955031 -12.585529
57.867817 21.346439 -6.2185001
56.166492 15.221346 -1.930127
57.962536 21.642542 3.0485599
57.787067 26.763927 -6.2185001
55.434898 14.338217 -2.4100106
57.138226 27.308851 -8.5362253
56.330658 15.221801 -11.242153
57.625107 15.225422 -3.8120489
55.434898 8.9385338 -9.2213707
55.278603 8.3008709 -12.847347
61.886021 17.719627 5.073308
61.781712 17.824213 -4.8890648
57.79179 15.225889 0.20998967
62.2281 17.322876 3.4955912
55.434898 9.423418 -5.9247146
55.278603 7.245254 -15.086452
61.122398 15.376545 -9.0584469
58.510078 15.227897 -3.3861554
59.948223 15.231915 -7.3289437
58.824783 27.302517 -6.1777639
55.538193 24.068069 -11.286055
58.830513 26.491062 -3.8704474
56.761536 22.843363 -0.7485581
61.16684 16.334879 -1.7913969
55.434937 14.781229 -3.7161028
55.278599 10.026268 -15.596613
55.435257 13.873444 -9.4175014
59.139763 20.465488 3.2965322
55.278599 4.3003683 -11.593442
55.529327 15.21956 -13.226177
57.793903 23.059704 -4.3640099
55.444836 10.962531 -11.208097
58.265022 15.227209 -7.9289594
56.094486 15.221144 4.5010176
58.153545 25.488449 1.6635479
58.811359 20.795008 -9.8218575
57.127075 22.478409 -4.9631624
57.536938 22.068628 -5.2802296
60.311367 15.232933 1.0487134
58.830723 26.576445 -3.788347
57.595695 27.915564 -7.9480505
59.024483 26.419001 -5.0341792
60.443787 15.233301 -15.601537
55.434898 13.011642 4.5152655
54.217701 25.388367 -10.845173
55.434898 4.4200511 -3.9267824
57.907524 21.698133 -5.6413517
61.190475 18.415071 -0.65966737
55.434898 4.7309003 -8.70403
61.27771 16.359274 -16.43638
55.436546 14.472044 -15.974324
60.943821 15.234699 -16.282324
60.644608 18.962559 -13.986618
61.267471 18.338091 0.050210714
55.436607 14.728814 -15.391427
57.7939 23.947889 0.2517572
61.425861 18.179722 3.1864605
55.434898 1.834592 -9.618722
55.434898 9.2064438 -6.2401118
55.434898 11.154978 -12.583633
61.573505 18.032379 -4.7301645
60.539749 19.065701 2.4436634
62.132072 17.47361 4.3274736
57.772064 21.835136 -16.116352
56.71328 15.222872 -9.4886532
55.434898 8.8800735 -2.0344782
55.434967 13.73191 -7.9348412
57.935032 21.671722 -13.002926
58.571823 21.034269 -8.122117
58.153526 26.139614 1.6287791
58.970642 15.229182 -7.8886051
61.122398 15.873994 -3.2659092
55.278603 6.6675639 -13.167607
55.434898 5.8882432 1.8954484
55.434898 6.9404306 1.5557947
55.434898 11.211747 0.24430537
61.244644 18.36091 -1.4549952
55.434898 7.9157376 -4.4871259
55.278599 3.8298676 -12.156041
56.19503 26.738808 -6.2185001
58.292244 21.312881 0.50399137
55.434898 12.183123 -8.1670904
56.865368 22.741358 -13.52069
59.652122 19.953203 1.6340925
55.434898 2.0992386 -5.8114634
59.546211 20.059099 0.20012057
55.544853 27.251427 -8.450161
59.31562 20.289652 2.1912909
57.7939 24.543606 -0.94664961
55.434898 3.2208967 -3.1606436
55.434898 8.6849756 -2.4436059
55.434898 11.122637 1.4468219
61.221039 18.384516 1.8498578
59.242836 15.229944 -4.075367
56.455986 23.14959 -6.0738063
58.237995 27.740725 -7.1489582
56.370022 23.235104 -3.0913796
56.704918 15.222851 4.7765665
56.326656 23.279385 -9.2913599
55.434898 9.5651226 -4.6145782
60.192467 19.413067 -3.2742424
58.705654 15.228439 -11.561635
56.755589 23.182301 -6.2185001
58.160408 28.908321 -7.1402879
56.192646 15.221418 -0.15443325
59.394901 15.23037 -3.9357505
55.435364 13.422182 -11.889084
57.7939 22.631971 0.23467869
55.434898 13.443406 1.8195223
55.434898 11.886037 -5.0726933
55.434898 3.8030057 -3.4813507
58.153557 21.608257 0.30787653
61.321507 18.285202 -10.443624
54.949284 26.419001 -8.3703642
62.132481 16.547247 -9.0646172
55.434898 6.886404 -1.398211
55.434898 2.4541607 -8.7762213
55.434898 4.9477348 -0.46694243
55.515076 24.089647 -0.32036999
55.434898 10.022619 -7.5872827
55.434898 14.301628 2.2561624
59.212917 27.0842 -1.9100242
59.26384 20.34317 -13.807592
55.434898 13.589388 -5.6036305
53.713646 25.89267 -12.86755
57.598934 28.011745 -7.6926475
62.228104 17.124544 -1.6938211
56.500965 23.103899 1.2540318
55.434898 12.628769 -9.3165483
55.434898 8.8933926 -1.0940089
55.434898 13.389241 -4.2701802
56.837616 22.767302 3.275511
55.434898 6.2039347 -7.528337
55.435852 14.420201 -11.391937
55.434898 10.880832 -6.0727549
58.505383 21.100471 -6.5746937
58.31279 15.227345 6.2640033
55.434898 11.821121 -11.273735
57.615227 28.20042 -7.1809912
55.43544 15.080389 -6.0213099
54.732693 24.872355 -3.6477032
60.926781 15.234653 2.7155032
61.702637 16.452776 -3.2876725
59.220322 26.745234 1.0160952
61.247055 16.352528 4.7987719
62.2281 16.644588 -1.6117526
55.434898 12.254242 2.390384
55.434898 5.164495 -4.6893988
59.596127 20.011286 -16.344528
58.584587 15.2281 -16.511374
56.439178 23.167356 -12.553286
54.856842 24.749363 -11.389334
62.229645 16.916695 -13.42667
58.153549 25.50078 1.7715294
58.006866 15.22649 0.42642462
59.489288 20.116678 -6.6618347
55.434898 11.323171 4.471889
55.434898 7.2468734 -9.3896923
62.147133 17.460007 -12.772676
54.321117 25.285015 -11.238452
58.932148 20.673071 0.36560583
58.161621 26.89868 -8.5915031
55.434898 11.434694 0.058941722
60.534519 19.070936 -1.0853076
55.278603 3.5543518 -12.459404
55.339676 24.266912 -13.618057
59.1241 20.482285 -9.7271023
58.153572 21.418949 -3.1665812
55.888454 23.716322 -0.50983417
59.883263 19.723881 -14.32128
55.434898 10.628592 -5.5322933
61.361763 18.24386 -3.1100421
55.434898 2.8501952 -8.0635586
58.838482 26.618259 -0.66315317
55.434898 12.574512 -7.5046611
55.434898 8.5567751 -6.0460057
57.767891 21.967564 -6.2185001
57.879219 23.092049 -5.2399549
61.122398 16.116482 -1.1329775
59.506111 27.664499 -4.7226419
57.930523 24.087658 -6.2185001
55.437233 24.168596 -8.4657669
55.434898 5.6433249 -4.7695837
55.434921 12.899373 -10.838944
61.27002 18.335537 5.350729
58.849831 28.656326 -6.7351432
55.771347 26.786755 -8.4623947
57.484631 22.120377 -0.6468159
60.831524 15.234385 1.8898964
57.028946 22.576462 -4.5243244
58.153503 25.380344 -0.59972417
56.347343 26.789701 -8.4935064
61.373047 16.380253 -11.509241
59.096779 20.509535 -9.2246304
57.7939 24.218597 -1.8716964
54.479374 25.249857 -6.2185001
55.434898 8.5638123 -0.80348825
58.52187 21.08498 -13.269016
58.38681 21.219547 -10.02138
54.099342 25.50638 -8.5988388
55.434898 9.0277042 -3.6529384
60.612667 15.233773 -9.6192551
55.434898 9.495862 -3.194845
58.596565 21.010662 -15.77686
55.486267 4.2584596 -9.8348083
55.434898 10.537628 0.23857224
55.434898 13.950482 -5.6184311
58.153595 21.889923 -5.238821
59.152637 26.419001 -6.0812602
55.434898 10.224804 -5.1644683
58.957542 20.647682 3.0576863
58.032646 25.334576 -2.1228218
55.434898 13.680676 -3.2908299
61.004642 15.23487 -9.7702875
55.278599 7.6417813 -14.587117
58.212227 21.392891 2.585341
56.639828 15.222668 -6.7264228
55.434898 12.714426 -1.0334094
55.691498 10.368692 -14.882593
58.047264 15.226602 -7.1101222
55.434898 9.3632441 -6.1159334
55.434898 6.4451222 -3.2317779
59.512268 20.093035 5.4015527
62.117493 17.488192 0.72063494
56.046844 23.55859 -5.3816934
55.434898 10.738588 0.51785886
55.434898 8.1593084 -6.3919153
56.746845 22.858068 -1.4135416
56.481327 23.125364 -13.559296
55.434898 12.642214 0.31690693
59.041382 20.56539 -12.392489
55.28503 24.319656 0.84046745
58.153591 21.126192 -3.12339
57.691986 15.225605 -12.713705
55.278595 6.2079353 -14.133513
55.434898 3.3312652 0.88626277
60.257904 19.347511 -0.65617859
59.054596 15.229419 3.4325399
60.92424 18.682825 -13.112911
56.10379 15.221169 5.8365207
55.472157 10.179043 -13.060081
62.229439 17.000664 -12.057313
53.718437 25.888287 -15.614921
59.132332 15.229634 -8.5787487
55.434952 13.324768 -9.4388447
61.122398 16.097897 -12.157639
58.431904 21.175184 -14.925371
57.7939 24.412964 -3.3450754
58.767593 15.228613 -12.608675
56.827484 22.779131 -12.79823
61.156143 16.332525 -4.4920125
61.565422 18.041607 -12.416029
61.664318 17.942085 -8.1541872
55.434898 2.6220648 -9.6789551
55.434898 12.050718 3.2823336
55.434898 12.833805 2.0484009
55.434898 11.389999 0.94346344
56.746807 15.222967 5.4968395
62.228104 16.75491 -3.0483913
61.122398 15.767376 -1.8746078
55.434898 10.947468 -4.0353923
60.61171 15.233772 1.2077633
57.769173 21.837002 -9.2105036
55.434898 14.303059 -4.0110145
55.278599 4.5051961 -15.371844
55.434902 3.1092129 -0.77784991
55.434898 12.423263 -0.48050165
55.327446 24.277905 -5.3099914
60.918488 18.687021 -1.5111185
57.075119 15.223881 -11.829559
58.870819 26.418999 1.3929553
59.7882 19.817139 -2.2709506
61.122398 15.335702 4.1430798
60.454491 19.151459 -5.9197454
55.434898 13.59942 0.22141123
55.278603 8.9289436 -12.446771
56.101723 27.630779 -8.4802389
57.7939 22.534067 -0.011076987
60.821369 18.784124 -2.391212
55.434898 13.545562 2.2296438
55.436035 13.691934 -15.455231
55.352142 25.500473 -6.2185001
57.7939 23.284472 2.7604558
55.702068 15.220042 -11.91661
60.8951 15.234565 5.785665
59.398335 15.230381 -1.0330135
58.153595 21.024538 -1.9758861
55.434898 7.8943944 -6.5319457
54.457985 25.147581 -7.3022718
58.933388 15.229078 -8.1972771
59.213039 26.670246 -1.8615365
55.278603 3.9511807 -15.072411
57.993958 15.226452 -9.0776844
59.130539 15.22963 -4.3289056
56.574192 23.031 -3.3869345
55.434898 12.824841 -9.069684
61.122398 15.760155 -15.65609
55.278599 9.3515987 -11.739875
61.290665 16.362125 1.9688512
53.794273 25.81085 -4.8132491
59.628311 19.977005 5.2446928
60.653229 15.23389 3.9281714
55.434898 12.625628 -10.639466
