# .PCD v0.7 - Point Cloud Data file format
VERSION 0.7
FIELDS x y z
SIZE 4 4 4
TYPE F F F
COUNT 1 1 1
WIDTH 1569
HEIGHT 1
VIEWPOINT 0 0 0 1 0 0 0
POINTS 1569
DATA ascii
57.316254 28.671074 0.84900141
57.198608 29.651447 -6.1106205
52.350044 27.255045 -5.526145
48.505287 31.10022 -10.90228
54.287758 28.787653 -7.4850216
48.615761 35.179729 4.5276046
46.964828 32.638645 6.1742001
46.84742 33.726101 1.1572057
40.563065 28.963175 -17.524761
37.154972 36.580811 -4.882863
37.274467 37.062229 -4.0838776
52.620987 34.070206 2.8317568
53.185341 30.977592 -4.0428352
49.571148 30.033424 -3.8969064
45.861496 32.697968 -0.43894124
47.794624 35.358105 2.8487577
46.971203 32.086838 -1.3877084
53.75042 32.197742 2.3608615
49.524925 29.023994 -16.783009
38.96899 39.043655 -0.79529119
36.081417 35.452492 -6.7555532
46.741753 32.863026 -7.1686306
55.102386 30.861599 2.1822767
37.417507 37.061333 -4.0853486
48.991745 30.613745 -10.476545
41.836262 30.618038 -14.77819
38.533237 38.64835 -1.4513924
47.423996 28.224655 -18.749615
45.349377 35.179783 4.3845911
39.647842 28.793938 -17.805738
49.821495 29.783871 -9.0717268
38.035866 32.51741 -11.626417
55.927437 28.386189 -8.1554871
38.206028 40.123783 1.0850194
46.738335 34.021019 6.874157
57.467697 29.859379 -3.8270397
41.608517 35.456467 -6.7483149
48.505608 34.60976 5.8262529
45.04089 33.567051 0.91028577
47.647133 29.895105 -15.977293
56.156719 29.814121 -0.18227053
43.175625 31.641375 -13.079693
36.652496 29.861021 -16.035149
40.192062 30.475286 -15.015292
54.089439 30.619478 -4.6255779
48.116837 31.488228 -8.1768303
49.843784 29.760113 1.5387968
56.147438 28.336315 -7.4077215
40.835098 38.767483 4.5125632
44.763653 34.840092 -1.5395751
41.958935 30.174961 -15.513511
43.539303 30.067976 -15.690879
46.163609 33.079769 -0.73279381
49.645752 29.95911 -5.833179
50.067001 35.616917 4.8594866
48.176777 34.436584 1.400126
56.412189 30.780779 -0.41670609
48.167156 31.546181 -3.1436005
52.20853 27.396683 -6.4565272
53.30661 26.299267 -10.204369
52.847713 33.083321 0.52354431
53.777031 33.063759 0.31730509
41.525982 38.07671 4.0551019
52.790455 26.816208 -15.822165
45.482784 34.699181 6.6367464
45.670635 34.943874 5.1848273
41.991684 37.61235 5.854898
40.940224 37.444904 -3.2249153
38.171371 39.895786 0.61882901
39.639061 30.054844 -15.713134
46.133789 33.896339 1.4214938
45.738873 33.864937 -1.2994244
49.530727 30.205864 -4.3078675
52.207657 32.279198 -1.9912959
44.719666 34.893024 5.3064528
55.161766 27.985163 -8.695817
55.494537 30.460917 -3.1990438
53.029129 32.911606 2.8654265
46.427994 35.357231 2.847384
40.789413 35.19733 -7.1784735
42.166931 37.435993 2.2409811
55.568783 29.774042 -5.1930661
50.173962 32.007286 -1.5112059
39.019527 29.785961 -16.159443
48.047745 34.615025 2.5372376
53.370232 30.363056 -4.0908575
47.666107 30.96102 -13.548378
46.76833 32.836201 -5.4887667
35.997677 31.417767 -13.451635
41.033699 28.565075 -18.185402
50.642784 28.961227 1.0623444
45.020531 34.582661 3.535598
39.120422 32.055557 -12.39278
54.844017 31.115265 1.5342145
36.477413 31.046762 -14.067304
49.457214 30.148071 -8.7593889
38.927391 39.985527 1.4424307
43.994007 35.609058 2.5201402
56.202686 30.870466 -3.7892051
43.831333 34.986641 3.248281
36.192871 41.419922 4.20544
43.768322 30.761814 -14.539348
53.334648 29.670269 -6.092545
44.444405 34.879333 -6.4673319
49.813156 29.79113 -1.8126606
39.667328 39.935089 4.5500879
40.342365 37.351723 -3.6030781
45.366249 34.23806 -4.9213905
45.95575 33.203911 -0.53763986
50.698868 28.906021 -5.2847042
56.870125 30.375946 -4.3077583
45.558258 34.046329 6.9442673
46.88018 32.723282 4.3222408
55.239578 30.72477 1.6604235
42.644432 36.95842 4.2265081
39.239487 31.222235 -13.775761
39.690582 38.328388 -1.9822683
52.286373 27.319338 -9.7530308
44.498508 35.10461 3.6722674
55.40567 31.656605 1.5750365
53.218201 32.72472 2.8322692
55.513176 30.297338 -5.1665297
35.541405 41.419815 4.1365218
55.093224 28.646015 -6.8382988
39.830994 39.771759 1.8572955
50.453514 30.676998 -4.5099621
45.805946 31.068768 -14.029689
35.487663 30.241478 -15.403874
46.204418 35.704601 4.3791318
36.505039 35.511654 -6.6573257
52.293522 27.311724 -6.6163292
50.754326 28.850153 -2.4899588
49.166351 30.438177 -3.9062767
44.066891 35.537186 -4.2877774
44.51675 33.847752 -9.1071358
47.357998 35.021564 3.3415189
48.689354 30.915096 -3.6815052
53.564732 26.04055 -5.9922705
44.682583 34.921173 -1.6702833
50.771511 33.389271 -0.24625352
50.666561 28.938711 -7.9012651
46.23732 32.118916 -11.932545
52.763584 26.84301 -15.38067
52.598114 28.15432 -8.4756241
37.305019 36.380795 -5.2147951
39.099419 40.504738 5.8512816
53.426754 26.177816 -1.309841
43.058998 36.544495 -0.96822143
42.853363 36.751045 6.207468
51.930962 27.674793 -10.280739
48.242096 33.197834 -0.54719901
57.589577 28.397827 -0.45403242
45.924362 33.679611 -2.3291762
44.422623 35.181404 -3.6586547
50.216515 29.388191 -4.3815742
51.438988 32.558346 -1.552476
45.272015 34.331219 2.6753566
56.580151 29.396429 0.08052063
47.638855 30.800714 -13.997208
37.156219 35.629742 -6.4612679
45.854595 28.476034 -18.332607
44.982269 35.323246 5.5178776
56.68116 28.689373 -7.7037945
41.546417 33.582542 -9.858304
51.858013 34.071518 4.0361757
42.978458 36.625233 -2.3173294
50.936584 28.668667 -7.563601
47.340698 32.26368 -4.0689325
47.744152 31.970106 -2.4771898
54.457554 27.750299 -8.1200666
47.215954 32.040749 -1.4592623
35.669533 30.57008 -14.858501
48.051918 31.553558 -11.033469
41.531586 38.072742 6.650126
46.747482 32.856697 -3.1089835
52.534637 27.070456 -5.4305339
40.04451 34.935623 -7.6128912
38.195515 40.211372 1.3047892
39.22533 31.4326 -13.426641
53.586971 28.49819 -6.9589863
52.939224 33.794411 2.7031727
53.797951 33.051205 2.8047516
47.34692 32.257915 -7.1578865
51.887875 27.717113 -5.161231
47.861935 31.743118 -8.2737465
51.09259 32.725708 -1.2893775
41.919453 37.683506 1.8314388
52.869099 31.030987 -3.0389044
50.794327 35.655483 3.7631068
54.075565 29.674923 -6.0968251
56.768318 30.476254 1.2770739
36.222954 39.95541 0.7175653
50.052959 29.552704 -10.919798
47.108704 33.013866 0.051483512
51.381111 34.54171 3.0126958
57.253845 28.715899 -5.9880109
43.146027 29.073608 -17.341187
35.989445 38.518158 -1.6677561
36.971836 40.17907 1.0888286
51.323963 28.280149 2.818697
47.915398 34.272121 6.427217
50.905975 31.524685 -2.2604313
44.834915 34.76825 4.9082022
52.803848 30.878693 -4.1928978
37.266411 30.074083 -15.681479
44.187492 30.911831 -14.290329
42.498932 37.105457 8.8799095
51.759361 27.844816 2.1053014
48.934921 33.805809 1.2809566
49.455563 30.285133 -4.1848016
35.681126 37.059322 -4.0888939
55.494644 31.578022 0.87792885
46.244431 33.399097 0.64954603
50.218418 30.265991 -4.2145219
47.199692 32.40382 2.3246276
43.596992 35.006172 6.0863514
51.399372 29.91888 -4.7534008
49.191025 32.493851 -1.653859
41.199257 34.231007 -8.7821465
51.922127 27.683092 -6.710463
46.794853 34.994324 6.1075945
53.387493 26.216921 1.8902731
38.806366 40.75346 3.3401799
46.387024 33.045315 -9.3472576
52.555191 31.650543 -2.0781338
52.338257 27.265999 1.7277911
44.853748 30.969635 -14.194324
51.421852 27.733732 -8.1457853
40.762974 38.839825 2.1594381
43.563721 29.265812 -17.02215
36.966507 31.768377 -12.869643
35.528824 32.107361 -12.307228
46.479645 34.791756 6.4707747
49.402367 29.940313 -14.496306
51.15638 32.706497 -0.42570436
53.297455 26.307693 -5.2839155
48.663551 30.941179 -5.5891471
45.219501 34.383724 4.8080635
52.685394 28.321522 -8.2127819
46.141304 32.349529 -11.42213
52.671654 26.932657 0.55601472
50.295433 31.39612 -2.4600272
51.140083 28.464113 -0.29990962
43.6618 35.155018 4.6798291
48.230438 34.968273 3.1992531
43.817986 28.67975 -17.994759
49.336754 35.179848 4.2064834
50.58844 35.517101 5.096571
52.888348 28.109907 -8.5454369
38.437397 39.471638 -0.085069478
37.044456 40.860954 2.2204909
57.996429 29.299128 -6.2241316
44.404842 34.643021 -7.1280699
49.099281 31.824106 -2.7067015
43.986248 28.537813 -18.230297
55.355919 28.070372 -8.6318569
50.245564 29.358486 0.1010741
37.49456 33.979153 -9.2005577
55.81115 30.149475 -2.644197
51.967815 27.638407 -13.398743
47.658775 31.217705 -2.737015
51.387424 28.219135 -16.090324
55.598927 31.486601 0.36751068
52.402786 27.202297 -5.4458776
51.450729 28.153938 -3.2617114
37.008713 41.419968 3.6362038
38.686035 34.209492 -8.8181458
35.343891 37.726929 -2.9809282
46.078342 35.090527 5.935111
37.896507 28.885067 -17.654705
49.975067 32.092224 -2.2852206
44.529305 33.905754 1.4361137
48.808487 33.069771 0.13827324
49.014591 30.58993 -3.9213076
49.351467 30.252361 2.3023612
48.426888 34.319324 1.2157942
44.792633 34.811771 -5.9528637
43.49432 31.967331 -12.538693
36.286331 39.007195 -0.85611653
47.993126 31.61055 1.1138189
37.102642 40.632618 1.8415496
55.364296 31.684429 -2.2387924
56.562733 29.406052 -3.0004952
52.548565 27.056019 -2.0085762
48.495659 31.109879 -11.123426
35.861977 40.506065 1.6314988
37.881596 30.930676 -14.259797
37.491867 39.953026 0.71374387
50.323788 33.75214 1.1976321
45.879066 30.876745 -14.348366
52.449562 33.120579 0.18429518
50.267014 29.338888 -12.398544
56.409424 29.134012 -6.0246744
55.517113 31.561279 2.0901711
35.722336 35.842991 -6.1075273
53.692596 25.912609 -5.4311848
49.126282 29.5933 -15.6846
47.949165 34.491982 6.0358849
42.328442 37.274712 0.81552505
55.914875 31.210411 -0.82506013
40.851009 30.679554 -14.676208
46.874809 35.169235 3.7357626
42.861351 36.741531 4.5332527
56.087994 29.872232 -4.3605666
35.713356 31.461903 -13.37842
36.56945 38.901001 -1.0323155
43.249004 36.355434 8.7561665
50.381618 29.223274 -5.5268512
54.08931 31.85734 0.088892937
41.842621 37.760647 5.6011105
55.910229 30.830793 -4.2156844
36.351578 41.420303 3.385807
49.5765 30.027781 -1.9066241
38.57251 34.665813 -8.0608444
39.499752 33.179932 -10.526717
38.002827 28.941277 -17.561405
39.30759 37.187283 -3.8761034
42.390537 35.745159 -6.2441626
35.998798 36.163658 -5.5753074
37.127594 35.615181 -6.4854326
49.001404 31.86426 -2.6435814
40.526794 35.273144 -7.05268
46.249466 28.207865 -18.777617
50.057175 29.546757 3.2376604
44.337765 34.976738 6.1391253
45.756409 33.846893 4.2655711
41.779938 29.236393 -17.071186
53.741825 32.197792 -0.84192228
44.320133 28.45574 -18.36647
51.23497 29.310307 -6.6584077
51.376308 32.025478 -1.482968
50.93557 31.43026 -2.4070263
53.110294 26.494081 1.5740582
50.665115 28.548321 -16.893639
44.096874 35.179707 4.5993052
42.086739 29.6028 -16.463057
42.547581 37.056808 6.3081536
43.989128 34.183609 6.5847573
41.652229 37.451725 -2.495378
45.94455 35.202709 5.7339797
52.284199 27.322506 -16.443336
39.512711 28.630064 -18.077721
39.811283 33.729786 -9.6141396
51.537823 28.066809 -2.9411957
36.219833 31.250019 -13.730001
44.410686 34.587048 6.8377867
51.229149 28.356318 -16.834734
47.498783 34.407951 1.3551137
40.778175 38.824825 0.82696486
55.897873 31.224514 -1.1007291
43.108406 33.318466 -10.296381
54.562809 31.386986 -0.94551277
40.931305 31.687704 -13.003066
41.312286 28.190123 -18.80764
53.113777 31.672207 -2.9586549
42.607845 31.651222 -13.063416
54.066612 30.505245 -3.9467115
54.191738 28.754477 -6.585988
54.973618 30.977676 -2.3829577
49.468708 30.990978 -3.089
39.696789 39.907413 7.1335044
43.401108 28.939171 -17.56427
44.779636 34.823837 0.2979939
38.080635 30.131889 -15.585442
40.078026 39.486736 1.2810462
38.799091 31.49597 -13.321523
45.852764 34.800369 6.4553237
52.242889 27.362362 -6.6941462
47.304497 31.652088 -12.092857
53.405876 26.199402 -6.122859
53.276909 28.042347 -8.6516457
48.558304 35.531372 5.062674
48.636139 35.088943 2.4256358
41.348785 38.253872 4.4653578
37.4813 41.418247 5.2204885
39.87167 39.381493 0.79818797
53.964165 26.353355 -6.2185001
46.007614 33.596684 -4.4252152
47.11293 32.491894 -7.2303557
47.660831 31.943827 -5.7269306
37.547913 36.458183 -5.0863361
49.168175 30.437263 -10.000557
44.528301 35.076221 6.6960945
54.038273 27.664497 -8.5179615
46.533997 35.066437 3.4613104
50.743771 28.347471 -8.1719913
42.68491 32.844864 -11.082425
36.434185 41.176785 2.7446368
38.604481 40.926586 3.593545
42.217937 36.483829 -4.4744015
54.65519 31.298037 -0.0021772385
37.676598 32.99733 -10.829984
49.655575 29.168592 -16.272047
41.232136 38.370544 3.2116168
54.187515 31.763084 1.215313
40.578568 35.459675 -6.7431097
55.792267 30.167812 -2.7732863
54.986931 28.018879 -7.7686868
48.329205 31.275841 -7.9218473
50.098217 33.066978 0.13393688
40.841717 33.585976 -9.8526878
48.78714 30.817389 -4.1208878
35.227257 35.759602 -6.2459726
56.462624 28.899786 -7.369976
44.6507 29.345108 -16.890429
39.53458 29.546238 -16.557228
41.258793 36.791035 -4.5334949
42.529785 37.073681 -1.1691756
46.655106 35.150978 5.8267288
40.269226 39.335014 5.5742712
49.962906 34.290462 1.1704222
53.907692 25.696798 1.3296442
53.480728 31.604504 -2.2391768
35.125862 37.689091 -3.0437148
45.670662 34.911972 6.2552414
40.159618 30.309061 -15.291166
53.38485 32.559479 2.5881312
46.90535 32.473579 -10.332237
44.469086 34.171055 6.6071053
49.955673 28.904076 -16.667486
51.205299 28.398865 -0.066289037
40.702969 38.901302 8.0599098
47.155296 30.417671 -15.110097
35.216854 35.986259 -5.8698125
42.247063 37.220551 -2.5086648
42.789635 35.29258 -7.0201631
40.313873 39.288982 1.4958205
48.058247 31.545549 0.34184062
47.688484 33.071011 -0.74656105
42.91658 36.68784 7.2267017
45.716473 34.222694 1.0638895
45.706898 33.160244 0.27872944
54.16246 31.786388 0.62712026
56.33989 29.414669 -5.3638463
50.336033 35.380672 5.4149156
52.281971 31.856207 -1.7457526
51.366329 28.238899 -7.1154075
55.284096 31.758249 -0.0409832
38.529461 32.140671 -12.251599
55.366634 30.667164 -4.586319
43.649105 35.953972 2.2341661
42.540207 35.080822 -7.3716335
42.44371 36.796028 -3.4281154
52.282387 27.323278 -9.4524746
46.315994 33.288853 -7.9295883
51.529686 35.018745 4.5185299
53.863724 30.065075 -4.5869813
36.525257 31.063076 -14.040221
49.442982 35.692295 4.6804347
48.530979 31.739899 -1.9263237
44.224415 30.122906 -15.59964
55.326576 30.639071 1.7604587
40.239452 34.010437 -9.1483192
39.337654 29.261553 -17.029715
48.86557 29.946325 -15.017007
53.954605 31.92169 -1.3413851
54.824116 29.232023 -6.8074012
38.487961 41.116158 5.2255349
49.1735 30.431347 -5.9975386
41.447216 32.898216 -10.994027
43.96566 35.06567 3.4592614
52.383244 27.221218 -1.2629209
47.013348 32.862381 -0.18369481
50.03788 29.566042 3.0430462
38.727329 37.484085 -3.3835928
51.803783 27.800531 -0.69285846
46.220608 33.382763 2.8245525
46.093235 29.334204 -16.908356
38.370659 31.299253 -13.648038
42.471371 37.133011 8.2592592
53.444218 33.353687 1.1234012
38.264526 35.73035 -6.2941604
39.453354 39.355831 0.31271505
56.356689 28.367657 -8.1961355
54.784103 32.192642 0.64503348
47.496395 32.108185 -5.3348551
47.836075 33.059834 -0.76413453
48.159298 31.446095 -10.366958
49.709503 29.895554 -7.1064939
39.149052 32.697964 -11.326635
43.492779 29.151993 -17.21106
35.718403 34.045158 -9.0912209
45.479904 34.124516 -5.6154175
46.920639 32.427132 -1.7587452
44.575943 34.958389 3.1728482
44.790012 35.471512 3.1157966
43.814697 31.145319 -13.902878
53.215897 32.721443 0.30912006
40.886131 35.20303 -7.1690016
38.26749 29.864147 -16.02977
48.294037 30.593037 -13.887995
39.367348 40.236828 5.884326
36.417198 41.419899 4.3612509
38.755291 39.040123 -0.80117327
46.948246 32.655613 -0.84111345
53.036362 26.568768 -5.3809795
45.484673 34.139896 0.93373132
46.969063 32.635036 -2.4230344
43.998272 35.604897 1.808385
47.43803 32.166073 -2.1451049
47.791687 31.811913 4.2418385
53.875031 28.400164 -7.1111698
41.368721 31.115496 -13.952657
50.361008 28.999872 -16.010509
49.129295 30.47636 -11.494496
52.548328 33.120461 -0.68674672
45.823208 33.780102 2.3494272
53.957855 32.640232 -1.2816572
55.419796 31.638855 -0.89784598
52.83633 30.073587 -5.4585247
48.1464 31.458933 -9.9653282
46.455933 33.148933 -7.9890332
48.281521 35.346733 2.8308802
47.59029 30.690262 -14.336265
40.804401 29.386063 -16.822912
47.680115 31.518883 -12.067669
56.150185 29.812763 -3.356997
45.476971 34.126953 -2.2899442
46.570213 33.034447 -6.4606175
44.108288 33.224339 -10.452483
50.683529 29.196119 -5.875473
47.332695 32.271023 0.37396991
50.566128 29.680807 -6.0759783
52.277248 29.994251 -5.5832424
52.312199 27.29388 -12.219822
35.012955 35.698761 -6.3469725
36.354244 38.855999 -1.1070309
45.442936 35.179859 4.1611495
54.819489 31.135761 0.016428471
42.14183 37.460941 4.3452582
35.502548 34.66497 -8.062603
46.408722 33.194916 0.27909577
48.340069 30.233501 -4.2649641
47.347801 29.295799 -16.971947
47.874664 31.678545 -2.9355278
54.433857 27.664499 -8.5232124
39.94442 39.659798 7.5825644
52.048939 30.970289 -4.0489073
50.889423 34.916813 3.2312057
50.416992 29.102337 -15.685222
47.336918 32.266617 2.778583
49.072124 30.532164 -2.3051767
43.059532 35.849632 -5.3005457
39.156586 31.556557 -13.220926
48.393738 33.611557 0.97937953
46.290745 28.31148 -18.605656
53.485214 28.676979 -7.6539984
35.930336 33.250118 -10.410652
50.398106 29.207066 -7.3908949
47.139633 34.989059 3.2547379
38.547771 41.054497 4.2622542
39.930378 39.67384 7.5778193
45.819397 33.783916 5.8098526
45.395161 34.208092 4.9919596
52.546608 27.058325 -4.3216424
55.074097 30.887392 1.3076024
47.414413 32.190407 -6.9980001
44.872059 28.952414 -17.542118
48.671021 30.933874 -6.6774235
34.561691 29.807531 -16.124163
54.339054 29.157385 -6.9103823
41.183552 38.419445 1.1219928
36.327801 30.132324 -15.584928
50.47982 29.124722 -3.1229239
38.502575 30.234093 -15.415777
53.847862 33.007839 2.7362254
40.893501 31.156525 -13.884623
57.862289 29.504629 -5.8028102
50.073936 35.065804 4.8932099
52.647362 33.737774 0.35964996
52.19136 34.441536 2.2200494
55.823708 30.136648 -2.8140435
53.562832 30.275217 -5.1474967
49.047649 35.086761 3.5155768
36.142624 37.833683 -2.8037002
55.831795 30.135563 -0.0091853142
45.359394 33.550419 -9.0463505
46.454292 33.149113 2.4361951
57.582855 29.760914 -3.2757919
41.820381 37.783958 7.2926311
37.600319 34.793694 -7.8487291
51.879066 28.768902 -6.5387149
57.309944 30.006508 0.90002608
49.603886 32.316307 -1.0314595
48.836823 30.552698 -13.451641
43.285709 27.88785 -19.309065
44.575382 34.541142 1.5644867
53.579281 30.482754 -3.9320338
48.034122 31.152531 -3.762419
50.659206 31.90992 -2.5718033
40.93689 32.727238 -11.27784
52.370277 32.291782 -1.9729481
51.711872 27.892523 -1.2664195
43.105423 36.498188 -1.7100289
35.274857 31.040884 -14.077198
50.41082 34.326477 2.089273
35.447292 37.697453 -3.0298491
52.472931 33.867592 0.53248793
51.282074 34.639946 3.238111
57.561531 29.780706 -2.6794682
47.624344 30.376596 -15.127067
48.443745 28.890604 -17.644285
46.122555 33.073364 0.14384848
39.007328 36.05315 -5.758358
35.394501 30.644894 -14.734372
41.592579 29.991133 -15.818634
47.410042 32.195 -8.490654
51.489582 34.437817 4.9685855
36.257484 41.419895 4.3014317
49.7901 29.815886 -13.279234
51.692043 32.450317 -0.82341504
44.718605 34.885605 -4.7104526
38.127563 32.297321 -11.991667
48.780464 35.179707 4.6011415
51.319557 33.64957 1.0383908
47.953648 31.650167 0.10067332
56.493801 29.48274 0.48704481
57.556072 29.78657 -2.1701884
52.788177 26.816149 1.5501381
52.366692 32.555153 -1.5625161
48.062138 31.541502 2.7665372
40.433254 31.917322 -12.622045
46.887115 32.172489 -11.141951
50.328541 33.840187 0.4625833
46.350616 33.810986 0.41667867
48.32452 31.24461 -12.144727
48.973213 29.127115 -17.063694
35.352524 37.201748 -3.8525593
38.084801 31.29697 -13.651865
40.629501 35.540009 -6.6097746
44.063293 35.428738 -5.4039388
40.729168 37.601662 -3.0237894
53.509399 29.266277 -6.7276225
43.084503 36.51841 2.9969153
48.758003 30.847149 -8.3523006
38.930614 35.076035 -7.379992
46.395931 33.207458 2.3600726
51.212967 28.392113 -6.2256866
36.976513 30.603287 -14.803239
54.22596 31.728582 2.627624
44.887157 32.181774 -12.182636
46.656822 34.157608 1.8271098
38.182713 34.88348 -7.6996431
49.008862 33.771744 0.354987
43.349789 36.253162 5.1033773
53.218204 26.386557 -2.7339563
38.156788 35.812721 -6.1574745
51.037632 28.567078 -3.8407063
46.637276 35.459854 3.0848846
49.907921 35.699276 4.6638494
46.446579 32.836037 -0.22459716
53.407204 32.376404 -1.8695562
56.359489 30.821781 -2.4862497
43.965919 35.384888 -5.616519
41.12236 33.453487 -10.072533
52.370331 27.235153 -8.172636
45.058914 30.815271 -14.450483
55.836369 31.284805 2.0532126
50.165028 29.438915 3.2344146
53.950615 32.914822 0.91578555
36.199711 32.432186 -11.768076
42.612362 36.990513 2.8746822
50.100525 29.505104 -10.650352
38.247627 30.625385 -14.766417
46.773422 35.542206 5.0369473
39.993492 36.391808 -5.1961999
41.552567 38.050709 -0.49322391
44.085251 29.833097 -16.080616
51.863182 31.331156 -2.5608833
35.604271 35.875179 -6.0541182
51.157333 29.64242 -6.1363258
54.117374 32.769669 0.56579638
53.766685 29.193035 -5.8857393
46.719875 32.884243 -2.7625618
41.04108 38.465427 -0.44133711
39.653015 39.372772 0.55677199
48.844231 29.662325 -15.785212
54.635838 32.31797 -0.71198606
45.012276 35.037186 2.3442709
41.736282 37.868053 7.5301299
53.876091 31.242117 -2.8221827
50.168072 34.625641 1.697318
46.501289 33.102123 2.9328678
54.815056 32.170975 2.9423184
48.712826 30.890905 2.6280878
57.087204 30.191696 -2.5218618
51.476772 29.026566 -6.1386948
52.87104 32.934937 0.15344763
50.517529 32.07336 -1.4086289
47.880775 35.704601 4.1738091
39.80843 39.535542 1.1399448
47.547394 32.056343 0.36516917
42.151035 37.170334 -2.7366443
56.356834 29.617741 0.35636711
48.138203 31.4666 -6.4213514
49.590378 35.199608 2.5996065
45.712326 34.483631 7.023201
37.853474 34.04673 -9.0883636
52.896351 33.611046 0.27406919
43.537319 36.065659 3.0890095
45.618546 33.984966 0.58001769
53.486286 29.671581 -6.0904779
39.555645 31.496696 -13.320227
35.779602 35.582321 -6.5401268
38.310318 40.402962 1.9231334
38.551582 36.27998 -5.3819604
55.931618 31.195824 -0.86590993
47.967613 30.840389 -13.564013
52.435936 27.170719 -16.007763
51.059368 28.544817 -0.29338646
50.79203 33.858948 1.3634481
52.488052 27.117626 -9.4567242
47.99012 35.179958 3.8817761
48.188274 29.545595 -16.557281
43.010384 36.592903 0.33343601
51.092079 28.425844 -16.788944
53.657616 27.664501 -8.4172258
42.540581 33.596382 -9.8352156
49.967052 34.790112 5.505249
49.793404 32.854431 -0.19603264
55.101051 30.36018 -4.2116222
40.613724 38.988831 3.8180211
43.769043 35.834763 -2.5858247
48.57798 31.051601 -2.9948814
43.80114 35.801979 2.0317516
48.847553 30.757572 -8.1257591
43.982201 35.620842 6.0160513
48.823376 30.782259 -11.551664
44.819733 28.622879 -18.089025
37.341175 32.152058 -12.232843
46.565331 33.039562 -8.0550051
43.638649 35.964348 5.5509624
47.133011 32.471645 -6.1010599
40.891579 38.711014 5.0207214
52.327759 34.325253 3.3667748
42.756802 31.631037 -13.096901
55.977211 31.154114 -1.8688335
56.926628 30.330841 -2.4635272
46.769043 35.179901 4.0508356
35.586235 41.419601 4.6723003
49.769753 29.410532 -15.521829
50.820381 28.785265 -10.262807
51.460457 30.482462 -4.8157735
50.183411 34.153126 0.95452356
46.579105 34.899124 3.0146246
50.320251 30.275507 -5.1411066
53.670547 25.934061 -1.4211979
52.738144 26.866196 -0.21640654
49.001434 30.23036 -14.13449
45.482384 34.167156 6.6140423
44.599922 35.004292 -4.8004293
49.112827 30.195978 -5.2661276
39.484303 40.119884 6.9128041
45.554333 34.049034 1.5405482
46.823853 29.396072 -16.805592
53.327312 26.697464 -6.2185001
39.246441 32.272617 -12.032534
49.788681 29.816662 -8.9346924
52.420731 33.339912 0.7316649
54.263031 30.838177 -3.466701
47.220539 32.476555 -0.78267837
47.976761 35.048515 3.4134653
51.932758 34.666248 2.3748622
35.265518 30.645618 -14.733182
50.861729 34.671143 1.7688473
48.403648 31.200071 1.0217693
39.978401 39.342896 0.80337358
38.067051 39.906364 0.63636845
47.171787 32.431721 2.1276715
56.498753 28.803301 -6.7419658
51.11364 30.28907 -4.1786919
46.391876 32.352142 -11.164601
49.697735 29.907017 -5.043911
45.664803 33.939117 -2.1058447
56.231987 29.116745 -7.0256243
46.556572 35.286674 2.7364659
49.373482 30.231194 -4.7311635
53.372799 28.675377 -6.6839108
45.09647 34.506737 4.7161078
55.036125 29.940769 -5.7089834
37.86808 39.903389 0.6314041
49.320068 30.284134 -1.5864137
44.655521 34.94762 3.9421163
40.463943 39.140305 7.4456348
49.379505 29.738613 -5.0332627
48.552574 31.298969 -3.5322204
43.333561 36.269527 1.9106158
38.634708 40.827663 3.3636994
43.442814 35.500137 -5.8362842
57.450127 28.534508 -0.89731216
54.7743 32.204311 2.0697844
46.97868 34.693359 6.6471801
36.023602 41.420086 3.7386835
44.662544 34.940598 3.2010615
39.023918 38.020226 -2.4937794
36.547363 39.857944 0.555825
52.573746 32.704697 -1.3352035
56.000931 30.976318 -3.7082036
44.454075 35.14957 -1.1201842
48.802647 34.795063 1.9636555
39.880714 39.721878 2.9470997
46.283188 33.996799 1.5774596
43.737587 34.543655 -8.0564308
56.753143 29.212343 -5.3244495
39.036671 32.84988 -11.074527
44.038498 28.958796 -17.531622
48.397942 31.206121 -1.2384295
47.712715 35.179821 4.2721891
40.136765 39.466679 5.2671633
40.316177 39.288063 7.4605513
50.260746 29.343214 1.0405055
51.238369 29.236549 -6.7743521
50.494583 34.594326 2.5051
41.674187 37.928524 3.8579161
50.131927 30.38903 -4.0235085
40.252541 38.590797 -0.89973402
53.335098 26.271023 -11.835257
51.898964 27.705233 0.20293877
56.4687 29.439732 -5.159502
38.222042 41.271 5.3690763
55.753109 30.778963 -4.4227338
52.134769 32.63044 -1.4391453
47.036808 32.56752 -3.9303033
45.682693 33.921047 -0.90466261
41.301792 33.714024 -9.6401224
40.563778 32.889229 -11.00905
51.679989 33.553352 0.011523962
55.956818 28.603848 -7.8171749
52.218933 34.418022 2.7176561
48.76342 29.700804 -15.764865
57.09119 28.877552 -5.5994883
43.701572 30.471725 -15.02079
47.135815 33.652721 0.16788971
52.854034 26.75268 -16.164173
55.223984 28.359062 -8.1784496
44.118252 31.874048 -12.693439
38.056187 36.11692 -5.6526332
49.17009 30.435001 -7.6711807
40.624519 32.047729 -12.405605
47.565926 32.03764 3.5482292
46.541233 32.530945 -0.69823891
50.307678 34.766396 2.7722313
43.173 35.179726 4.5435109
56.677052 29.364326 -6.6520972
41.332737 38.270176 1.7607588
51.023403 28.306101 -7.2572002
53.598248 30.820984 -4.2981582
50.059937 29.544477 -2.5414107
37.482796 39.241596 -0.46695328
43.544075 36.058907 4.14676
45.042446 35.596039 4.9090767
43.375759 27.791742 -19.468554
40.186974 32.243999 -12.079922
49.615524 35.123791 3.6144292
51.316967 30.897522 -3.2340872
52.365471 34.242149 1.4331564
56.904423 29.067978 -3.2028897
52.761971 33.173119 1.8783989
43.232071 35.704601 3.7913957
52.540714 27.064241 -4.4949961
42.94136 36.66209 -0.77661252
47.280731 32.740097 -1.2667608
47.464737 33.9259 1.4673874
48.299011 31.633028 -2.0922332
50.853813 32.604996 -0.58328032
45.393887 34.209473 1.4599719
54.458397 30.749619 -4.4329391
56.684982 29.293829 0.4745717
49.523705 30.081415 -7.620605
54.275425 27.92721 -8.6774998
48.564507 31.039206 3.6544371
37.448128 40.626251 1.8310257
35.194523 32.166626 -12.208918
45.231056 34.373287 -5.248508
49.883102 31.739225 -2.8401365
51.368137 34.381599 1.3104951
51.75069 28.1208 -7.5448742
48.602829 35.141396 5.843914
50.55957 29.524073 -5.3663287
36.134247 29.954393 -15.880245
49.042385 35.050087 6.0076113
36.371323 39.246887 -0.45830703
42.166084 31.606262 -13.138084
38.331871 28.870007 -17.679651
53.816185 25.788406 -1.1891038
47.944565 31.66082 -10.463683
37.21323 41.418755 5.3018351
51.847988 27.758118 -12.715014
46.290119 31.941109 -12.347324
42.354256 37.250122 6.3738294
34.996475 29.811193 -16.118034
53.905991 25.698498 0.014492124
47.606674 31.997246 -0.84780002
49.799023 31.515848 -2.2741535
47.767677 34.843906 5.4094963
51.701946 31.779213 -2.7772748
36.091499 39.30743 -0.35785413
53.605011 26.000021 -4.2750263
37.141102 36.28104 -5.3803639
44.248253 33.078377 -10.694701
42.612885 30.428669 -15.092381
40.138454 28.435799 -18.400051
38.136333 29.522448 -16.59687
47.605362 31.998661 -1.522548
44.715496 27.915049 -19.263763
35.030289 32.044849 -12.411031
45.657753 33.946095 -1.6268828
56.515739 29.459898 0.012324333
38.146076 29.213549 -17.109524
48.76535 30.112188 -14.681068
50.517075 29.088186 -7.8922911
42.426739 33.470608 -10.043973
37.963329 41.134674 5.9887595
55.217239 31.818939 1.2163863
56.994522 29.538975 -6.3887043
37.534836 39.007664 -0.85518909
44.395496 35.207668 2.1100149
47.899551 30.137941 -15.479395
40.35717 36.037514 -5.7841473
47.012585 33.216717 0.36640522
46.489738 33.113667 4.1743398
52.516899 32.81805 -0.3226068
44.236305 34.112312 6.7116637
46.387543 33.215851 5.2904887
35.462601 41.420101 3.43242
41.617996 37.942844 -1.2385664
57.017647 28.956326 -3.1168721
46.688549 35.704601 4.1720009
50.162575 29.442915 -9.6773567
49.832947 29.553669 -6.2758408
53.327869 26.277477 -6.6202869
45.397045 33.341255 0.55974394
54.095955 32.78978 1.2663291
43.521423 34.34766 -8.5882769
52.032722 29.226841 -5.8277755
45.378925 34.224606 0.31683969
50.144222 29.459827 -0.032430887
55.100193 29.994242 -4.8161178
34.939629 31.744772 -12.909055
52.144287 34.29578 1.3610326
42.568138 30.02018 -15.770314
43.834267 35.769569 -2.7802792
45.355999 34.247597 -0.12515259
46.681927 32.921505 1.8557574
41.191154 38.163963 -1.0838413
41.707359 28.30241 -18.621243
53.290245 30.321056 -5.0695038
51.892445 27.711935 -1.0477933
47.91188 31.259399 -3.5944262
40.09919 30.461338 -15.038448
42.046825 37.557533 7.0642872
58.185928 29.233833 -5.5060701
46.820354 32.784515 -7.73559
53.62233 32.326729 3.3483663
50.48555 31.785204 -1.8559839
50.429951 28.227839 -7.3787012
44.026573 34.307701 2.0601282
49.174339 34.797768 5.4916172
45.415794 33.525093 -9.0565739
48.470703 31.13361 -2.8656855
36.131538 40.927406 2.3307633
51.832726 28.163563 -7.4784861
44.262295 35.180138 2.5689969
53.683754 32.138687 -1.0645829
46.530426 32.125443 -1.3277724
44.549984 35.17971 4.5849586
41.891045 29.571125 -16.515654
55.351006 28.088022 -8.6042213
35.041855 37.53529 -3.2989671
53.761745 29.634987 -5.2221484
47.588173 32.016994 -9.2445927
38.465221 40.98782 3.6153474
44.036156 35.339428 5.488863
53.30315 32.642269 3.4292285
51.475739 33.773308 0.35744941
48.197865 31.009851 -3.0596962
56.107254 29.859608 -1.5576701
51.163048 29.980295 -4.6580572
35.607693 41.076725 2.5786169
48.668472 30.936501 -7.1678219
46.192822 29.726715 -16.256926
48.396885 31.20857 -10.621418
36.100918 36.324379 -5.3085589
44.488632 35.114483 2.7560973
45.863392 33.739925 6.1361437
55.364223 30.601875 1.7616246
45.253258 34.351135 -5.5890675
35.917011 30.464867 -15.033081
52.134933 27.469299 2.4815865
48.406265 31.197948 -2.2703898
46.775105 33.760967 0.33805144
56.522865 29.446091 -2.7357244
43.855629 32.792042 -11.16995
40.560799 31.281633 -13.677026
51.058804 33.861885 1.3680041
42.548588 30.135462 -15.578995
45.395321 34.209187 -6.2309265
50.358299 34.697655 1.8105255
51.33326 33.475548 0.76822698
38.044918 40.986622 6.2986002
35.748089 32.345455 -11.912061
39.25774 40.34602 5.1601934
47.563652 32.040531 -2.5884733
55.148941 30.806385 -1.5620046
52.48317 31.02879 -3.0303004
35.464355 37.622341 -3.1545103
45.690018 28.813343 -17.772829
52.253273 27.353302 -15.610357
55.955055 30.014799 0.40077162
50.746868 29.520069 -5.3725448
55.619812 31.462393 -2.4166703
36.864738 30.897739 -14.314577
42.136627 37.466805 -1.1510918
49.74794 32.905617 -0.11657357
38.303963 41.298264 4.3226953
38.516846 38.656662 -1.4375998
41.654228 37.948742 1.5855618
50.85532 28.750017 -8.2006512
40.237095 30.711172 -14.623807
55.700844 30.26878 1.5494773
39.40258 35.16848 -7.2265129
49.451015 30.152819 2.2649775
44.463108 32.806721 -11.145524
39.675339 39.367905 0.56627917
45.19688 34.820427 2.8561187
57.852791 29.52206 -5.7278452
46.689663 32.914661 -4.1875296
46.354057 33.250565 -6.3891973
55.158047 30.795912 -2.161437
36.305893 37.723045 -2.9873037
44.630085 34.3797 1.3106997
43.054638 36.548401 2.082742
36.587582 33.745506 -9.5884323
49.697247 29.907837 -7.2538066
44.946312 30.910379 -14.29265
56.537392 29.428135 -4.2008243
38.066288 30.489952 -14.991199
53.540737 32.399254 -0.3897323
45.409863 30.839281 -14.410591
46.861462 32.398598 -0.90370488
48.740993 30.092464 -5.4288468
52.655529 26.950939 -14.622269
38.751694 32.791252 -11.171864
45.178394 35.373295 2.8726377
52.493057 34.182442 3.4967697
36.223473 30.677738 -14.679766
47.94236 31.662312 -5.674881
53.004322 28.06764 -7.6274052
37.287556 37.834187 -2.8027329
53.39275 28.299679 -7.26717
55.387371 29.816305 -5.9125319
50.565334 29.038761 -0.018593431
43.955238 29.562559 -16.529625
46.688465 32.269066 -2.0072181
46.764854 31.466013 -13.121861
43.813087 28.714067 -17.937801
48.984158 35.326347 5.5123134
37.797531 37.87331 -2.7377474
51.546692 32.872307 -1.0589226
42.792934 36.810226 1.0837054
53.783436 33.058632 0.50239706
51.513172 29.812098 -4.9191809
48.737228 30.866508 1.5498897
51.830444 29.956984 -5.64183
37.288082 41.186081 2.9602356
53.286125 26.319731 -10.072705
47.046272 32.557396 0.49025345
55.338226 30.476952 -4.8818898
47.278297 34.790314 2.8093727
45.028389 33.716003 0.26736552
48.323494 30.086639 -4.4929633
40.404915 39.199337 7.9266796
56.638371 29.046728 -7.1458597
35.522461 32.568493 -11.541932
44.71006 34.894474 7.1576405
47.512951 34.461819 1.4397881
49.321774 29.054312 -16.906494
48.994301 30.611132 -10.064022
49.602081 30.003031 -7.4996657
44.566521 30.578686 -14.843182
45.786659 33.134502 -0.64675593
45.795845 33.807682 0.61550784
51.117725 28.486355 3.2251582
46.105957 33.497398 3.2741556
50.478111 35.179848 4.2116337
54.202633 28.3417 -8.1810608
37.71138 41.007175 2.9129388
41.421295 38.181507 2.6130571
42.118206 37.485062 -0.10499454
54.322807 29.783485 -5.0550938
57.317047 29.146177 -7.009531
50.672607 30.246572 -4.2446666
57.085251 30.194115 -2.1977024
36.4543 38.299572 -2.0304663
54.283825 31.668501 1.4451387
47.713676 31.890617 -3.2368481
45.910027 33.032688 -0.80680686
44.12817 35.474892 3.0067716
52.234573 28.04842 -8.6420994
56.019562 31.117369 -1.9051782
48.067238 34.813519 6.431756
37.615517 34.823624 -7.7990513
41.357491 38.245171 5.3121057
47.844063 31.759542 4.1336088
47.458702 32.144844 3.4780121
48.598534 29.936111 -15.310982
49.814617 29.046741 -7.072731
41.529926 38.073391 -0.79832006
43.995453 34.976944 6.1387548
40.572662 39.030125 2.166116
50.767948 28.176378 -8.4409456
52.669685 26.936382 -11.938572
52.819584 26.78558 -5.7123227
46.518898 31.085539 -14.001774
51.129559 28.474529 1.8357742
53.424133 31.728786 -2.8790119
48.001064 31.602568 3.365118
47.755646 31.849623 -9.7914248
42.356182 34.567295 -8.2239056
57.394871 29.921642 -4.1765423
35.056255 37.617928 -3.1618094
43.379215 36.224537 -2.5231421
50.859695 28.74435 3.2887759
35.231041 34.939835 -7.6064634
56.644859 29.327721 -1.8598325
57.775539 29.601839 0.19062698
56.869232 28.418055 -8.1316719
55.410488 31.242994 -3.6075587
49.103264 30.502264 -10.658433
55.166164 30.786676 -2.7456756
37.149796 29.855633 -16.044033
36.652981 30.430729 -15.089655
45.950405 33.65295 1.8866835
45.133606 34.469604 6.0520554
53.907486 25.697004 -0.033965617
37.422749 41.418442 5.0625896
37.142902 39.86969 0.57539356
47.353329 34.347115 2.1213155
52.487411 33.444893 2.0893497
39.92775 39.310009 0.66632128
35.395332 35.837276 -6.117043
57.504128 29.838741 1.0527246
52.596123 32.159386 -2.1854205
49.327461 31.985529 -1.5449847
48.196053 31.40789 -0.57264364
47.083229 32.366982 -10.434716
45.596668 34.007183 -1.6718826
38.297146 33.019512 -10.793097
53.704014 25.900818 -2.8848562
41.349236 32.242973 -12.081488
49.57214 33.508476 0.81934661
37.855831 31.694265 -12.992531
50.141125 32.839859 -1.1099399
38.44595 36.968731 -4.2389145
46.0116 33.592297 -1.7218499
53.961372 32.911022 3.383889
41.710278 30.783421 -14.503735
51.751259 28.771439 -6.5347776
39.143646 34.869217 -7.7232065
42.441055 37.163322 8.2691288
49.788322 32.913189 -0.10481739
49.61425 29.990635 -5.9906988
50.039585 29.565306 -5.7247558
50.162575 34.329296 1.2314682
50.346531 34.276661 1.148724
45.235249 31.230036 -13.762115
53.314983 31.572491 -3.1195285
49.873699 29.428497 -5.5147066
49.253132 32.053082 -2.3467505
47.95153 35.48061 3.1399322
35.128418 38.225113 -2.1540914
44.450005 34.756542 6.5339069
42.3731 37.231289 7.5079479
35.193302 37.355122 -3.5979936
49.756073 35.179924 3.9854429
54.709351 31.243675 -0.34938145
53.647205 29.178078 -6.8662705
51.785648 27.820122 -10.476557
44.870094 33.811481 7.2471128
53.047127 26.558973 -11.885283
45.269783 30.37513 -15.180921
48.895981 34.420765 2.2356536
49.16127 30.444174 -10.034938
47.135448 30.829193 -14.425864
46.958778 33.325729 -0.34614456
49.207893 30.397232 -7.8694835
51.595871 29.10004 -6.0246339
48.974285 30.631231 -10.648713
50.058601 29.547422 -13.341836
54.615356 32.34391 2.9633348
39.621033 33.010674 -10.807606
43.910465 35.693325 -2.4403918
48.14904 31.454695 0.80620712
52.179184 27.42695 -12.6413
57.531609 28.446787 -3.8307915
51.449371 28.156803 -13.445112
56.748009 29.224174 -2.5256004
53.562965 31.398661 -3.397161
54.800949 31.156536 1.0143805
42.883873 31.513456 -13.292023
52.789787 26.815849 -8.9573116
47.878441 32.940842 -0.95118487
52.354042 27.252062 -12.380955
52.924271 26.681694 -11.034115
44.940281 35.160919 5.8089066
51.58522 28.01936 -2.6011071
50.578625 29.026335 -5.8439479
40.149803 39.248482 0.72646666
38.77713 40.825153 4.2570868
56.927742 30.336098 0.31977701
55.453278 31.387627 -3.1550789
40.505596 33.72419 -9.6233482
37.026489 32.114376 -12.295413
40.907539 28.837437 -17.733398
49.865433 29.991348 -5.5878077
41.949547 31.451389 -13.395144
49.928131 35.003803 3.2941027
52.536812 27.069725 -15.156233
52.923862 26.680981 -3.4777422
46.21357 33.390575 -3.2563171
49.609711 29.994154 1.3877757
43.058483 36.545937 7.6977787
50.920334 28.684288 -3.297471
47.102451 32.337772 -1.8992186
50.756302 28.610979 -16.637793
48.596878 30.063263 -14.97826
50.779053 34.167198 0.97665119
48.441616 30.019335 -15.24909
52.385017 34.276405 3.6889319
52.651825 26.95327 -5.3497734
49.645462 32.721962 -1.2952743
50.363201 33.241409 -0.47869462
53.604809 25.999756 -1.1560204
44.762974 35.070869 2.397223
39.979378 39.62484 7.663599
57.053192 28.920734 -3.3075435
42.929047 28.548693 -18.212366
47.792343 31.81147 0.032142878
52.199703 27.404583 -0.22647677
38.210106 33.577797 -9.8665724
49.852871 34.668602 2.6204107
37.819832 33.240383 -10.426588
53.052376 32.992153 -0.90047246
56.462746 30.739441 0.66961336
45.752525 33.852005 -6.2087655
43.820145 34.643368 -7.7116327
36.294098 37.787048 -2.8810763
43.497658 36.105789 -0.40927315
57.576267 28.405697 -2.5994146
45.702053 30.605629 -14.798333
55.678696 27.766003 -8.7099972
48.965008 30.639019 -0.60731792
50.731491 28.589279 -16.719631
52.25872 27.346922 -9.2866316
53.300457 26.304382 -3.2071946
45.629635 31.20447 -13.804496
39.433804 40.063488 7.3488798
54.126492 28.320402 -7.2349987
52.577564 32.617607 -0.62937754
48.667137 30.937222 -3.0985997
46.910179 32.694786 -8.3470745
53.135307 31.224232 -2.7754102
53.749916 27.384516 -8.3934002
51.811512 33.195095 -0.55150068
50.157116 29.824865 -4.8993587
35.873398 33.333118 -10.272917
43.37711 35.439384 5.2811766
51.502773 33.87915 0.52384067
50.007378 29.59724 -3.9500775
41.24675 38.355896 5.0304527
42.540516 33.232613 -10.438931
51.941048 30.356659 -4.0737615
50.471745 29.133984 -11.090523
35.525806 32.15646 -12.22575
45.838921 30.34322 -15.233808
54.077705 27.574638 -8.1091995
52.38942 27.215008 -1.043807
43.754143 33.417732 -10.13156
37.572487 41.206146 3.2971802
51.992283 30.855595 -4.2292109
42.503048 33.875088 -9.3726826
57.287762 30.022461 -0.5567652
39.955406 34.064846 -9.0580492
38.953487 38.331142 -1.9777862
52.338287 30.635046 -4.5759144
52.735977 32.931107 -0.0057981014
38.890556 35.959164 -5.9143529
44.076843 32.333008 -11.931749
43.467983 28.390713 -18.474489
47.627586 35.704601 4.0953093
43.213844 34.711548 -7.9844012
44.698692 34.904972 -1.0521944
40.149323 39.453793 5.1757994
36.926247 34.100498 -8.9992352
44.330933 34.640926 -7.2074308
55.399002 28.666937 -7.7035809
39.532372 31.569696 -13.199076
37.692543 37.011868 -4.1674128
36.248524 41.419586 5.0167298
56.048599 28.881771 -6.5795012
49.165241 35.445755 3.0475037
40.360859 29.515142 -16.608738
50.029129 28.934723 -6.2812781
43.155239 35.104122 4.8015647
53.036308 32.247292 -1.2305787
56.094017 29.741974 -4.7693553
40.054462 39.549763 7.3594341
49.447529 30.156555 -0.67701793
44.528641 35.515198 5.1011043
52.252937 32.78212 -1.2057782
55.96727 29.831142 -4.6712961
44.587543 34.276157 7.395174
55.88636 28.434233 -8.0795069
47.807316 30.67942 -3.5726881
36.980515 33.485653 -10.019637
47.426731 32.176899 1.0064228
40.795891 30.104031 -15.631361
46.09911 35.43195 5.2988472
47.602867 35.528351 5.0698557
44.66774 34.935402 4.9147611
44.906151 28.125021 -18.915268
52.528873 27.075417 1.9872181
46.135078 33.469627 -7.110878
48.203964 31.39994 -0.28400958
49.372742 32.663174 -1.3876851
40.184093 37.588814 -3.2096181
55.631134 30.330971 -1.1628406
55.082619 30.878464 1.1014326
47.502045 35.358784 5.4541626
51.105637 34.816456 4.6892576
50.608192 33.04921 -0.78083503
54.047905 30.077892 -4.5860519
45.872826 35.107777 3.571681
41.465893 31.145786 -13.902379
49.040295 33.107185 0.19635856
51.162056 32.91613 -0.10025406
46.031227 30.344318 -15.231967
46.91819 28.260221 -18.690649
48.874104 35.068649 5.9743376
41.643032 37.023209 -3.6310201
37.18404 32.661453 -11.387467
39.641399 39.638214 1.2429304
43.790501 32.655312 -11.396878
38.096142 40.602356 2.2332561
52.616962 26.989681 -15.821695
39.075272 35.321644 -6.9723654
57.103889 29.374315 -6.6482439
49.059078 29.927059 -14.874179
43.807678 35.443462 3.0414314
57.427971 28.555468 -1.2748404
48.799995 34.55645 2.4462993
48.299412 31.304493 -0.23885238
43.398033 29.340431 -16.898333
49.654205 29.436356 -6.4602551
57.448284 29.884758 0.011017323
42.817947 33.792583 -9.5095711
49.829868 35.422035 2.9845984
43.078358 36.525116 -0.84796214
46.216202 35.704601 3.8990355
48.491978 31.111725 3.789788
41.092911 32.290943 -12.001905
48.094509 31.509794 -3.0694561
48.168442 31.436169 -5.0993137
47.98233 31.322649 -12.281521
52.314915 27.289642 -1.9521036
45.117897 34.485306 4.1222897
51.64893 32.036827 -1.4653435
34.796394 30.744032 -14.569909
54.518684 31.429008 -1.5848916
54.49036 31.459476 -0.57348466
42.268936 29.501005 -16.631977
36.029285 33.6236 -9.7908163
49.539593 30.270786 -4.207078
44.960152 34.027424 1.6250033
49.500343 30.105318 -11.288688
42.916775 31.889967 -12.66716
48.780037 29.677719 -15.808949
54.926968 26.965784 -8.146493
56.350182 30.832874 -1.1318668
51.707279 34.218155 2.4440265
48.982059 35.160889 3.7134743
50.167736 29.437969 -11.140049
53.069302 26.535681 -4.3140059
38.767761 40.459904 6.9676094
45.804688 33.799423 -3.3663275
49.149788 30.45577 -10.790913
45.817726 33.373646 0.61002612
45.943546 34.54084 6.9206333
35.569618 37.404572 -3.5159242
37.049789 39.911316 0.64446247
48.079536 31.524704 -2.6628594
54.161209 30.192509 -4.425343
53.0965 27.45463 -8.1091995
49.870617 30.566839 -4.6831312
43.787922 28.088154 -18.976582
52.142967 28.390963 -7.125453
53.383324 25.891722 -6.2185001
45.320984 34.282253 4.522881
54.628635 32.332359 2.9414303
48.603451 32.067108 -1.4183316
45.097656 34.506905 7.0249367
44.667404 28.495148 -18.301025
43.510777 35.200203 2.6005363
50.909866 31.74839 -2.8257296
57.521805 29.819632 -0.64996743
35.875099 38.664768 -1.4244521
41.606838 29.009146 -17.448345
44.036724 35.611641 4.8720155
49.107014 30.498034 -7.4058423
34.912739 35.125793 -7.2978868
47.039856 30.417343 -15.110651
39.890984 39.713234 6.6847377
35.47123 33.260281 -10.393843
39.295845 39.569527 0.71707416
41.110073 38.494217 7.726356
42.368622 35.78801 -6.1534028
51.524296 30.141415 -5.3519034
52.909561 28.931995 -7.2531128
46.71796 34.320503 2.0800028
39.286621 29.099718 -17.2983
51.127419 32.309147 -1.0425819
53.119164 26.485214 -0.21223666
47.196476 35.179764 4.4328184
40.553391 38.784893 -0.088889122
51.469086 28.135044 1.0716066
54.104298 31.573898 -2.0980117
54.67403 31.277992 -0.58365893
44.981892 30.225374 -15.429488
49.179176 34.567699 2.4637642
46.354843 35.704601 3.9924316
46.611874 32.992657 -5.6269016
45.77108 33.275242 0.45725977
42.179245 33.213699 -10.470369
43.349388 35.363758 2.8576462
45.589554 32.498814 -11.58145
45.666943 33.936665 0.022334337
41.816666 37.786282 1.8703753
41.427711 37.544273 -2.4764562
51.322018 28.106861 -8.550231
45.541962 34.062515 -5.9189873
52.439705 27.166061 -9.9850054
41.698448 33.771404 -9.5448446
42.163891 37.438931 2.9527807
44.322586 35.621094 4.8495555
51.227783 30.952232 -3.1491513
49.617172 29.987869 -7.0699611
52.986576 29.663404 -6.1033335
40.875919 38.726669 4.9854083
57.694366 29.672279 0.26323348
40.871605 38.067822 -1.6558976
53.734669 33.10146 0.77645612
50.142536 29.461403 0.83928561
54.531998 30.001572 -4.7486625
41.128338 38.47596 8.1283264
45.872715 33.876499 0.51966548
51.150173 28.454693 -4.8145604
51.889408 34.665958 2.09566
53.162315 26.442062 1.4964838
52.05883 27.546289 -5.9092216
49.392246 31.85043 -1.7547284
54.173416 31.776272 0.91452146
39.023617 32.825874 -11.114371
55.788555 27.849281 -8.7130108
36.437672 40.225208 1.1653357
48.030777 31.893162 -1.6883837
49.160286 30.444157 -3.307445
41.033714 28.788658 -17.814339
41.656437 31.607708 -13.135742
41.081264 38.521675 1.4269447
40.771362 29.424223 -16.759583
40.111584 39.492641 7.7101331
52.382057 27.222546 -2.2233522
49.538589 34.313015 1.2058735
50.60033 33.571697 0.91749442
51.410217 28.193909 1.3090346
50.898735 35.020153 4.0480709
42.46867 37.120117 -2.5512249
55.534267 30.425383 -1.6897092
47.375397 28.3808 -18.490482
37.831104 38.560898 -1.5966136
53.147129 33.204109 -0.57284951
49.869312 29.734592 1.3902556
50.779778 30.070604 -5.4632173
50.485767 32.86351 -0.18193996
36.238201 33.951923 -9.2458897
55.886528 30.075787 -2.3242071
43.276005 36.327362 -0.0018436909
40.074062 32.175251 -12.194029
51.276173 28.8256 -6.4506903
54.081726 26.555 -8.3934002
47.355305 32.24823 6.0935001
42.448589 37.155788 8.1499968
35.006416 34.452862 -8.4146795
51.839489 33.745922 1.1700956
47.940414 35.571163 3.3800578
44.594151 34.280029 6.4131422
37.326286 34.954185 -7.5824022
39.806156 34.333565 -8.6120996
48.4217 31.182426 -1.6559322
36.843563 38.527164 -1.6527131
52.298203 27.306261 -1.3365601
43.754387 31.233829 -13.755991
46.449566 33.153839 2.0078797
45.674561 34.396881 6.2051544
39.601231 40.001175 4.812161
52.14513 33.785172 2.9450464
37.400116 35.061913 -7.403615
55.646294 30.319199 0.1372149
46.313541 33.289837 2.1421504
57.034374 28.934322 -5.3413172
53.157745 33.021027 -0.85838258
53.697319 32.24395 -0.18171358
43.491432 36.111542 5.6073537
46.450024 32.6474 -1.4124856
52.418102 27.188078 -12.828559
54.792374 31.163303 0.32066512
44.338017 35.266083 -4.2003107
47.12516 35.370205 2.867779
58.472313 28.990339 -3.5173244
50.195168 34.330769 2.0959327
37.741245 32.739288 -11.258218
44.756733 34.336582 2.1049609
36.701622 32.598549 -11.491915
37.726295 32.239174 -12.088216
45.193916 34.275265 6.4216194
52.844757 26.759575 1.9509432
54.04097 31.912594 3.1349533
42.481049 30.787806 -14.496367
45.077847 28.475372 -18.333803
46.427643 33.176605 -3.8134665
50.374672 29.230146 -5.0587988
47.324791 32.239147 -10.52937
49.073166 30.532429 -11.137548
38.507259 40.518166 2.4227705
38.355106 36.840866 -4.4511342
49.997902 29.606075 0.35331467
45.785637 34.173302 6.6031108
38.203781 41.30677 4.1925392
45.991173 29.214315 -17.107334
41.120831 38.483463 8.3578596
48.935013 34.776058 2.7872338
55.672146 30.287651 -2.300561
44.765381 33.763348 1.2150264
44.967777 34.39439 2.1947048
55.426067 29.637873 -6.1915936
42.386517 28.230587 -18.74036
53.141579 26.464708 -13.077797
57.837513 28.154211 0.090681076
45.366688 34.209343 -7.3069448
53.846615 30.230267 -4.337431
39.211601 29.258352 -17.035046
41.188618 38.414421 0.81819129
40.633762 31.724127 -12.942655
50.348663 28.935638 -16.191698
47.293377 33.854858 1.3570964
52.963058 33.483223 -0.0081319809
53.536957 31.961967 -1.6880559
51.346008 28.259695 -10.30397
34.592663 30.885242 -14.335579
54.631577 29.656727 -5.2759595
45.526428 34.077602 -2.9715033
51.060165 32.925217 -0.975752
52.499294 27.105383 -2.6483731
48.628708 35.61829 3.5050159
40.423988 34.728443 -7.9566908
46.163502 33.440212 -0.4101882
56.680645 30.551207 0.85230666
47.483963 30.904547 -3.223182
52.897972 33.043232 3.6973701
