# .PCD v0.7 - Point Cloud Data file format
VERSION 0.7
FIELDS x y z
SIZE 4 4 4
TYPE F F F
COUNT 1 1 1
WIDTH 1472
HEIGHT 1
VIEWPOINT 0 0 0 1 0 0 0
POINTS 1472
DATA ascii
-32.103039 -22.076277 -17.733713
-26.248318 -7.5907559 -13.101665
-32.1497 -20.924942 -10.260196
-31.033081 -10.7692 -22.654438
-34.371601 -10.952938 -16.619345
-21.131504 -7.4813242 -16.981241
-24.67502 -15.972343 -22.642469
-25.557058 -15.57629 -22.642769
-32.793758 -9.4848986 -23.003532
-32.10302 -23.039753 -18.363754
-34.371601 -11.212366 -15.524052
-26.379852 -14.527411 -22.643051
-30.150766 -8.7111664 -9.1892862
-29.412336 -10.387226 -26.117928
-32.103184 -15.969862 -12.436665
-25.098562 -11.261857 -22.642632
-31.168053 -9.0059824 -11.203518
-31.742771 -9.1765728 -16.793295
-30.445633 -8.8069925 -21.220631
-32.368065 -22.827126 -11.148094
-32.103012 -22.667521 -18.57074
-32.103039 -13.576593 -17.636049
-32.225681 -9.3135967 -14.518037
-22.034681 -17.837038 -22.641571
-25.007965 -8.895154 -22.293652
-27.739014 -22.395805 -22.643482
-32.103035 -20.950474 -17.777359
-22.090143 -8.1176863 -19.372858
-22.664007 -17.443176 -22.641785
-32.103172 -25.860247 -12.828721
-34.371601 -10.456082 -18.504866
-34.371601 -11.239689 -19.623676
-29.918327 -23.649239 -22.644215
-27.625662 -7.9878497 -13.544972
-31.464493 -9.1007051 -21.516747
-34.371601 -11.171098 -25.326221
-32.103134 -25.538843 -14.317253
-31.905972 -10.748874 -26.118011
-32.103077 -18.782883 -16.317984
-25.73859 -8.9807606 -22.614992
-32.1497 -19.20031 -7.9455109
-32.103294 -10.918315 -8.5892248
-32.11245 -9.2823906 -16.071253
-32.103153 -18.565895 -13.461347
-24.605259 -20.788136 -22.642427
-32.103188 -17.220839 -12.302944
-32.10318 -19.493401 -12.534763
-29.123451 -24.773766 -22.643942
-33.195698 -10.7692 -19.103083
-30.571774 -8.832552 -9.3340321
-33.622501 -11.177771 -9.6173382
-31.440184 -24.928234 -22.644724
-25.192211 -9.905057 -26.090004
-33.622501 -10.950588 -13.817743
-32.103104 -13.574182 -15.387305
-21.398315 -19.352428 -22.64135
-34.26149 -11.8008 -24.591188
-26.129608 -25.238432 -22.642925
-32.103249 -13.398178 -10.318154
-31.970549 -9.2432928 -18.024849
-32.102928 -13.431027 -21.711744
-25.374454 -11.8008 -25.661341
-23.654518 -7.8777103 -18.469711
-27.673721 -8.0008535 -12.619781
-29.675489 -23.852631 -22.644131
-22.91255 -6.6305847 -13.733672
-32.103157 -22.814692 -13.301867
-32.103165 -14.706844 -13.217425
-23.998302 -7.4754157 -16.957167
-29.90979 -8.6471615 -15.149679
-30.718544 -8.8859682 -21.631847
-33.742321 -11.8008 -23.261272
-34.004662 -9.8329754 -22.253321
-27.975996 -8.0890121 -13.833765
-32.10294 -19.01705 -21.202826
-27.505289 -10.7692 -25.087072
-25.247868 -7.4060946 -16.695759
-25.662785 -7.4233141 -14.425122
-27.581062 -10.7692 -25.437944
-32.102955 -23.252523 -20.659081
-31.918568 -9.3076668 -23.839897
-29.194164 -10.7692 -25.339331
-32.103233 -13.097225 -10.911201
-32.103195 -12.621539 -12.127798
-23.484989 -6.9297581 -14.90624
-32.103218 -11.154455 -11.367063
-32.103119 -22.526159 -14.751066
-32.102978 -18.053818 -19.961731
-31.37225 -21.19241 -22.644714
-24.722281 -10.7692 -25.234301
-32.901455 -9.5048084 -10.744873
-32.103065 -20.850613 -16.645966
-32.1497 -17.559444 -9.3727217
-32.103241 -12.65778 -10.532749
-26.545961 -11.394697 -26.117826
-26.235907 -15.78269 -22.642998
-32.102959 -20.128574 -20.625557
-32.103096 -17.288641 -15.640993
-31.166189 -22.579956 -22.64464
-24.14011 -14.289402 -22.642296
-32.689213 -11.023585 -26.11804
-32.10302 -11.358582 -18.340084
-32.619537 -11.09495 -26.118038
-32.103081 -14.04421 -16.164026
-22.946102 -8.703907 -21.57605
-32.103001 -11.910356 -19.065403
-32.10305 -11.00526 -17.412409
-25.700748 -7.4351401 -15.41066
-27.036261 -7.8186092 -14.111873
-32.103039 -20.099213 -17.565495
-32.1497 -20.151093 -10.885825
-32.493893 -11.714837 -25.6094
-25.480522 -9.7668056 -25.570095
-33.68716 -11.8008 -20.192844
-27.462395 -20.488811 -22.643394
-28.690388 -16.627726 -22.643826
-32.102917 -10.960787 -22.137167
-30.12392 -13.787882 -22.644318
-30.596708 -9.9004822 -26.069294
-28.322298 -22.042713 -22.643681
-31.002058 -8.9670467 -20.995518
-32.102974 -16.623056 -20.07305
-27.150221 -11.8008 -25.811024
-32.103172 -12.012531 -13.019566
-24.626808 -24.831676 -22.64242
-34.3908 -9.9437532 -21.773222
-31.285107 -18.132389 -22.644697
-32.493713 -10.7692 -15.490764
-32.541599 -17.301861 -10.210233
-30.661741 -8.8619652 -13.197243
-30.476894 -9.4723167 -24.459791
-32.103184 -21.736103 -12.434876
-25.973478 -24.584824 -22.642878
-26.248871 -19.134045 -22.64299
-32.103054 -24.534338 -17.037231
-26.413393 -7.6386304 -13.467789
-27.417431 -9.4129744 -24.238699
-32.103104 -17.591183 -15.391578
-34.685238 -10.085733 -26.437157
-24.164335 -8.272357 -19.952953
-29.278103 -12.610416 -22.644039
-24.154697 -6.9877586 -13.093863
-32.059044 -9.2641888 -12.958864
-32.103161 -23.521227 -13.275834
-30.635099 -9.5601597 -24.789911
-27.05549 -22.94223 -22.64325
-32.103043 -20.152477 -17.484245
-34.702255 -10.274863 -16.276064
-32.10323 -13.297939 -10.875682
-26.844614 -10.7692 -24.397915
-30.545288 -8.8286743 -13.472752
-33.622501 -11.717547 -25.121948
-32.320156 -10.7692 -14.604983
-32.1497 -18.101456 -9.9985189
-24.226419 -7.8105278 -18.216785
-32.103275 -11.978672 -9.3692598
-32.10318 -22.229641 -12.60267
-32.123844 -9.2920361 -23.093678
-27.361828 -7.9072685 -8.4753571
-32.103191 -20.269421 -12.195918
-31.703403 -9.1643543 -15.821905
-32.103081 -24.762466 -16.174305
-25.588812 -7.4035807 -16.160416
-32.103161 -23.74028 -13.198656
-31.896397 -9.2237587 -20.035936
-24.140566 -8.8823452 -22.246063
-32.10326 -14.995283 -9.7342215
-32.103134 -13.31925 -14.383562
-27.728189 -10.769199 -23.488649
-30.056974 -8.6874247 -12.80022
-27.509377 -18.416918 -22.643421
-29.157459 -11.8008 -25.880711
-33.622498 -11.761558 -9.7374153
-32.102924 -25.628876 -21.85482
-28.349869 -21.543781 -22.643692
-32.305199 -21.9391 -11.774034
-32.10297 -19.074135 -20.12998
-32.103226 -14.38093 -11.077376
-27.17058 -22.430433 -22.643288
-27.458557 -23.024837 -22.643385
-32.10297 -24.437588 -20.135588
-24.318842 -18.170109 -22.642342
-26.85433 -10.7692 -24.914265
-32.103111 -20.787415 -15.109209
-32.103306 -12.132969 -8.2018232
-32.1031 -21.506729 -15.381794
-26.300068 -18.649067 -22.643009
-32.10297 -13.06439 -20.153254
-26.462519 -13.010994 -22.643085
-32.102989 -25.501823 -19.490433
-29.084148 -8.407649 -13.253549
-32.10302 -22.754459 -18.383089
-30.661234 -24.618237 -22.644463
-32.541599 -17.234821 -11.143489
-34.705936 -10.122846 -14.738042
-33.035717 -11.749325 -25.6094
-28.259422 -23.073805 -22.643654
-32.103195 -15.894422 -12.128665
-32.363571 -10.7692 -16.448425
-34.589359 -9.9983006 -18.860094
-31.489445 -9.10781 -21.425499
-31.836418 -10.00781 -26.471956
-25.420391 -13.128486 -22.642733
-23.496222 -15.771447 -22.642071
-29.926392 -8.6563759 -20.042183
-30.041403 -22.487219 -22.64426
-32.10305 -13.812735 -17.328072
-32.103077 -19.697178 -16.269382
-32.37011 -11.8008 -25.62092
-32.541599 -20.544374 -11.377835
-32.1497 -19.545311 -9.6538591
-28.207207 -9.4579372 -24.407211
-32.103165 -14.592318 -13.183401
-32.103092 -24.363388 -15.731853
-29.98592 -10.03354 -26.563669
-21.60656 -22.887476 -22.641407
-34.155678 -11.8008 -8.7657299
-32.418571 -9.3655062 -10.495564
-23.350286 -17.994593 -22.642015
-32.103207 -13.392281 -11.762415
-32.103195 -11.689936 -12.215058
-32.103039 -21.078712 -17.697483
-34.371601 -11.64127 -13.276348
-31.076042 -22.922453 -22.644608
-29.61121 -24.472754 -22.644108
-27.245796 -23.257473 -22.643311
-34.161171 -11.8008 -13.786276
-33.465496 -10.319933 -26.560661
-30.048233 -21.67765 -22.644264
-27.247507 -24.412169 -22.643307
-33.18837 -9.5919971 -15.768785
-22.096088 -15.600082 -22.641598
-32.102955 -21.697342 -20.655107
-29.512417 -13.685559 -22.644114
-23.031357 -15.261242 -22.641916
-33.225853 -9.6058741 -19.169592
-27.426422 -20.45797 -22.643383
-32.006203 -11.477434 -26.118017
-24.95219 -8.8137207 -21.987556
-23.958698 -10.7692 -23.392708
-24.72332 -17.067497 -22.642483
-25.683491 -10.7692 -24.529896
-34.041862 -9.8357544 -13.498319
-24.495272 -15.577572 -22.64241
-22.747412 -16.935263 -22.641815
-25.678637 -7.428896 -15.546807
-32.103188 -13.910269 -12.35971
-33.09338 -9.5632858 -14.277298
-23.494774 -18.029129 -22.642063
-27.230167 -24.454096 -22.643303
-33.622501 -11.073742 -17.310446
-29.36858 -25.037273 -22.644024
-33.622501 -10.833208 -13.35318
-25.931107 -7.87463 -18.456654
-22.702774 -24.398228 -22.641771
-34.341618 -11.800799 -25.339384
-32.962769 -10.7692 -25.58569
-25.475689 -24.704311 -22.642708
-33.538864 -10.769199 -13.049709
-34.371601 -10.660426 -20.544155
-33.399849 -10.7692 -19.719406
-33.951168 -11.8008 -19.770582
-32.103004 -18.93821 -18.967047
-32.103096 -22.662033 -15.658566
-30.289337 -10.737325 -26.117958
-32.103081 -16.759174 -16.10997
-33.480625 -9.6833391 -23.68149
-28.632374 -8.4036074 -20.443451
-28.393337 -8.262702 -19.91391
-32.1031 -20.896933 -15.429325
-25.759825 -23.526825 -22.642807
-28.508194 -10.034389 -26.563305
-25.24041 -22.548695 -22.642635
-25.931892 -8.6605377 -21.411072
-27.498753 -7.9518285 -14.130135
-31.227297 -24.613405 -22.644653
-32.103188 -11.078249 -12.448805
-32.102966 -10.864867 -20.270247
-32.103062 -17.064253 -16.936821
-29.900846 -8.6470308 -17.848007
-22.154854 -8.2121248 -19.727833
-32.102932 -17.235121 -21.527279
-32.318104 -9.338727 -12.875598
-34.701637 -10.331581 -16.610388
-27.501513 -7.9531302 -14.688486
-29.257492 -8.4618769 -18.002783
-27.217701 -17.251961 -22.643324
-31.219221 -10.277043 -26.560673
-23.429115 -20.377394 -22.642033
-29.611528 -22.9373 -22.644114
-28.394272 -21.392647 -22.643707
-28.063683 -10.043211 -26.56308
-33.622501 -11.266864 -11.480494
-34.371601 -11.699697 -21.265333
-20.959593 -23.701565 -22.641186
-26.772686 -10.769201 -22.962448
-32.103081 -21.388487 -16.123398
-32.102936 -22.805088 -21.414436
-22.218187 -23.677765 -22.641609
-32.103031 -20.615147 -17.935528
-25.677076 -8.6086159 -21.216051
-34.421928 -9.9434357 -11.52949
-24.78985 -7.7850113 -18.120499
-32.102955 -20.3393 -20.778351
-20.708942 -23.431877 -22.641102
-32.1497 -19.970047 -8.8548107
-32.103104 -16.404827 -15.316343
-27.249477 -7.8802004 -14.314002
-26.80946 -13.377446 -22.6432
-32.102936 -24.645195 -21.421268
-31.71619 -9.9817286 -26.373989
-25.256443 -7.5326104 -17.171358
-32.1497 -22.109903 -10.525948
-32.103172 -24.356771 -12.90343
-31.009562 -18.828459 -22.6446
-33.251492 -9.8340693 -25.817904
-27.07243 -14.177582 -22.643288
-28.783699 -11.199677 -22.643875
-32.1497 -20.099892 -8.9294863
-32.102951 -11.726351 -20.879017
-32.103142 -11.020456 -14.045274
-31.58255 -11.8008 -25.759346
-32.102943 -13.207668 -21.103878
-34.371601 -11.507254 -13.825905
-24.965717 -9.8206396 -25.772808
-29.245775 -8.4503098 -8.9604559
-30.061617 -15.528616 -22.644295
-24.153496 -8.7127752 -21.608601
-34.02874 -11.8008 -10.301179
-32.102921 -15.470497 -21.87925
-22.489994 -7.4040217 -16.68976
-34.356071 -9.9274921 -14.86672
-25.25391 -9.6989861 -25.315292
-32.103046 -23.297495 -17.326338
-30.880831 -8.9314356 -20.227936
-22.729424 -14.715948 -22.641815
-32.102985 -11.349604 -19.640493
-31.044302 -8.9698486 -10.661221
-26.60899 -7.698565 -17.44013
-32.103165 -22.549601 -13.095658
-26.445995 -15.217524 -22.643072
-32.103001 -18.685137 -19.012339
-29.109396 -23.051563 -22.643944
-27.569599 -7.9714174 -13.229193
-34.371601 -11.726699 -14.340866
-25.316771 -13.809581 -22.642696
-34.108681 -11.8008 -17.026253
-33.622501 -11.257195 -9.2536211
-31.118549 -8.9913273 -10.764529
-25.026064 -9.9078426 -26.100582
-32.103134 -19.007891 -14.293524
-23.353981 -6.9127703 -14.842463
-25.448521 -7.6907721 -17.765799
-26.305954 -8.3202295 -20.131525
-26.098829 -7.7683558 -18.057034
-31.858917 -10.7692 -25.128311
-23.071346 -8.5143375 -20.863331
-34.405785 -9.9427166 -15.868095
-34.586349 -10.34371 -12.348586
-21.922762 -15.043576 -22.641542
-32.103317 -11.749537 -8.0526676
-31.152504 -9.0002899 -9.8631849
-32.103207 -12.310118 -11.742312
-32.103256 -11.026513 -10.056922
-30.324038 -16.035021 -22.644379
-28.527111 -8.2487173 -14.911348
-28.478584 -10.880357 -25.6094
-30.219601 -8.7333279 -11.76905
-31.750561 -21.368584 -22.64484
-32.541599 -19.160725 -11.313004
-34.371601 -10.869432 -23.378597
-34.371601 -11.42951 -22.489538
-34.371597 -10.727081 -24.160583
-32.103096 -13.215151 -15.725102
-31.492947 -9.1072369 -19.680643
-32.335777 -10.7692 -8.590045
-26.179859 -10.7692 -22.677744
-24.044437 -21.602449 -22.642235
-30.01985 -17.646606 -22.64427
-34.371601 -11.214155 -22.989887
-32.103115 -13.042508 -15.057193
-32.1497 -19.363298 -8.9042597
-29.109802 -16.341621 -22.643967
-25.611582 -11.972891 -22.642801
-28.584551 -12.601885 -22.643805
-32.388805 -20.861612 -11.156879
-31.178846 -9.0157185 -18.517427
-25.236187 -24.789398 -22.642626
-28.858971 -18.088633 -22.643875
-30.806501 -11.480023 -26.117975
-34.713638 -10.157387 -10.412342
-27.03768 -11.8008 -26.010788
-34.371601 -10.78582 -18.905769
-32.1031 -17.466219 -15.471384
-26.755583 -17.04631 -22.643169
-27.56045 -7.9705095 -15.135088
-32.102921 -12.821795 -22.030737
-24.544197 -10.868713 -25.6094
-23.18568 -24.060986 -22.641935
-31.850681 -9.2033901 -12.088919
-26.922867 -11.897102 -22.643246
-23.269672 -8.5238647 -20.899012
-32.103172 -16.042528 -12.874117
-31.197653 -23.097923 -22.64465
-32.102966 -25.007164 -20.213348
-30.370152 -24.503962 -22.644363
-27.103989 -21.318569 -22.64327
-29.025753 -8.3945904 -17.404224
-27.266209 -11.303679 -25.609402
-34.371601 -10.857183 -17.936596
-32.103119 -23.968662 -14.779995
-32.1497 -20.485146 -9.2632637
-30.558964 -8.8403769 -22.041346
-28.50622 -8.2442465 -16.618076
-32.103271 -12.798334 -9.4977407
-30.551373 -8.8324957 -15.756513
-32.103088 -23.70182 -15.967309
-33.215096 -10.551835 -26.118059
-32.1497 -21.623558 -9.8507957
-32.103096 -16.490965 -15.543381
-30.330605 -8.7644148 -10.793506
-32.103283 -14.252073 -8.9778051
-34.152748 -11.8008 -20.515137
-33.628246 -9.7160301 -12.835649
-33.895061 -11.8008 -11.109826
-32.103001 -11.564899 -19.021858
-32.10305 -17.26553 -17.235987
-27.98366 -11.061045 -25.6094
-32.103188 -25.863749 -12.220388
-33.622501 -11.066093 -13.850083
-27.803959 -8.0399714 -14.393753
-34.371601 -11.181997 -20.855072
-34.371601 -10.882919 -16.164013
-23.163643 -17.87171 -22.641953
-34.371601 -10.864584 -12.052039
-32.103172 -16.268066 -12.872166
-32.102985 -16.841703 -19.510761
-32.102917 -12.95858 -22.091152
-28.842302 -8.3342962 -9.1720924
-32.367363 -10.7692 -15.54758
-30.490376 -9.3499565 -23.999802
-30.47534 -8.8039055 -8.3698149
-22.42588 -23.778856 -22.64168
-22.269205 -16.74057 -22.641651
-33.14138 -10.7692 -10.415226
-22.136375 -22.521643 -22.641586
-32.103256 -14.124487 -9.9174709
-32.103245 -15.919802 -10.334741
-28.732658 -21.00563 -22.643822
-32.570713 -9.4101162 -11.367554
-33.487465 -10.769201 -21.96104
-31.517979 -9.1092567 -13.952575
-32.994099 -10.7692 -23.740332
-32.103085 -13.164783 -15.983377
-28.968292 -10.7692 -25.076763
-32.103104 -17.241776 -15.317858
-33.622501 -11.052202 -15.351072
-32.102978 -12.916162 -19.895815
-32.103062 -12.016156 -16.977871
-32.1497 -20.403769 -9.7667027
-24.393398 -23.434938 -22.642347
-32.264023 -19.303936 -11.796982
-32.103012 -15.866671 -18.702084
-32.671833 -9.4504309 -23.718807
-25.747808 -7.4497824 -16.611429
-32.103024 -13.309206 -18.302856
-33.171204 -11.663836 -26.118057
-23.191277 -11.559329 -22.641983
-23.419968 -20.251877 -22.642029
-33.38686 -10.7692 -17.735344
-23.226809 -15.954089 -22.641979
-27.967892 -8.0830212 -9.7975912
-32.103142 -24.082632 -13.918528
-32.936115 -9.5155182 -11.547053
-22.892963 -8.3148804 -20.113636
-32.103287 -13.030352 -8.8308907
-28.734421 -8.6292562 -21.291653
-33.842812 -11.8008 -13.743746
-32.103226 -11.017972 -11.086132
-32.10313 -12.743942 -14.444339
-34.048618 -9.8466854 -23.413301
-32.103153 -23.79895 -13.502609
-32.104832 -25.084442 -11.885691
-29.910376 -9.8565655 -25.904644
-29.720587 -8.5980568 -21.095608
-26.078789 -8.9592724 -22.533993
-32.102962 -21.158638 -20.380348
-22.222332 -18.652885 -22.64163
-32.103024 -15.348089 -18.317444
-32.103249 -12.672726 -10.252734
-30.361794 -8.7773676 -15.174811
-33.191582 -10.769201 -19.587097
-34.371025 -11.800801 -25.712673
-21.901781 -24.833351 -22.6415
-32.541599 -21.931526 -11.293296
-32.103027 -14.812844 -18.030123
-26.924477 -7.7899871 -18.055935
-32.103046 -22.024382 -17.465544
-29.415411 -10.341017 -26.244661
-22.948711 -8.5590401 -21.031456
-28.86869 -20.475687 -22.643871
-25.650032 -9.8391075 -25.841784
-24.896822 -13.877377 -22.642553
-32.00193 -9.6352882 -25.071451
-32.103191 -16.217571 -12.255754
-32.103043 -13.580584 -17.522779
-33.964249 -11.8008 -24.195946
-32.10313 -18.629797 -14.322521
-23.643822 -21.559582 -22.642101
-32.103104 -12.118899 -15.419492
-32.103294 -12.445162 -8.7564011
-30.749554 -9.9012566 -26.072104
-26.893105 -7.7809253 -18.026953
-33.369202 -10.7692 -22.469919
-23.467186 -6.7901497 -13.537948
-25.833366 -11.375349 -26.117802
-23.6752 -12.838372 -22.642143
-24.828865 -7.4900198 -17.011524
-24.520752 -7.1608047 -15.774127
-23.609276 -22.794512 -22.642086
-22.533609 -19.585014 -22.641731
-22.376751 -7.121964 -15.629509
-30.107828 -8.7041931 -15.142981
-28.368713 -20.559113 -22.6437
-23.837677 -15.013904 -22.642189
-34.686142 -10.022591 -14.902104
-32.103165 -24.117258 -13.116394
-32.103035 -12.470082 -18.019253
-32.330204 -11.318069 -26.118027
-32.343578 -9.3539543 -21.58387
-33.398087 -9.6520329 -15.366636
-33.883049 -11.8008 -23.923021
-29.644485 -24.74374 -22.644115
-27.97537 -24.455952 -22.643555
-28.464558 -8.2314587 -15.748076
-24.732903 -14.923864 -22.642492
-27.78607 -22.938625 -22.643496
-32.103142 -25.243248 -14.001585
-30.667183 -11.544298 -25.609402
-28.032091 -12.088562 -22.64362
-32.10313 -24.229788 -14.341504
-33.622501 -11.059971 -15.469292
-27.524361 -19.616392 -22.643421
-31.978689 -9.4779959 -24.480165
-23.182745 -16.357309 -22.641964
-30.999523 -8.9611444 -15.287595
-31.421782 -12.724945 -22.644762
-26.868084 -7.7662315 -9.7631493
-32.102913 -20.8839 -22.185104
-32.103054 -12.439056 -17.251858
-32.103138 -14.980501 -14.161321
-32.541599 -17.141544 -9.2234716
-26.728304 -10.7692 -25.520298
-23.539043 -10.7692 -23.456924
-32.103054 -21.15943 -17.060934
-32.329079 -19.309807 -11.13158
-34.632401 -10.338415 -23.483246
-26.404892 -18.406778 -22.643047
-30.773636 -8.8978806 -17.267426
-33.91037 -9.7966051 -12.087475
-32.103146 -16.042458 -13.853701
-34.371601 -11.448311 -11.768431
-33.470795 -9.7320757 -25.434343
-32.102982 -15.136368 -19.691839
-32.103153 -21.931034 -13.491213
-34.098 -11.8008 -23.012547
-21.789799 -18.963417 -22.641483
-33.324841 -10.7692 -9.8482666
-32.103199 -18.392981 -11.949883
-34.650036 -10.106796 -26.563795
-27.597143 -8.20082 -19.681797
-33.622501 -11.365896 -8.9368877
-32.103088 -23.559519 -16.018724
-34.371601 -10.795357 -9.9665718
-26.712467 -10.7692 -24.699785
-32.103157 -15.216944 -13.394937
-32.102966 -20.191074 -20.330997
-28.089926 -23.814842 -22.643597
-32.103073 -17.263771 -16.491428
-27.323654 -7.8965969 -8.8322382
-27.704781 -8.0121784 -15.246752
-32.103004 -17.024538 -18.919161
-32.102982 -12.559912 -19.857521
-33.964455 -9.8172245 -17.650826
-32.102913 -20.334993 -22.157385
-32.103088 -13.668287 -15.952164
-30.271591 -17.918026 -22.644356
-32.103062 -23.718102 -16.829498
-23.503355 -9.0027905 -22.699261
-21.949081 -24.364899 -22.641518
-32.610523 -10.7692 -13.479836
-33.622501 -11.635006 -17.117456
-30.818329 -20.42457 -22.644531
-32.103115 -15.760047 -14.893778
-33.657402 -9.7314997 -20.641436
-31.781548 -9.7501764 -25.503485
-24.091751 -7.7463975 -17.975792
-32.103077 -16.524576 -16.286114
-29.624672 -10.007068 -26.470604
-34.661022 -10.342421 -12.784179
-32.103073 -11.418831 -16.619741
-29.720131 -8.5974665 -20.589716
-32.103069 -20.140257 -16.541836
-31.735279 -23.840069 -22.644829
-24.887962 -19.646397 -22.642529
-29.577967 -12.250713 -22.64414
-32.055149 -9.7715464 -25.583641
-27.664614 -8.0005531 -15.182922
-32.103016 -14.142858 -18.533827
-22.989607 -8.592701 -21.157972
-22.926443 -7.5097499 -17.086933
-32.218834 -9.3198233 -23.565924
-23.283918 -6.7370429 -13.18109
-33.805408 -11.8008 -19.720354
-25.056744 -11.304649 -22.642616
-32.102993 -14.410306 -19.277361
-34.583641 -9.9893751 -10.827278
-28.999784 -8.3863535 -16.566633
-28.108395 -11.774765 -25.609402
-26.367788 -7.6227407 -10.426573
-32.103127 -11.452477 -14.535655
-30.797148 -9.1127071 -23.107721
-32.102928 -15.826236 -21.678123
-26.537792 -10.7692 -23.96657
-25.52458 -16.08889 -22.642754
-25.71096 -18.779558 -22.642809
-32.259583 -21.089384 -11.799456
-26.323296 -7.6101751 -10.701238
-28.626823 -8.2736111 -10.690334
-25.666409 -7.4243183 -14.382042
-26.347626 -8.3602629 -20.281996
-26.659788 -11.457726 -22.643156
-32.103088 -23.02256 -15.909415
-23.567007 -6.817997 -12.542011
-32.102989 -24.667313 -19.546535
-32.1497 -17.791752 -10.922755
-28.820049 -11.561828 -25.6094
-28.137501 -11.019924 -25.6094
-32.06646 -9.5565252 -24.775318
-32.10305 -19.065634 -17.275352
-32.103188 -13.515994 -12.452622
-32.1497 -20.080671 -10.071617
-34.713116 -10.077868 -11.039499
-31.043205 -10.7692 -24.600845
-31.631258 -9.1467896 -19.367836
-30.015388 -20.638596 -22.644258
-26.532562 -10.790127 -25.6094
-27.415728 -17.534046 -22.643391
-32.103313 -13.687171 -8.0402117
-31.1507 -11.471918 -22.644674
-22.685091 -16.199356 -22.641796
-26.676006 -22.618122 -22.643122
-30.439732 -8.7967167 -11.754331
-21.572292 -20.386799 -22.641403
-26.134035 -8.0068626 -18.953617
-23.815651 -17.715778 -22.642174
-34.371601 -11.683077 -15.194197
-32.103157 -16.099554 -13.412287
-32.23571 -10.7692 -16.879839
-27.675709 -8.0019503 -13.198729
-27.974421 -8.0868378 -11.934255
-32.102993 -19.813406 -19.276901
-29.747921 -16.59547 -22.644184
-32.2108 -9.3066692 -11.602207
-33.622501 -11.606034 -22.118029
-26.486897 -8.6543941 -21.387615
-32.103085 -17.630407 -15.992267
-34.371601 -11.655819 -20.88891
-33.622501 -10.916925 -17.12466
-31.193871 -9.0179892 -16.24876
-34.286903 -9.9069252 -14.154198
-32.103035 -19.942921 -17.883209
-30.887756 -10.7692 -24.526655
-28.703196 -8.3035135 -19.416056
-32.103043 -14.712265 -17.569427
-33.646362 -11.8008 -14.117662
-27.11503 -8.0694027 -19.188082
-32.103115 -19.372097 -14.913607
-29.248484 -21.880169 -22.643993
-33.622501 -10.861917 -18.804495
-33.622501 -11.796646 -11.884623
-27.396557 -24.423508 -22.643358
-32.1497 -20.352871 -9.6251402
-33.622501 -10.987168 -20.08489
-32.103027 -11.577054 -18.156595
-32.102932 -18.529154 -21.601982
-34.371601 -11.162218 -17.520788
-32.103058 -19.563078 -16.947649
-34.089191 -11.8008 -15.349578
-31.068457 -8.9826546 -17.116667
-25.744503 -7.7321224 -17.921055
-29.485559 -11.26161 -22.644112
-32.683647 -10.769199 -14.304688
-22.163631 -22.956812 -22.641594
-34.371601 -10.490927 -19.392801
-34.446999 -10.342207 -19.230055
-31.82342 -9.986186 -26.390675
-32.103069 -22.215548 -16.567039
-26.69644 -12.176401 -22.643169
-22.154881 -17.607189 -22.641613
-28.001839 -12.96866 -22.643606
-26.573719 -8.1179247 -19.370838
-25.899626 -7.4899921 -12.731505
-31.627275 -14.052359 -22.644827
-32.102951 -24.774712 -20.898689
-30.187014 -10.769201 -23.353521
-27.729616 -23.690176 -22.643475
-32.149696 -18.332787 -7.6385961
-32.102905 -24.686247 -22.578339
-29.630337 -25.246672 -22.64411
-25.895048 -12.587574 -22.642893
-22.716364 -22.26416 -22.641785
-32.562904 -9.4142818 -18.447248
-32.844307 -9.4985561 -22.009167
-32.102978 -16.426266 -19.791199
-26.132044 -8.2288914 -19.788277
-22.883348 -20.470358 -22.641848
-33.799911 -11.8008 -9.0243874
-21.944603 -8.0379629 -19.073254
-34.371601 -10.372736 -12.77177
-32.103157 -17.973824 -13.343323
-22.689816 -17.412674 -22.641792
-34.195614 -9.8853912 -19.405491
-33.03302 -10.7692 -15.763403
-23.272324 -6.734385 -13.934142
-21.918289 -20.150951 -22.641521
-33.129147 -9.5758896 -16.81778
-24.713837 -7.1509418 -15.459306
-32.1497 -23.728348 -10.741278
-32.103081 -24.117298 -16.096472
-26.405472 -10.965958 -26.117821
-32.458458 -11.399093 -26.118032
-32.103016 -23.762203 -18.524469
-31.689882 -9.1608181 -16.216183
-28.609974 -9.6869631 -25.267912
-23.647907 -9.1084948 -23.096539
-34.401291 -10.341597 -19.697851
-32.103081 -13.639543 -16.135607
-32.1031 -13.532455 -15.54337
-28.896652 -8.4535141 -20.630894
-23.477913 -21.710352 -22.642044
-32.102943 -17.341934 -21.055428
-24.422094 -11.567843 -22.642403
-31.249538 -23.041744 -22.644665
-34.059212 -11.8008 -10.639144
-28.665754 -8.6698704 -21.44438
-29.095324 -8.4062357 -8.1416035
-32.103188 -15.147587 -12.373184
-32.102997 -11.984298 -19.301788
-32.103073 -19.133526 -16.490362
-27.838173 -8.0672016 -19.179338
-32.103058 -22.043974 -17.090992
-34.438164 -9.9589806 -23.52491
-34.377003 -10.341271 -19.082758
-31.579969 -9.7235699 -25.403595
-32.103294 -13.670952 -8.6612024
-32.103214 -14.473069 -11.471494
-32.103001 -24.874014 -19.119762
-32.103081 -20.675852 -16.15748
-32.103313 -12.101267 -7.9826488
-32.10313 -12.803878 -14.484022
-27.565416 -9.1030483 -23.073513
-26.341072 -10.340502 -26.360703
-26.22452 -20.593094 -22.642977
-22.898125 -7.3807287 -16.601929
-31.934862 -20.221323 -22.644909
-34.700592 -10.34234 -11.557643
-27.867561 -8.0561018 -11.979402
-22.476635 -7.1427431 -15.707559
-21.157295 -20.122684 -22.641266
-30.39212 -24.229506 -22.644371
-32.103271 -11.5958 -9.5229053
-22.391851 -7.8327847 -18.301647
-34.419876 -9.9479103 -17.120506
-32.05986 -18.676235 -22.644957
-25.703779 -7.4357238 -15.09025
-32.1497 -19.411612 -9.7449064
-26.156668 -7.562448 -10.992715
-32.1497 -20.814083 -9.7943153
-24.58729 -7.1126599 -13.435031
-31.768173 -11.539562 -25.6094
-28.679888 -24.20731 -22.643793
-22.66053 -20.033443 -22.641773
-24.065107 -22.265486 -22.642239
-32.102962 -21.735569 -20.438303
-33.20364 -9.6028452 -22.888311
-32.102936 -15.49994 -21.449396
-28.034533 -21.407858 -22.643585
-22.550117 -20.384911 -22.641735
-32.103142 -25.97049 -13.964461
-32.103294 -14.654592 -8.5542259
-23.134617 -16.062729 -22.641949
-26.830231 -24.975019 -22.643166
-24.315319 -8.8415174 -22.092468
-32.10313 -14.733721 -14.407714
-32.103149 -18.535309 -13.729067
-26.880898 -19.110804 -22.643204
-30.231546 -13.678438 -22.644356
-22.188099 -8.0651989 -19.175484
-32.103127 -25.103828 -14.580976
-34.54604 -10.342415 -16.923405
-30.025898 -8.6755543 -9.5775003
-26.575048 -11.503235 -26.117828
-25.194618 -20.381851 -22.642628
-30.919212 -10.338775 -26.421343
-24.888742 -13.486782 -22.642553
-26.368855 -7.6265621 -14.304801
-33.676426 -9.7330313 -16.285902
-32.640556 -10.7692 -24.496826
-32.103031 -25.594837 -17.977081
-30.807678 -8.9008904 -9.7688446
-33.728317 -11.8008 -14.028205
-32.1497 -18.39539 -9.5678387
-32.501625 -9.3988199 -20.862484
-25.529221 -9.8903322 -26.034428
-31.200508 -24.916208 -22.644642
-32.103107 -25.044931 -15.201143
-31.096966 -8.9838953 -9.4228706
-29.212858 -10.7692 -24.265476
-26.848791 -7.7637749 -13.185061
-32.10313 -12.172089 -14.525641
-32.826233 -9.4838037 -11.472846
-34.070419 -11.8008 -15.152229
-32.103184 -14.259685 -12.49369
-32.102947 -10.879796 -21.039301
-28.368118 -9.3977089 -24.180695
-25.844963 -7.4716406 -9.8533783
-28.878584 -8.3505888 -15.621508
-26.690414 -8.0594988 -19.151125
-26.38842 -24.84676 -22.643017
-34.371601 -11.784496 -16.957685
-32.793312 -10.769201 -18.953732
-28.479572 -9.4723597 -24.46125
-27.217152 -20.100817 -22.643314
-28.317186 -13.243109 -22.643713
-26.959904 -16.035648 -22.643242
-31.434296 -9.0852928 -14.10451
-32.276035 -10.7692 -12.780457
-34.371601 -10.762772 -24.669147
-32.103046 -16.219868 -17.445778
-32.114494 -10.769201 -9.1890697
-32.102921 -23.245445 -22.028364
-32.103127 -22.49258 -14.506021
-32.465931 -10.7692 -23.79306
-21.420807 -19.348753 -22.641357
-23.520582 -10.7692 -23.123735
-25.03923 -17.457314 -22.642588
-32.103161 -13.338271 -13.334611
-32.1497 -19.251335 -10.280351
-29.864052 -8.6337233 -14.857088
-30.0702 -8.6972151 -19.40242
-32.103054 -21.080462 -17.162807
-29.643848 -13.420943 -22.644159
-34.371601 -10.527677 -11.319419
-26.07547 -14.25908 -22.64295
-32.1497 -20.331467 -8.6707783
-31.874733 -18.195299 -22.644894
-25.812685 -13.578039 -22.642862
-32.102951 -25.421631 -20.803429
-32.103046 -13.241055 -17.352823
-24.287933 -7.0245609 -11.359157
-32.103111 -19.734221 -15.056532
-32.103188 -15.387636 -12.329474
-28.651104 -12.487952 -22.643826
-32.103226 -14.947599 -11.029245
-34.371601 -11.573513 -15.343145
-34.371601 -10.666275 -15.407925
-32.103317 -15.291513 -8.2057228
-25.248642 -11.422943 -26.117781
-32.102913 -10.81827 -22.360367
-25.9737 -10.460946 -26.117805
-25.108343 -24.788017 -22.642582
-33.622501 -11.719515 -22.449591
-29.096069 -8.4169121 -19.687834
-30.875145 -11.204693 -26.117977
-32.1497 -18.286478 -9.6391182
-32.102978 -10.937609 -19.901928
-26.501829 -21.914726 -22.643066
-32.102993 -17.632647 -19.378599
-21.888771 -22.363747 -22.641502
-32.103165 -15.253736 -13.128885
-25.487503 -13.586004 -22.642754
-34.711628 -10.066109 -11.936934
-32.102951 -17.955395 -20.928484
-32.103046 -21.513638 -17.45039
-32.102913 -12.093388 -22.302574
-32.103172 -13.984477 -12.888607
-32.103176 -14.156609 -12.761667
-29.777054 -11.128023 -26.117939
-25.616802 -9.6975489 -25.309654
-28.368591 -14.820928 -22.643724
-34.371601 -11.691107 -14.945114
-32.103172 -17.604216 -12.861235
-26.744909 -10.7692 -24.97435
-29.03089 -8.3965845 -17.97171
-32.704815 -9.4523897 -15.397076
-34.079254 -11.8008 -19.674402
-32.541599 -22.990208 -11.266359
-26.473801 -7.9341841 -18.68018
-30.093645 -11.391342 -25.6094
-30.974678 -13.176561 -22.644608
-24.408861 -7.5018768 -17.056374
-32.485077 -19.555084 -11.673796
-34.371601 -10.981009 -19.491562
-34.465858 -10.340418 -24.6224
-33.334267 -9.6406536 -23.093512
-32.587986 -9.4223223 -19.349009
-28.682478 -23.764004 -22.643795
-31.870417 -12.636404 -22.644917
-25.743309 -9.3177757 -23.881912
-30.455311 -15.403194 -22.644426
-34.371601 -11.231979 -19.169827
-34.079819 -9.8477573 -14.679938
-32.1497 -20.750723 -10.493487
-34.048271 -9.8381157 -14.0664
-32.103294 -13.637953 -8.5896778
-33.622501 -10.86954 -20.14888
-32.102966 -24.624794 -20.255484
-33.622501 -11.427123 -18.851475
-25.651356 -21.544268 -22.642778
-32.1497 -18.928967 -7.8210654
-32.103062 -21.686985 -16.746506
-28.975519 -15.550083 -22.643927
-31.710752 -9.1664276 -15.772841
-32.103149 -23.708639 -13.76253
-32.103168 -23.357183 -12.935823
-28.760672 -9.2284298 -23.544075
-33.457184 -10.7692 -10.290268
-20.751083 -7.2530556 -16.123371
-32.10321 -15.978409 -11.495434
-24.892511 -7.3637972 -16.536983
-24.083349 -16.313747 -22.642267
-33.622501 -11.005157 -15.225035
-27.813475 -8.0436897 -15.472617
-33.89468 -11.8008 -26.036711
-25.817301 -11.335457 -26.117802
-34.332649 -9.9253826 -19.983974
-27.334206 -14.8886 -22.643372
-26.72858 -7.7320309 -16.36117
-31.880154 -9.2120571 -12.284668
-22.660704 -7.0393276 -15.318673
-27.518845 -11.511454 -25.6094
-30.261919 -24.731215 -22.644325
-33.704559 -9.7405453 -15.636731
-28.667213 -8.2841187 -9.4481096
-32.103256 -15.327374 -9.9380741
-32.1497 -21.67811 -11.002424
-26.370371 -9.6567259 -25.155701
-23.93651 -7.3225131 -16.382408
-28.295414 -8.1786642 -11.245975
-25.188007 -9.9511242 -26.263184
-32.988266 -9.5308208 -11.858724
-28.456451 -21.265141 -22.64373
-28.280312 -15.649069 -22.643688
-31.924177 -10.769201 -24.072689
-29.656075 -11.611655 -22.644171
-27.39168 -10.769199 -22.880419
-28.417645 -10.769201 -23.761566
-32.863403 -10.7692 -13.081356
-25.429976 -24.960743 -22.642691
-32.103004 -11.896611 -18.981634
-30.252325 -8.750761 -20.605345
-30.11187 -12.042554 -22.644321
-29.647072 -8.5721455 -15.867228
-27.652033 -10.7692 -22.728708
-32.103161 -25.312202 -13.290808
-27.521887 -9.2334137 -23.563618
-32.103333 -16.64357 -8.4099426
-32.102982 -23.496452 -19.793962
-21.748384 -23.791958 -22.641453
-32.103287 -12.306089 -8.9720144
-33.622501 -11.526714 -18.774179
-32.102989 -13.20491 -19.482695
-28.765354 -8.3146858 -11.98818
-32.015144 -18.157639 -22.644943
-34.691048 -10.266152 -22.09498
-28.667143 -8.2916727 -17.808407
-32.10302 -20.159826 -18.309851
-33.309803 -9.622612 -10.958905
-24.2484 -7.0150609 -13.441553
-32.102943 -15.497984 -21.19445
-23.469576 -8.741581 -21.717335
-32.103081 -15.929651 -16.164558
-32.295815 -16.78643 -8.303339
-25.842901 -12.799332 -22.642878
-32.899246 -10.769201 -17.337925
-34.371601 -10.446175 -14.503704
-24.097824 -18.719063 -22.642265
-33.676792 -9.757555 -25.529991
-32.541599 -18.554922 -11.237173
-30.097847 -23.873873 -22.644276
-27.481981 -7.9413638 -7.911695
-32.103127 -12.265158 -14.603483
-33.982094 -11.8008 -25.533518
-29.414988 -16.583828 -22.644072
-20.67819 -24.83252 -22.641088
-34.007744 -11.8008 -12.451456
-34.230492 -9.8894978 -12.853354
-22.858391 -14.466126 -22.641863
-32.10313 -13.73371 -14.41995
-31.869364 -9.2161722 -20.25625
-23.122189 -7.9730339 -18.828403
-28.530167 -8.2427549 -7.3597755
-25.819214 -7.4698472 -16.058537
-28.19525 -8.1542759 -16.169203
-32.103092 -16.800005 -15.707214
-23.693878 -14.894053 -22.642143
-34.41053 -10.34172 -16.642965
-32.103172 -18.046432 -12.875059
-25.144003 -17.412064 -22.642624
-33.622501 -11.499314 -20.202036
-30.782303 -8.8954515 -11.832004
-29.011038 -10.484259 -26.117912
-28.403004 -11.728734 -22.643745
-32.103218 -11.106565 -11.473897
-23.586555 -9.1435852 -23.228489
-32.103142 -22.240204 -13.985865
-33.622501 -11.169362 -20.532057
-32.103172 -11.396574 -13.160653
-32.430622 -17.835011 -11.174592
-25.967615 -20.736994 -22.642889
-34.222076 -11.8008 -9.6382599
-28.64694 -10.7692 -23.951462
-25.43045 -9.8495483 -25.88118
-24.593513 -23.663111 -22.642414
-23.522772 -24.404543 -22.64205
-32.302227 -21.163414 -11.77569
-31.416231 -9.084198 -18.63908
-30.637993 -18.704178 -22.644478
-21.442696 -24.786627 -22.641346
-32.103184 -24.90683 -12.549656
-33.423401 -11.8008 -26.086441
-34.228027 -9.8906412 -14.897031
-24.91592 -7.2054868 -11.422834
-28.772696 -17.302052 -22.64385
-21.666843 -23.576471 -22.641426
-32.91423 -9.5131607 -15.899342
-24.034765 -8.7453737 -21.731224
-25.800817 -10.7692 -23.74493
-32.10305 -22.267212 -17.289921
-22.502968 -17.619274 -22.641729
-28.217045 -10.338511 -26.505772
-33.011375 -9.5363026 -10.561742
-32.103035 -13.781937 -17.820528
-24.916241 -7.2079229 -14.009656
-23.661882 -10.7692 -22.848713
-22.835665 -12.682667 -22.641861
-31.727224 -23.710424 -22.644825
-32.102947 -24.031933 -21.001209
-27.374434 -16.732635 -22.643381
-32.103153 -10.929096 -13.76995
-21.934071 -7.8019681 -18.186096
-32.1497 -19.868059 -8.4236498
-34.371597 -10.805924 -23.067785
-28.809544 -12.77676 -22.643879
-21.764439 -19.199745 -22.641474
-22.679214 -7.5084076 -17.082047
-32.103035 -17.857014 -17.84729
-31.527449 -23.242622 -22.64476
-32.103138 -18.728559 -14.06395
-24.684767 -12.682847 -22.642485
-32.145271 -10.7692 -16.099653
-26.729694 -8.9373255 -22.451065
-30.239758 -22.589088 -22.644329
-32.939655 -10.769199 -23.678123
-32.149704 -19.242168 -7.9255314
-34.357071 -9.9352522 -23.114025
-23.448408 -8.5680676 -21.065069
-26.95022 -13.759678 -22.643246
-27.264156 -17.796942 -22.643339
-29.458511 -19.681887 -22.644073
-32.299603 -9.580018 -24.863482
-32.103165 -11.222792 -13.343314
-32.103149 -25.099977 -13.643996
-23.81768 -6.8907809 -13.190381
-24.472094 -7.0808973 -14.99613
-22.799572 -6.6873446 -13.995396
-22.963274 -13.122825 -22.641901
-31.653893 -14.969704 -22.644831
-32.102909 -18.67491 -22.356762
-32.102936 -21.699726 -21.456598
-31.389849 -9.0803843 -22.815626
-26.928488 -17.880741 -22.643225
-27.073772 -15.967424 -22.64328
-34.018761 -9.8280659 -12.353245
-33.870441 -9.7934484 -21.293745
-32.103027 -20.2672 -18.096239
-32.373314 -10.769201 -22.520292
-32.103096 -10.911965 -15.61283
-32.103161 -11.737768 -13.468523
-26.112408 -9.4649181 -24.434814
-20.555149 -22.744713 -22.641052
-27.000433 -7.8082304 -14.045981
-29.39661 -11.303446 -26.117926
-32.103127 -20.55855 -14.590247
-32.103024 -10.849175 -18.298536
-32.103199 -13.32255 -12.022369
-32.970634 -10.7692 -13.405867
-28.849627 -8.3415022 -14.79767
-26.493343 -11.352893 -22.643101
-32.103336 -15.944578 -7.9789791
-32.786732 -10.769199 -18.812786
-32.103065 -22.685274 -16.689804
-25.866753 -22.568867 -22.642847
-32.103008 -23.033585 -18.834587
-30.868816 -8.9208736 -12.391026
-31.725424 -9.1753368 -20.942818
-32.103142 -14.271841 -13.989225
-29.615747 -12.208026 -22.644154
-34.308006 -11.8008 -13.608533
-33.622501 -11.05883 -8.9978161
-21.340126 -19.831209 -22.641327
-32.905964 -9.5186396 -24.57629
-32.103085 -17.886612 -16.029074
-24.44636 -7.070323 -11.50646
-32.103161 -21.876894 -13.231931
-28.846987 -9.707613 -25.345385
-24.686031 -23.749767 -22.642445
-23.719101 -13.566615 -22.642157
-32.103241 -13.37796 -10.565419
-26.240967 -8.5711317 -21.074774
-32.103188 -13.830031 -12.39201
-32.10302 -22.394142 -18.391151
-34.371601 -11.28492 -21.586611
-22.166637 -15.617805 -22.641623
-32.103271 -12.987688 -9.4480314
-34.171864 -9.8748016 -15.267929
-25.491341 -11.327291 -22.642763
-27.367115 -11.143614 -26.117855
-28.303284 -18.231188 -22.643688
-33.461308 -10.769201 -9.2601118
-23.798512 -8.1471024 -19.482328
-31.863417 -22.523399 -22.644875
-23.925465 -7.282084 -16.230433
-31.751682 -9.1725693 -9.542079
-32.103062 -24.586174 -16.801102
-32.498795 -10.769199 -9.0392914
-33.195221 -10.7692 -11.293924
-26.178164 -8.5508795 -20.99868
-32.174965 -9.298027 -13.456985
-24.824741 -7.180089 -12.375093
-24.823236 -13.688498 -22.642527
-34.231625 -9.8926287 -15.946611
-26.201374 -17.404991 -22.642979
-31.173443 -9.0158463 -20.376169
-29.699566 -8.5805664 -8.473712
-32.103127 -15.138872 -14.499887
-27.988092 -23.725357 -22.643562
-31.521347 -9.1177044 -22.204878
-24.510933 -9.2000122 -23.44001
-25.027905 -10.339731 -26.461823
-28.333527 -8.1958275 -18.073307
-26.150991 -19.518417 -22.642956
-34.440796 -9.9538269 -16.999924
-30.943384 -9.3801079 -24.112854
-32.103149 -18.27066 -13.646162
-32.10297 -22.75222 -20.201687
-26.56502 -8.6037464 -21.197166
-32.103107 -10.822259 -15.368682
-26.076401 -10.7692 -25.164188
-32.103096 -13.444748 -15.628697
-30.853092 -22.622297 -22.644535
-32.102905 -24.908077 -22.534523
-30.69643 -9.7916307 -25.660027
-33.935879 -11.8008 -10.483091
-30.503321 -16.951557 -22.644438
-32.102974 -22.682676 -20.019962
-32.103199 -19.958012 -11.95724
-27.967159 -8.0863628 -13.718248
-30.69355 -21.62464 -22.644482
-32.270489 -10.7692 -23.533358
-29.351751 -8.4794846 -7.4729562
-27.694735 -15.700527 -22.643492
-27.890545 -8.0621567 -11.355811
-24.377392 -7.6707854 -17.691364
-33.280018 -9.6263227 -24.521708
-33.622501 -11.298048 -14.208282
-33.320045 -10.7692 -12.868316
-31.032608 -10.769199 -25.096142
-30.132439 -8.7089996 -12.623412
-34.570499 -9.9887486 -14.313524
-33.622501 -11.115369 -16.630463
-22.978302 -17.994576 -22.64189
-32.103004 -23.591131 -19.002214
-27.503094 -10.7692 -23.427925
-32.103088 -23.658344 -15.847695
-25.716673 -7.4384565 -14.008118
-23.243322 -19.500891 -22.641972
-28.494184 -8.2334118 -8.4862766
-32.102951 -19.615051 -20.926521
-32.103004 -15.933198 -18.951488
-21.759466 -6.9051075 -14.814693
-32.102943 -16.737673 -21.095066
-34.371601 -11.292929 -22.277729
-28.913006 -8.3631191 -18.508547
-24.305656 -8.5482016 -20.98983
-33.281803 -10.573211 -26.118061
-33.622501 -11.150455 -9.1865225
-32.103256 -16.270367 -10.229644
-28.657196 -8.2903328 -19.491274
-32.103024 -20.039179 -18.219919
-27.651775 -12.096447 -22.64349
-33.350227 -9.9046507 -26.083172
-32.1497 -19.149551 -10.661581
-32.511818 -21.359396 -11.208985
-22.359459 -8.1572456 -19.521397
-34.371601 -10.448972 -18.551506
-32.102962 -17.762915 -20.519415
-31.840687 -24.956825 -22.644859
-28.59478 -25.210436 -22.643761
-23.301001 -7.9533515 -18.754295
-23.468376 -8.8080606 -21.967247
-33.345497 -11.254811 -25.609402
-28.881763 -21.530865 -22.643871
-30.251101 -9.5560341 -24.774651
-31.54878 -16.229553 -22.644793
-33.275513 -9.6123619 -10.544768
-32.154739 -17.507965 -7.9793806
-34.371601 -11.501974 -20.737801
-30.882641 -9.3472891 -23.989517
-32.488998 -17.298201 -11.671613
-31.654066 -9.1445274 -9.6212263
-32.294296 -10.769201 -16.887007
-32.541599 -17.886889 -11.364658
-33.438431 -9.6688309 -21.082047
-33.406647 -9.6579027 -19.124817
-32.10326 -11.041501 -9.9236202
-32.1497 -23.942986 -10.778164
-29.143824 -10.230245 -26.560812
-34.371601 -10.67952 -10.663182
-24.498837 -11.968543 -22.642426
-32.285522 -10.7692 -12.017081
-32.103012 -18.724459 -18.66873
-34.611084 -10.344027 -10.699944
-27.900932 -10.320294 -26.560659
-32.113533 -9.2763281 -9.0342731
-32.103195 -16.767223 -12.012462
-32.103199 -15.414848 -11.96963
-27.776085 -17.691729 -22.643511
-31.243813 -9.0289307 -12.449103
-32.1497 -20.782984 -9.7230644
-29.345158 -21.590448 -22.644028
-32.1497 -18.504782 -10.391838
-28.39212 -8.2051086 -9.6906309
-34.194302 -11.8008 -16.644138
-34.686905 -10.21601 -24.701876
-34.371601 -10.479758 -12.620279
-32.102989 -12.665533 -19.515762
-33.482773 -9.6720533 -10.542418
-32.103043 -15.464972 -17.537037
-34.708397 -10.201803 -13.107559
-32.661079 -10.7692 -11.643815
-32.269413 -9.3316021 -20.489248
-32.103325 -14.917906 -7.9193578
-32.103062 -25.380545 -16.838993
-28.276684 -10.7692 -24.076509
-28.266483 -8.1689634 -9.7354698
-28.749012 -13.115243 -22.643858
-32.103191 -14.10955 -12.232379
-30.354498 -8.7797775 -20.152313
-33.708202 -11.8008 -24.191557
-26.723305 -21.292843 -22.643143
-20.471848 -22.473831 -22.641026
-29.325417 -9.534977 -24.696098
-22.17127 -15.315135 -22.641624
-33.333263 -9.6287718 -10.299594
-32.103035 -14.047594 -17.730478
-32.102966 -14.502096 -20.309202
-25.243874 -17.672123 -22.642654
-32.103191 -23.65221 -12.238317
-33.860031 -11.8008 -25.982452
-30.789112 -20.365582 -22.64452
-34.371601 -10.714228 -18.053322
-29.422516 -8.5026855 -10.584548
-32.180992 -10.7692 -19.150352
-31.138206 -8.9999685 -14.05277
-27.844631 -15.284059 -22.643543
-26.877825 -13.918432 -22.643221
-29.068832 -8.4089022 -19.505327
-32.1497 -19.737749 -9.9800596
-32.541599 -18.412899 -11.340037
-33.287067 -9.9420223 -26.223701
-33.595039 -10.7692 -9.2155876
-23.432337 -8.9986954 -22.683914
-23.291409 -6.7387304 -12.661709
-28.988321 -9.7060242 -25.339325
-32.103184 -18.657492 -12.46667
-25.389538 -11.520653 -22.642727
-29.961481 -8.6607523 -13.717709
-34.712593 -10.074806 -11.347578
-32.102921 -20.178932 -21.952888
-32.10318 -20.157509 -12.57358
-32.517143 -10.769199 -13.215912
-31.819401 -9.2010918 -19.495564
-23.951462 -24.858841 -22.642193
-32.149704 -23.470243 -10.528915
-32.1497 -18.130943 -8.24154
-27.052656 -11.964424 -22.643288
-28.643417 -10.340086 -26.348907
-31.555992 -13.73645 -22.644806
-32.102985 -20.867834 -19.635544
-22.714808 -7.5690346 -17.309937
-34.371601 -10.612257 -21.754997
-33.381069 -9.6541166 -23.07482
-33.622501 -11.043767 -12.314088
-24.09407 -18.07275 -22.642267
-32.103188 -25.416014 -12.239858
-34.371597 -11.165169 -20.411907
-32.103001 -21.058863 -19.119844
-32.102928 -14.663544 -21.655624
-24.101292 -7.0617914 -15.402184
-29.183594 -11.074808 -22.644011
-26.44265 -9.1813622 -23.368649
-27.913748 -8.0683374 -10.803167
-26.849577 -7.7647448 -14.004872
-32.1497 -20.616571 -9.0617476
-32.102936 -19.463211 -21.38689
-31.913185 -9.225008 -16.079218
-32.103024 -13.499495 -18.266571
-32.102905 -16.459003 -22.392967
-28.055962 -12.001317 -22.643625
-27.085003 -7.8351541 -16.878716
-28.101864 -8.1279478 -16.795519
-27.410006 -7.925169 -12.916577
-32.10334 -15.277308 -7.5941796
-22.768595 -8.4499474 -20.621468
-25.230011 -20.409952 -22.642641
-32.103306 -12.343929 -8.2804813
-32.102951 -21.998419 -20.83926
-30.413292 -10.643912 -26.117962
-22.712151 -15.867453 -22.641806
-25.825531 -11.592019 -25.6094
-32.102951 -20.861887 -20.837366
-34.689796 -10.226286 -23.03669
-32.394333 -9.3646488 -17.253456
-32.302052 -21.188332 -11.775788
-29.395344 -14.479598 -22.644073
-23.213314 -21.859076 -22.641953
-28.032661 -10.3412 -26.253044
-25.670757 -17.876068 -22.642799
-31.525331 -12.08234 -22.644802
-32.103157 -20.628811 -13.443892
-28.486103 -8.238904 -17.116316
-26.989559 -18.614897 -22.643242
-31.390905 -9.1820126 -23.36787
-33.622501 -11.635183 -11.611946
-29.269724 -17.427509 -22.644018
-32.102947 -12.394789 -21.025578
-26.662539 -8.7290306 -21.668079
-21.178576 -7.0845585 -15.489672
-27.151066 -8.6704359 -21.447489
-24.913548 -10.7692 -23.024191
-30.467506 -8.8092985 -16.812267
-27.49066 -7.9463491 -10.655154
-33.406769 -9.6633482 -25.097843
-32.103165 -21.075222 -13.136729
-25.580822 -10.769201 -23.952654
-28.623432 -10.7692 -24.915998
-28.723759 -8.3028393 -12.135865
-34.371601 -10.429187 -18.368958
-23.167492 -17.177702 -22.641956
-24.923313 -10.7692 -22.669086
-22.596439 -12.081169 -22.641783
-28.099184 -14.151226 -22.643635
-32.103065 -22.52573 -16.570255
-27.899673 -15.930054 -22.64356
-25.037786 -10.769199 -24.240227
-27.513958 -17.227882 -22.643425
-27.050797 -7.822917 -14.246111
-32.821812 -11.762826 -26.118044
-30.706154 -8.87257 -10.78474
-22.738503 -23.826023 -22.641785
-28.640976 -12.933867 -22.643822
-29.504707 -8.5282278 -12.649631
-33.576927 -10.769199 -21.164772
-34.001743 -9.8308153 -20.799206
-25.875095 -16.791058 -22.642872
-32.103226 -15.656894 -10.99643
-32.103119 -16.877361 -14.696581
-25.631409 -21.176973 -22.642773
-34.581211 -9.993618 -16.281744
-28.49395 -15.991559 -22.643761
-32.103218 -13.018142 -11.27713
-32.229881 -21.292423 -11.089562
-32.103107 -12.49091 -15.286143
-32.103153 -20.474203 -13.591022
-29.17849 -12.183658 -22.644007
-32.102928 -22.903593 -21.676401
-32.102959 -16.856092 -20.63591
-32.103195 -10.803082 -12.200848
-34.460648 -9.963623 -21.501423
-32.103043 -16.909897 -17.686279
-32.103291 -14.554191 -8.6794834
-22.945803 -14.423611 -22.64189
-27.215384 -12.087385 -22.643343
-31.056658 -13.563538 -22.644638
-28.833651 -14.927692 -22.643881
-30.571917 -14.546865 -22.64447
-34.511181 -10.343064 -9.5287342
-32.103127 -21.195137 -14.546125
-33.907063 -11.8008 -16.209082
-34.500629 -10.339308 -26.05637
-32.106071 -9.281455 -17.064608
-33.622501 -11.215694 -9.7761927
-32.884781 -10.406744 -26.118046
-27.757656 -23.364353 -22.643486
-25.605862 -19.038212 -22.642773
-32.10305 -24.9809 -17.305738
-25.312817 -10.7692 -24.269629
-29.697004 -9.6453857 -25.110905
-30.743841 -8.8852558 -12.80578
-33.181831 -9.5842094 -9.2521238
-32.202492 -9.9236307 -26.155268
-26.167704 -11.8008 -25.872013
-32.103287 -12.288744 -8.9649467
-32.102947 -19.63163 -21.047495
-32.103149 -15.720334 -13.715441
-30.315456 -12.03369 -22.644392
-34.189739 -11.164728 -26.118093
-32.103165 -16.087742 -13.144405
-33.851959 -9.7896271 -22.952387
-28.470848 -8.2275715 -9.4584799
-27.712585 -24.318291 -22.643465
-33.622501 -10.802979 -15.486582
-34.565388 -9.9937382 -21.444582
-33.622501 -11.349586 -13.49834
-32.10305 -23.718149 -17.10935
-31.219954 -22.306002 -22.644659
-32.102917 -24.303858 -22.147669
-27.039566 -13.606221 -22.643278
-24.117573 -24.237904 -22.64225
-32.780594 -9.4812899 -23.205107
-23.400553 -6.7711635 -13.764079
-25.248314 -10.7692 -24.987133
-27.824865 -8.0475903 -16.157661
-32.103191 -24.573475 -12.115069
-21.112658 -19.572163 -22.641253
-24.266247 -11.593437 -22.642349
-25.093334 -17.871424 -22.642603
-31.807392 -9.8215818 -25.771898
-33.589546 -10.7692 -16.006796
-24.006569 -7.207468 -15.949881
-32.103073 -20.174225 -16.387495
-32.1497 -19.215771 -8.7247915
-28.783783 -8.3174601 -9.1929693
-33.244148 -9.6130314 -21.254215
-33.142113 -9.5745544 -11.223697
-24.86124 -17.688316 -22.642525
-24.262856 -10.7692 -23.485306
-28.036701 -8.1020231 -8.8961658
-31.750462 -9.1716766 -8.9429798
-25.936699 -10.7692 -22.757902
-34.41375 -10.341763 -14.487414
-32.102966 -21.356562 -20.30999
-23.389105 -8.9936333 -22.664909
-33.860092 -11.8008 -13.437439
-30.290955 -10.383618 -26.117958
-34.371601 -10.374372 -14.289158
-33.622501 -11.626605 -22.732746
-27.839001 -8.051733 -16.236269
-32.237625 -10.769201 -15.291826
-25.450584 -13.603745 -22.64274
-33.908611 -9.8049831 -21.891399
-32.103146 -21.779964 -13.800173
-32.102928 -13.863345 -21.715738
-32.102989 -13.900677 -19.415386
-30.54402 -9.1143875 -23.114202
-33.622501 -11.33746 -18.500019
-23.05253 -15.977769 -22.64192
-28.797859 -8.3290901 -17.554117
-32.103149 -19.778465 -13.739538
-31.587414 -9.1244631 -8.6643734
