# .PCD v0.7 - Point Cloud Data file format
VERSION 0.7
FIELDS x y z
SIZE 4 4 4
TYPE F F F
COUNT 1 1 1
WIDTH 1550
HEIGHT 1
VIEWPOINT 0 0 0 1 0 0 0
POINTS 1550
DATA ascii
9.3957138 40.517445 7.9265709
-0.34209871 36.328117 -3.4857869
7.4523816 38.851482 -1.1130109
-6.2759185 30.997932 -2.711153
-0.42563128 36.251385 11.887892
3.2818093 39.639435 4.4988823
-1.8383083 34.96064 15.547457
-1.1970564 35.545643 3.8199983
-2.6521823 34.216526 0.61686623
5.0303078 40.954147 6.3074522
-10.480949 31.807327 -1.270506
-5.9330339 32.607063 0.15294576
7.887424 40.440327 8.0554466
-6.6348925 31.235352 -2.2885649
-13.505646 31.854141 0.23716688
-6.9536858 34.818764 3.1213531
-6.7930317 30.430773 7.0029163
-11.342662 32.782715 -0.54198086
-4.9658637 32.223984 -0.52890253
-2.053525 34.491947 -7.2033105
-3.9791737 33.002712 8.8892612
-2.8997705 34.00993 8.8143721
-4.7894769 35.703575 4.8900661
-5.0102892 32.060246 1.6001117
-2.9499614 33.944344 14.676039
2.8956535 39.269814 0.80667615
-2.5789471 34.611839 3.7212467
-7.588161 29.70467 -0.86687779
-3.8026204 34.869682 4.1815109
-1.5629416 35.131649 15.589082
4.9748755 41.171074 5.7003484
-5.529212 31.586704 -7.1829925
-5.4999318 31.612871 11.126993
-5.2438874 31.846733 8.0751057
-1.598865 35.179337 0.1305052
-3.2047935 33.710518 3.659811
-7.9846644 29.341677 11.68015
3.9458692 38.139317 -2.3065617
-4.6669388 32.375076 16.054886
-10.915025 34.083832 6.0978031
-6.4077344 31.515974 11.817655
3.6861143 40.009464 4.2255244
-7.5673103 29.723063 1.1867403
10.936678 41.032772 7.0659342
-10.290575 32.756481 -0.57606483
-6.3360572 35.704601 5.3489685
-1.9279044 34.877628 2.8277917
5.5758748 38.963432 -0.93288541
-9.5202141 34.709412 5.955164
-11.352198 33.421558 9.6361151
-12.08513 31.911222 -1.0613523
-8.0275173 35.056465 4.6281147
-8.7626734 31.15947 12.371121
3.6064572 39.026733 10.038424
-0.040495396 36.602764 5.6564512
-6.1695175 32.98901 -0.15916544
7.8493061 40.331017 8.2379799
-2.5830104 34.151672 -7.6256042
-5.1292715 31.95228 -7.3794627
-13.358593 30.929403 0.69896424
-0.81899965 35.891197 2.6224086
-3.734292 33.226543 3.5210276
-4.473165 35.179996 5.7597394
9.4604836 41.23978 6.7203479
-4.0093331 32.975494 11.607244
-2.5455134 34.31377 12.899761
-2.6910651 34.181133 15.516059
-2.2014544 34.628525 -4.961689
-13.943329 30.339302 5.7217474
-10.341342 33.773788 2.3582387
2.8608124 39.255814 1.9980885
-12.859826 32.404301 4.2443433
-1.736784 35.052658 10.575237
-12.685184 31.574116 9.0563412
3.990006 40.286758 5.8636899
2.1164367 38.574257 6.2966852
1.578511 38.083694 0.36391145
1.829772 36.3405 -5.3004799
0.12943697 36.75914 -0.65251291
-2.3438826 34.498333 1.1088434
-10.748418 33.502831 2.8927121
-5.0582519 34.217819 8.4875746
-12.000902 33.137051 9.0993776
-11.017449 33.388771 0.54480565
-1.7029992 35.083897 12.828532
-11.159653 33.863247 1.6561835
-6.9596028 31.975037 11.104973
-3.9253798 34.859962 7.4781199
-4.3478079 33.547497 1.8268268
7.0075626 40.36153 1.3933265
-9.7621088 27.716959 1.2452338
-8.1930218 33.605995 1.9309412
-5.4849195 31.626421 4.7933617
-5.7852364 33.55204 8.6567154
3.3046186 36.755352 -4.6069698
-8.721405 35.088184 4.7039566
-3.3558617 33.572956 12.392819
-13.18235 31.091183 5.7062187
2.0898108 38.55106 1.6537347
-4.7453804 35.179848 5.3455253
4.5686069 39.52813 0.044391632
-8.9845324 31.906885 -1.0933051
4.168169 40.45084 3.0851204
-12.328991 32.863964 4.196836
5.0391192 39.475174 -0.084661722
-11.030809 33.982964 6.3808827
-2.930228 34.290272 7.5106354
7.0592532 37.599972 -3.1926737
-5.8414078 31.301331 -0.28525639
1.605237 36.977554 -3.9587109
-1.3545524 35.401688 4.8065414
-6.4183373 32.495277 11.195421
-1.9998082 34.812843 -5.2293587
8.164012 40.051636 8.7044849
-13.225902 32.09351 1.4979885
2.5820012 38.278786 -1.4515402
-5.9233856 33.311722 9.0298023
-13.522854 31.824894 6.6618433
-13.312742 32.010326 5.0798464
-7.1074123 30.809944 13.84477
-8.5457573 35.390331 6.6432753
-5.7675319 31.36915 16.801113
-4.7419953 32.305473 8.8785639
-13.834888 31.557148 5.5911255
-9.3689976 28.076275 5.6047583
8.7103243 41.418739 4.5842447
-7.2268486 33.268135 0.34126556
3.6260672 38.099579 11.951379
-3.7541881 33.152775 10.161822
-5.6252341 31.498169 7.7332716
-8.0590324 32.584587 -0.88424551
-5.6263537 31.49791 -0.10784292
-2.8293517 34.054581 -1.9843657
-11.405371 32.853596 2.960762
-5.6665139 31.652615 -1.5458825
-2.5054507 34.349731 6.0675812
6.7434082 41.418892 4.5106087
6.5493937 40.6483 7.7075286
1.7673429 38.255177 5.8470778
0.49135399 37.088894 5.8782749
-5.0210309 33.770744 9.1903801
-7.6455116 32.29488 -1.4036578
-13.926636 31.48127 4.0007615
-6.7114449 30.506054 -5.4896531
2.7440045 39.040016 0.34911585
8.865324 40.703831 7.6153555
-3.6974492 35.464031 6.4478283
3.2513354 38.599571 -1.1958759
-5.0358796 35.027542 6.186224
-1.1771581 35.563828 4.7084608
-3.2116144 33.705379 16.019224
-7.0743613 32.968414 -0.19609678
-14.712715 30.796558 5.8707719
-8.849226 31.342007 -2.0987313
0.62967515 37.215317 6.1877975
0.38241911 36.989319 5.4138908
-7.9736013 29.351704 3.962688
6.4659581 37.750114 -2.9451571
-12.736717 32.50795 5.5561032
-6.5919247 35.416843 4.208972
-4.8307023 32.225227 15.024979
-4.3979053 32.620819 14.874543
-4.7372656 32.310501 0.37394214
-3.0203011 33.879147 2.0355527
-4.4184933 32.601166 6.5564613
-7.5983777 34.939007 4.3472724
9.4213696 41.419144 4.7509069
7.1944551 40.127586 1.0050426
-4.5364676 34.917854 4.2967
-2.231406 34.601135 14.429581
-13.464562 30.818554 3.19364
-10.084497 31.706364 11.522085
1.5698936 38.075817 -0.26331186
2.8232985 38.672497 -0.65207648
-3.0492029 34.861813 7.4752169
-13.171258 32.141621 1.1366267
-5.8643827 31.279581 9.0505219
-6.9524131 30.285093 -0.0582995
-7.79498 31.034794 -3.6628313
-4.3191423 33.327671 9.8868942
-12.881958 31.391459 4.2900248
-11.958664 32.096497 10.75796
-7.149703 33.994316 7.9700899
-4.0096655 32.974842 7.3255396
-3.7424798 33.694187 8.4360437
0.4430511 37.039555 -2.8131199
-9.619235 30.643665 -3.3417103
-11.56991 33.526867 1.6260661
-0.87778687 35.838451 0.61504495
-4.633009 35.179848 5.3543425
-14.601832 30.889566 7.2082682
3.8559189 40.164513 4.4072499
-9.5026283 35.011196 3.4901626
-9.5901718 34.302185 3.1509278
-8.4849758 33.312344 1.4082763
-9.8090343 31.288158 -3.2085819
-3.2130556 33.703178 10.363469
-8.4486437 34.581543 7.9157987
3.0742884 39.450951 2.1053848
-9.0378971 28.378908 9.7053928
-10.128657 27.381926 6.2822456
-5.5065618 33.176445 10.12462
-0.37649965 36.29565 6.5482402
-5.0518775 32.188927 10.772919
-5.8498044 31.785774 -1.3088703
1.6398566 37.062687 13.40679
-11.944361 33.200974 2.3954172
-4.3235936 32.750969 0.40907979
3.234179 39.595966 6.550869
-11.100937 33.928333 3.658474
-7.4944835 29.789629 0.4359988
-9.9158287 33.918259 8.9617634
-13.759334 31.629177 2.6267135
-3.9581263 33.022427 12.35709
-2.6798503 34.191292 14.940625
-7.8065805 31.303423 12.147639
-4.4646664 32.55978 -6.8116198
-1.4041209 35.357349 -0.88527346
-10.125039 32.834187 -0.43674856
5.5374098 40.181347 1.0896573
-12.299652 32.886429 5.5116339
-5.8779655 31.267168 6.9332733
-5.5301642 31.586094 16.590696
5.3241205 41.379974 4.1412086
4.9227743 39.611931 9.4316988
-8.2273712 29.120384 -2.1096399
-6.0326023 35.051914 4.6172342
1.6387608 37.544594 12.149961
-5.4938931 31.61899 -2.8908365
4.5070753 40.759399 5.8196921
-5.2518368 34.22068 2.0490589
5.4555221 40.681026 7.3803062
-6.6078987 30.600704 -0.69334316
1.746069 38.235729 5.8245058
-9.316762 28.12402 8.5011358
-4.1577945 32.839451 5.6010146
-6.6703057 30.543659 -2.7219629
-9.601326 34.222176 7.637958
-5.5490751 34.88673 7.4360456
-4.4048872 32.613598 8.1408663
-3.5991378 33.357002 0.5005939
-0.54886365 36.138103 5.6156044
-7.1610022 30.095123 -4.5471425
0.7904098 36.500618 14.103889
-2.9678679 33.927071 2.1395895
-7.9813571 29.345261 -2.8482671
-5.45399 32.731743 -0.62042046
1.5006205 38.011723 9.0535202
-3.0299866 33.871422 16.145597
-0.70289934 35.997669 10.188749
6.1779399 41.426773 5.364614
-4.1802759 32.819733 -6.18817
-14.558099 29.734453 4.6908455
2.5242312 38.947189 7.7271657
-9.0821018 32.031422 -0.87164223
-3.0584576 33.844269 7.7380667
-7.5628247 30.743654 -4.1848068
5.7185578 39.608498 9.4401226
-7.0385695 30.207037 -4.9487433
-3.5681639 33.378384 4.2462616
-6.5548596 30.648468 1.4436271
0.25615036 36.874962 -3.0447555
-3.8641367 33.108685 14.567642
-13.107296 32.198723 0.36272669
8.4167643 40.873035 7.3328276
-6.6428356 30.568054 3.5120342
-9.2503471 33.339996 1.4574977
0.69230485 37.27256 6.5370269
-12.072862 32.192093 3.78181
-11.091995 26.50141 5.100419
-4.5066681 32.520851 11.377939
-10.965757 26.616795 3.4469233
-5.2841058 31.809969 5.5278339
1.6288476 37.080647 -3.7012331
-5.384058 31.718674 10.353763
-7.3266964 35.179821 5.1024246
-5.8603435 31.284023 -3.1977212
-7.9902477 31.554142 -1.7211516
2.9175429 39.307671 2.217586
-12.126016 33.037483 5.1850696
-9.3960943 28.051504 -0.086002052
-5.1333508 32.625896 -0.81018472
-0.89737058 35.819683 8.7684879
6.3199506 38.425854 -1.8233629
-3.80247 34.501053 8.0423279
5.5884018 41.255371 6.0156078
-1.7306554 35.058193 10.128447
-1.8978188 34.906185 15.213506
1.5589308 38.064682 5.3045502
4.3924007 39.171436 10.165068
7.6531491 40.592594 1.7768174
-8.6827602 33.867115 9.0388842
-6.9552379 30.163443 -5.2250566
-5.2788496 31.815998 17.715263
-5.6239519 31.500105 -0.20900702
1.0799346 37.051941 -3.3147514
-13.415374 31.91761 6.8112268
-6.3379612 30.847446 -2.700171
-9.2309113 33.505814 9.6068487
-9.9111471 34.12022 2.9218657
-4.0366726 32.950996 -4.6840396
-0.51141691 36.172333 6.4191494
-10.213398 33.663864 1.0469186
-4.4636431 32.559895 4.1443706
-9.8285217 34.922295 7.1260638
2.364146 38.801098 9.2511177
-7.7902393 29.519424 11.82262
-2.8240144 34.058559 6.6949558
-12.05308 32.202835 7.3516731
-12.366673 32.838234 1.1114848
-10.352954 33.886711 5.6622453
-10.258438 31.952122 11.140554
-9.6435375 27.825338 7.2742777
-8.7682076 31.453842 -1.8996739
-0.081190467 36.565567 4.0207906
-2.9518983 33.942326 13.094601
-4.7974124 33.268093 9.0975389
-3.2757921 33.646408 0.95889997
7.3688502 37.913883 -2.6703806
-6.1701612 31.778933 -2.3286865
1.6134459 38.114513 4.6253633
-12.954617 32.308224 10.526613
-6.2410812 30.935532 12.007212
-2.2342794 35.704601 5.3215694
-4.1621246 32.835491 4.3778028
-5.720633 31.410971 0.4965876
2.27179 37.792751 -2.4281297
-7.065165 31.708374 -1.446636
0.083496332 36.716637 10.974602
-14.228146 30.06208 4.02844
3.1200247 38.02634 12.071892
-13.466649 31.889406 -0.43577218
-10.170691 34.733372 3.7946465
-7.4669056 29.814837 5.3219194
-8.3333273 35.408703 6.5945463
-12.406574 31.863722 3.2416036
-5.1557083 31.928116 -3.1538663
-5.0133243 32.058266 -6.6954374
-3.7227261 33.23711 4.5244827
-7.5206127 31.906891 11.21077
-0.71873116 35.983585 12.640943
-10.942268 33.000938 -0.14685977
-13.556761 30.730095 2.1271143
4.9565673 41.171494 3.9883294
-2.9385767 33.954739 -4.2924924
-11.7362 33.366959 9.3478432
3.9992204 39.833344 8.3007517
-10.334797 27.193508 4.7707381
-12.882002 32.39222 1.0548736
-1.2451642 35.502644 -2.6066561
-4.0558758 34.542297 3.5974722
3.6899002 37.958057 12.187787
-3.5577769 34.506828 8.0332556
4.9912543 41.033993 6.0678067
-14.407788 31.064533 4.0853643
-12.650408 32.576229 8.438694
-1.9911041 34.819859 7.8351078
1.2430394 37.776093 7.9269037
-5.6070528 34.257088 3.0898271
-6.2633734 30.915627 -4.7464266
-4.329545 32.682465 2.533535
-12.022535 33.131557 3.1740532
4.5760269 40.822819 4.6526446
-4.7460842 35.009338 4.5154324
-4.4392776 32.962769 0.78606141
-5.556129 31.561333 0.53846532
-3.3668649 33.563385 15.512806
-9.1270704 32.190552 10.770393
-3.9149995 33.061371 7.1780796
-7.547195 35.23127 3.8609188
-10.481857 31.722479 12.410263
2.6626048 38.856716 9.6573648
6.4254136 40.073902 8.6657677
-2.3626719 34.481159 -1.8410056
-3.7603586 33.202782 9.6923838
6.5689454 40.938881 2.3509145
-10.468997 34.474838 3.9199121
-9.2843714 28.153625 2.0520668
-5.1522274 31.93051 4.1229773
-3.6165991 35.704601 5.2497454
3.0785668 39.454861 3.2692978
-13.470339 31.876087 4.0968785
-7.7094407 29.950184 -4.5760393
-9.283062 28.154821 4.0911717
-1.9899602 34.820904 5.0828276
-8.4146833 28.948542 8.1280985
-0.79916364 35.910324 -3.6361473
2.6342468 39.047932 8.8391886
-4.084991 32.905991 4.363524
1.1065913 37.652321 0.62016302
5.1431398 38.410797 -1.8520143
-13.888538 30.396324 4.5501041
-9.9633503 32.334175 11.448671
-11.703303 33.412918 0.93988776
-2.47475 34.378712 -0.70030743
-5.1990552 35.301025 3.9859881
-6.4186621 34.108727 2.8257575
-7.2200861 30.071732 14.059801
-9.5333672 32.314068 -0.36855972
-7.5656734 30.485136 -3.6238775
-6.4481215 33.240871 0.29238838
-2.4470737 34.404011 -6.5753999
-14.618633 30.880098 4.9358354
-11.112056 33.147263 1.3891522
3.7178247 39.025375 10.13858
8.6377583 40.302612 8.2853594
-5.56077 32.141872 11.75097
-14.320916 31.134369 6.490777
-2.0498223 34.767124 -0.11539745
-6.9163241 31.350952 12.994301
5.7375512 37.289413 -3.7125092
-1.090867 35.643326 12.076818
-7.1129031 30.13909 -3.61058
-7.5114765 29.774763 -4.0011568
5.685636 37.801376 -2.8624294
0.30147672 36.91534 4.6110468
-0.14383098 36.508427 8.3326778
-10.106475 31.887589 12.150705
-6.2788644 34.297131 2.1861281
-10.18327 33.109547 9.3651752
-5.939384 32.715782 0.34645593
4.5657206 37.540924 -3.2984252
0.91540504 37.47691 9.8948021
8.1833363 41.300285 6.6193948
-4.2048936 32.797539 16.728109
-0.94087839 35.780109 2.3087192
-1.275743 35.473717 8.0321121
-1.0604627 35.67049 4.8605537
-3.8360233 33.199181 0.21763849
-6.62503 31.296936 13.079215
-6.6630344 34.819096 4.0901475
-3.3887622 33.543236 -3.7436051
-1.3502171 35.40662 0.66500592
-10.0779 32.363422 -1.2807714
-5.1634483 31.920254 3.0482311
6.457284 39.85194 9.0363274
-3.7497692 33.213249 -0.98755801
-5.7692871 31.366501 1.0080299
-9.7356615 33.289619 0.37978601
-1.9007888 34.902412 7.3384171
-4.3104248 34.595352 2.7208061
1.4829547 37.459785 12.233271
1.1569023 36.31535 -5.3180742
-3.9913363 33.241341 9.1390743
-2.6463718 34.221649 13.34116
-5.7277436 31.405228 -4.6150055
7.5552549 40.059891 8.6907368
9.2849655 41.422253 5.6856031
-10.050205 33.342155 9.8641224
-4.0830493 32.908607 -5.7346635
-3.1464324 33.76474 -0.69109708
-7.4194212 31.638577 12.542158
-4.9937673 33.228302 10.043103
-12.728988 31.528664 9.9378653
-7.9913416 29.336132 -2.339968
-7.1079111 30.142965 2.5263233
-7.0663385 30.455402 14.402113
4.6389689 40.881184 3.9751949
-5.109736 31.970285 15.820393
2.906635 39.296577 6.6474819
-3.6567533 33.297821 11.808951
-11.360978 33.693008 8.3776989
-4.8332496 32.223198 16.97258
-2.7215595 34.153111 -1.1542984
-12.738672 32.516296 1.0602725
-5.1623449 31.922153 15.564769
2.3537974 38.791222 6.5964322
-6.8716331 30.3592 12.339827
7.410481 38.585407 -1.5550206
-4.4212852 32.59861 2.2108042
-7.8120751 33.413036 0.60105324
-6.0707107 34.998589 4.4897332
1.0763497 37.623646 7.4280334
-1.1558504 35.456215 -5.5020576
-13.522264 30.756517 5.2320757
-11.905721 33.236183 1.6081915
-1.699512 35.074951 -6.016737
-4.0863276 32.90477 8.1032438
-7.5542741 35.17997 5.6903772
-12.065769 32.206146 0.92525917
7.9010534 41.416691 3.9148736
-9.859726 27.627733 3.4294267
-11.087463 33.332726 9.9061642
5.1682916 38.570457 -1.5867722
7.3655548 41.421143 5.2307405
-7.1517677 33.841347 1.3689582
-8.1764202 30.978455 12.652143
-5.7242017 33.194794 10.095779
-3.0680377 33.836334 14.201107
5.8325891 40.033894 0.84568346
-1.7429454 35.650566 5.9531837
2.7851174 39.088963 0.43920541
-5.7124534 31.418449 9.2317333
-7.4072032 29.869406 5.6924472
2.6710391 39.082348 1.7239121
-7.7777147 32.791023 -0.51412988
-1.0085918 35.718132 9.5013199
-12.318153 31.94265 6.6598892
-13.222344 32.092896 3.1514211
-4.7249904 32.348274 -0.3076787
-6.2445922 35.624165 4.701438
-7.5373554 29.750443 3.926089
-7.2614865 35.051651 4.6166096
-9.6985102 31.514111 11.820547
-5.9596696 34.645432 7.8153663
-7.4413462 31.561636 12.66311
-6.5229425 31.232306 -3.308718
-10.208796 32.596169 -0.86348826
0.56991076 37.161758 1.407129
-6.4054003 30.785261 11.588915
-9.454114 31.466621 12.812469
-11.000349 31.677551 -2.5112622
-4.5622363 32.470886 16.690006
-7.8666534 31.439539 -2.9371762
-9.8743668 34.988403 4.4682636
-12.259197 32.585194 10.987291
6.617125 37.970631 -2.5784633
-12.354897 32.83165 8.6237545
-2.8280096 33.919502 2.4889517
1.0197396 37.572422 10.816408
-4.2693834 32.738281 -0.94105971
-10.094274 34.793709 6.7204533
-6.7924814 30.431978 -3.5645976
-11.041697 31.904411 12.130245
7.6388254 41.421261 5.2841425
-8.3641262 30.541079 -3.5243044
2.1481819 38.603275 5.2601223
-1.5734465 35.202572 -4.6509237
-3.2398489 35.07214 3.5756183
-5.0714517 34.1465 1.9160647
-9.8157196 27.667957 1.9237058
-5.9780989 31.176388 -5.9021516
2.863203 38.482277 10.796356
5.3821611 41.167305 3.5516706
-4.6062489 32.430363 -4.2815528
-4.6023808 32.433899 -6.8325577
-3.2712252 35.179798 5.1997561
-12.826241 31.458633 -0.62663949
-3.90449 35.087143 6.0271039
-2.8347802 34.012615 7.9416819
-14.464245 29.823071 6.3584919
3.1746151 39.541767 8.1369572
-11.604431 33.484455 7.2345514
-7.5320725 29.755272 7.7924089
-4.7025323 32.342583 16.305946
3.1841552 39.118404 9.4356785
4.1352177 39.372334 9.6067638
-4.8814783 32.177982 2.5659657
-5.6293163 31.456059 12.829074
-8.9737635 31.375801 12.035273
-6.287231 33.799183 2.2748001
-9.4792767 34.752789 4.4914174
-6.5216565 30.679535 -2.1727853
-4.5151782 32.512787 5.9150043
-3.8723793 33.101177 -5.9177003
-5.7688451 34.534359 7.9899769
-7.0350246 35.704601 5.2412009
-8.736393 35.704601 4.9074535
-4.3440337 32.66922 3.1579556
-2.7404308 34.441547 3.4181459
-5.347609 31.752703 -4.7433386
-12.026718 31.889568 11.227224
-0.27506018 36.074577 -4.6664963
0.90739751 37.469791 11.17606
-13.519581 31.83168 4.8920732
3.7614148 39.610653 0.94890666
-8.0349178 29.295658 6.430892
-9.2244816 28.208366 -0.052334607
-11.606962 32.645481 6.5872669
0.0088095665 35.588615 -6.1558805
-10.143336 33.069492 -0.014874935
-15.01569 29.281914 4.8706579
-7.0959382 30.153908 1.6702657
4.973124 38.116844 -2.3407145
-7.858429 32.778881 10.749594
-2.4664216 35.183632 3.7755172
-3.5430231 33.402229 -1.6438847
-6.9605827 30.27763 3.0344205
-3.1015806 34.517712 3.5537102
-6.2235761 34.417355 8.1739044
-2.9705729 33.924599 4.7237535
-6.2036624 34.091805 1.8180028
-9.1388378 30.722635 13.049294
3.8008633 38.479721 -1.7416797
-14.329979 31.128948 5.4040265
-7.8749943 29.44183 9.9865875
-10.096041 31.763737 12.345406
-7.1129036 30.139091 -3.5577145
-7.8915582 29.427343 -3.12818
-0.75508857 35.950611 1.0165024
-9.1648207 31.524498 12.721486
-10.146787 27.365356 3.5093093
0.11199689 36.743191 1.0648539
-3.3252993 34.697475 7.733552
-10.533553 32.219467 -1.5388552
-5.9762006 33.79948 9.1452065
-3.9889181 32.994648 -5.1212974
-5.8713818 31.273933 -2.6397796
-13.95749 30.323307 6.5334644
-0.59668636 36.09494 11.356193
-9.9248762 31.81852 -1.2505815
-9.1615601 35.604187 5.6722708
-11.959826 33.180046 5.7711821
-10.024384 27.477232 1.3906157
0.50129843 37.099045 2.1104515
-10.300577 33.025013 9.5036621
10.263023 40.528114 7.9087024
4.7625065 38.1478 -2.2899551
-7.0381613 33.26619 0.33778214
-2.6141372 34.251305 -4.8390932
-10.537458 34.416622 3.4481747
-12.135322 31.896313 11.093456
0.34164339 36.953106 -1.6148131
-10.339317 31.693344 -2.482136
-8.1999884 29.144777 2.2201691
-4.5056143 32.52235 -3.3422165
-4.6741939 33.729012 9.2559853
-0.96083021 35.761559 4.8682699
-8.1406612 32.746147 -0.59458852
-8.4054317 28.956997 4.8264008
-3.4187932 33.515785 -5.4769769
2.4656291 38.894588 1.3464105
-9.5857449 35.238068 4.55931
-11.160888 33.082966 7.8976421
-12.042805 33.118282 1.2604882
-5.0170178 32.054092 8.6723995
7.9885244 41.421364 5.3365879
-5.956017 32.029564 -1.8793364
-5.3563814 35.256126 6.8553491
-7.7078395 29.594612 10.891136
-4.5116639 33.011658 9.4956493
-3.7096817 33.687061 2.0752356
-5.7298336 31.40332 -6.9781251
-9.5769711 27.886181 9.1366596
-8.6043129 28.775213 1.4196005
-1.2781845 35.47179 10.100429
-4.4749241 32.550404 -5.1977105
-0.42854261 36.248081 7.7241678
-6.2267075 32.257057 11.569906
-11.757301 33.359859 3.7656615
-2.9417312 34.232967 7.5995965
5.1545625 41.216141 5.7401619
-5.2450018 33.72192 1.1548483
-7.5122056 29.77343 0.13198419
5.9227448 41.124615 2.9905624
-8.4475422 33.244255 9.1345415
-8.8008556 34.732258 2.9662578
-5.4784818 31.633076 -4.0393114
-8.3558121 34.245956 3.0700173
-9.5162802 33.673374 1.0678095
-0.96825004 35.755764 1.7828892
-2.1833301 34.644157 3.3905463
-9.7453957 33.066612 -0.020037651
-5.0122013 32.058498 9.1732769
-3.5216925 33.421726 -2.7707953
9.4850035 40.361111 8.1876183
-13.161388 31.125389 0.23396862
-5.4657269 31.644733 -1.0954731
-2.4885237 35.314732 4.0105515
-6.7007113 32.753056 9.8971176
-5.3041029 31.792469 0.029699087
-2.9636536 33.716076 8.4020567
-4.8365765 32.219494 12.735575
-1.9312146 35.121593 3.6642876
7.2147756 41.417965 4.2586889
-13.144222 31.133156 3.9613674
7.1196032 41.423405 5.9000926
-9.768302 32.521938 0.0014304519
-3.9402707 33.03857 11.235405
-10.439128 34.495449 6.2702103
6.6170411 40.490215 7.9715967
-4.4077888 33.0257 9.4738522
-4.0685763 32.921833 -1.8630668
0.12825823 35.588947 -6.2740574
-6.5250607 30.675707 1.680099
-4.528676 32.50127 -1.1884389
-5.9367533 31.21418 -7.223125
-10.41475 34.515232 6.9788666
-13.504443 31.841095 6.5441437
-9.5677643 27.894594 1.863566
-11.582977 32.682667 1.1182272
-2.974658 33.921757 0.3957299
-2.8778932 34.874905 3.2220035
-4.7356005 32.606876 0.15260601
-5.8184156 31.321735 11.035556
3.3733208 36.341774 -5.2936001
-4.7164307 33.761902 8.3309116
9.0444822 41.414825 3.2849615
-1.9098797 34.894104 4.7297726
-10.589128 33.551788 0.84170294
1.1736846 37.603333 -1.9907136
-9.4715977 27.982492 7.670094
-13.243296 31.022606 9.0963087
-1.6629348 35.119812 3.5313349
0.60139227 36.616379 13.641533
-3.2932255 33.630287 1.0784044
-6.7246203 30.493305 1.0979782
0.60648298 37.194584 10.262206
-2.4640882 34.387543 4.0417523
-7.1392012 32.133057 -1.6937821
-13.554478 31.80077 5.2039418
9.1878052 41.415516 3.6376307
-2.0000262 34.575802 7.0673604
-4.7316899 32.315701 -1.781225
-1.752021 35.038387 5.22367
-4.6412168 32.398079 12.783537
-0.77626657 35.931065 13.125137
-12.206232 32.069504 0.059911877
-7.489109 29.794542 1.9907296
-14.53334 30.948238 7.4884515
-11.794413 32.453316 9.8076038
-13.270863 32.037666 9.0729733
2.8427036 37.847134 12.37005
-7.5787878 29.712572 2.3427839
-6.4882941 35.704601 5.1135492
0.25221395 36.870956 11.595486
-2.1498213 34.67572 -2.8387265
-7.3826046 34.832424 4.1138673
-3.2809541 35.179733 4.9671431
-9.2295656 32.045319 -1.8510854
1.8182495 38.216961 -0.9694581
-4.7443118 32.303604 11.271146
0.56480312 37.157089 0.3041966
4.4958 39.031265 10.399366
-3.2667112 34.182541 8.5430346
-7.8334899 29.479769 5.2834816
-9.0364695 30.83181 -4.0267563
-6.1375041 31.030678 -4.7663879
-7.14502 30.109089 11.017889
-7.9922915 32.040611 11.003173
-4.3230104 32.688438 1.8913572
-5.7832861 33.704308 8.4203253
-5.111742 31.968304 -4.5816889
-5.2572203 31.835327 -4.6186962
-7.4618912 33.248718 0.30645812
-1.1436074 35.595478 -2.1890509
-5.8440676 32.727375 10.830557
-5.0334253 32.039097 1.896902
-7.9815779 29.344412 1.2074552
-12.835749 32.41449 9.0149736
-6.2098126 30.964472 14.317202
-4.7039938 32.340614 12.251286
10.178164 41.423706 6.1806045
1.2903728 37.819714 10.211161
1.4531972 37.96804 4.4538517
-9.6174879 27.849148 8.6762609
-11.460016 32.804096 1.1395372
-12.112869 32.147003 6.0379066
-12.894676 32.380882 1.2198967
-0.74788356 35.956196 6.005136
-8.3707428 34.31945 8.3278131
-4.723134 32.323517 -4.6506367
-2.8880992 35.704601 5.6904325
-15.296682 29.004606 4.7449312
-7.2735186 33.510292 8.7215281
6.9294276 38.294037 -2.0404069
-4.8734865 32.185287 8.8962193
-12.876654 32.390099 4.079186
2.3796196 38.815968 1.0561806
-12.365377 32.828339 6.0432801
-4.4419289 32.580559 0.069140196
-8.4884214 32.093719 11.826669
-12.134455 32.128704 4.8112755
-2.1905804 34.638458 -1.387437
-12.116603 32.945694 10.150197
-6.423275 33.883148 8.1426859
0.88076091 37.445606 2.7829385
-10.002689 32.952465 0.76772475
-10.207987 34.700195 4.1935453
-10.431308 33.815948 2.9660354
-8.0641117 31.724422 12.407208
-4.0149832 32.970772 14.402979
3.7914462 39.202145 9.7469597
-2.5964417 34.267735 16.209118
-8.2521544 32.006496 11.963783
3.6630316 39.774345 1.4476323
-4.1126966 32.881016 11.607771
-5.7311831 35.214584 3.831007
-1.6163697 35.371906 6.6733494
-0.70623183 35.995125 13.383165
-12.401383 32.806973 1.6550624
-9.2608032 28.175163 -0.16092652
-6.6723509 30.541355 12.310137
-2.6873899 34.184341 -6.5145497
9.8317547 40.572926 7.8338971
-0.58464026 36.105404 4.7899809
-3.5282383 34.818245 6.6909685
-9.1851864 33.392281 8.9047365
7.5044808 41.424747 6.3327589
-10.149807 34.552238 2.7492919
2.7475157 39.151081 6.1117091
5.0296803 40.406853 7.7172298
-5.7816482 31.355959 -3.8804209
-3.7442372 34.302422 3.1705117
-8.6839123 35.02177 6.2016311
3.7011304 39.974987 1.9260912
2.2077787 38.657803 6.9565153
-5.2022433 31.884794 2.0880156
-4.5965323 32.835346 9.7693691
1.3449948 36.075932 -5.7413592
-2.6299615 34.236443 12.012859
-6.0679035 34.212231 2.0339158
0.3754425 36.455612 -4.2418365
-4.2958012 32.713306 7.0963612
1.0241857 37.575912 4.1027999
-8.406002 28.956476 0.17698368
-5.4242148 31.68268 -0.91199088
6.8362455 41.419067 4.5687971
-10.067983 32.765873 9.8772182
3.7434485 40.06147 6.4360418
-15.665764 29.974537 4.4999471
-13.142149 32.167549 0.81258368
-7.5415497 31.433884 11.945099
-2.8986359 33.990677 10.950441
-8.2790546 33.887604 1.4519001
-3.0126402 33.886662 12.214884
-8.2885723 32.078083 -1.7923435
-11.352443 31.507298 -1.8466835
-7.3457451 29.926258 -0.8755815
-10.16782 32.718517 9.9507446
-7.8803191 34.63121 6.9813361
-5.4390168 31.669149 -4.7363482
-6.1279831 34.503502 7.1795988
-11.135792 33.108013 7.7963786
-10.333909 33.903816 6.3572755
-8.6375742 28.744814 4.5293126
-7.8331194 32.25074 10.676951
-7.6923704 29.608755 4.0109491
-0.34784532 36.322712 13.305809
-5.8204298 31.320599 15.558723
-14.152537 30.135509 4.5430813
-1.9557905 34.852528 10.943275
-1.6573749 35.125854 1.1871834
4.3877997 40.570408 2.8657839
0.21294497 36.834431 7.556541
-9.146656 32.131241 -0.69397479
-4.7290812 32.317276 2.2855432
-8.1250181 32.449394 11.26755
-2.7133918 34.104378 2.8180158
-6.1661391 31.189487 -3.385488
-3.4083138 33.524494 3.8124628
-13.510773 30.770916 3.9971514
-1.5165123 35.253643 3.7207518
-2.718883 34.154652 3.2382016
-13.351957 30.928867 3.5742564
-0.18081009 36.475548 -1.6514231
-6.8101807 35.131824 5.9078207
-8.8286886 34.033432 2.6917415
2.1222496 38.579868 8.5198498
-10.222004 27.296604 1.7739711
-9.0797176 32.233658 -1.5134184
2.1135583 38.571777 7.586216
-8.6677408 28.717239 9.8722372
-7.7975039 32.262848 -0.4597193
-8.7308741 32.345592 -0.31245166
-8.3135643 31.432213 -2.9503098
-9.8356485 35.019279 5.6527309
-14.508247 29.781357 5.6436872
-5.4502749 31.65873 14.090709
-1.8292869 34.968006 9.917635
-4.6057744 33.785191 1.2682863
-2.9492731 33.944962 0.48598576
-1.718356 35.314701 6.7632699
10.618211 41.323349 6.5807257
-13.468153 31.874672 5.5782046
-7.958324 29.365664 4.2579722
2.7934194 36.95026 -4.2848401
4.1891789 40.268734 2.2647128
-8.8545074 31.344353 -3.1078324
-1.4177284 34.872959 -6.7664013
1.4953566 38.007175 10.76728
5.9362392 41.429466 5.2366538
-11.613048 26.025156 5.1481104
-2.7846494 34.09454 5.7613277
2.6216099 38.661983 -0.50998783
-6.4720221 35.341606 4.0587473
3.5054705 39.047943 -0.2681489
-9.2923288 28.146351 7.8662858
-7.742475 30.852657 12.847438
1.2785037 37.808365 3.6413357
-7.0206537 30.597427 -3.4240112
-5.2881021 33.839169 1.3650613
-9.1057816 31.490147 -2.8464441
-7.8310266 29.482019 5.7232966
-8.9411802 35.704601 4.9605269
-6.7478995 35.321411 4.0225363
-5.4426193 31.665855 -4.4017191
-2.3482051 35.077705 6.0523062
-7.5051489 29.779881 7.5640459
-3.9036076 33.072628 -4.6434603
-4.7268476 31.814798 11.353739
-9.1222601 28.301796 1.2459574
-14.022092 30.265907 3.9286337
-10.849636 33.403286 2.7053535
-8.6592588 35.126221 3.6725805
-4.2157421 32.787312 -0.82930195
-5.9953127 33.696823 2.0926132
-11.785589 33.324047 9.0161724
-4.2247939 32.77821 1.940022
3.2409208 38.510677 -1.4132802
-4.7508435 32.298397 16.138607
-0.50752521 36.175888 7.4570761
-5.2086549 32.944843 9.5993767
-11.037086 33.185741 1.3802862
9.0713425 41.418182 4.4385676
-10.011265 32.078087 11.851245
1.7819419 38.269646 1.791405
0.29003811 36.904881 6.4758215
-11.346582 33.718586 2.3535995
-8.4542408 35.383419 6.6552453
-12.43405 32.769489 5.7747431
-2.4803424 35.530758 4.4795656
-5.6106496 31.512266 -3.8321257
5.5419688 41.433952 4.9411249
-5.7008686 33.572517 1.871356
-14.676764 30.831795 4.0307565
-1.0218953 35.706726 -1.7588341
-5.3084559 31.78849 -2.2414141
-3.011694 34.954506 3.3647203
8.0076323 40.979202 2.4184375
-13.588907 31.77352 4.0604153
-10.428218 33.495358 9.6347017
-9.2919807 34.719639 3.9741139
-4.4900069 32.535797 6.1869764
6.3385963 41.414387 6.2569423
-7.756309 35.082943 6.0383215
0.68484139 36.95121 -3.240231
3.34706 38.13216 11.896067
-5.7174015 31.571503 11.731447
4.527391 38.957848 10.522012
-4.5448551 32.566231 -0.91715813
6.2360353 40.027954 0.83705747
4.4170084 39.682308 9.0525599
-4.5326738 32.49736 0.56068635
2.2529163 38.699001 3.9969163
-5.9026284 32.703568 9.9739532
-1.1409 35.596966 5.5965214
-7.0160418 30.227631 -4.8661509
-13.027002 32.270901 -0.83042717
-2.7930188 35.179745 5.0401764
7.7633963 41.146477 6.8762579
2.4147818 37.848896 -2.4050107
-3.0342295 33.867306 -2.7500958
-2.526531 34.330467 6.1646566
-14.80298 30.721317 4.5708904
-12.517114 31.74271 8.0248175
-12.193321 32.119625 -1.7376919
-12.700369 31.568377 5.2995081
-8.4934826 28.876516 0.98220271
-7.2356658 35.22253 6.9081616
-4.277801 33.545963 0.83937162
3.7992349 40.11245 6.3424563
-15.195257 30.379725 5.4602094
-3.3137603 33.610916 4.0002923
-7.0760365 32.652645 -0.76222789
-7.8145885 29.497042 2.0060694
-5.3501329 35.167522 3.7466292
-3.9679542 33.013813 -3.7627211
-12.475742 32.746235 0.025508642
-5.5394444 34.82085 6.6869249
-13.88648 31.521385 1.6052179
-3.8672011 33.105907 -1.1558428
2.7725427 37.810276 -2.8509591
8.3710098 39.306679 -0.35743713
-10.344364 32.84557 10.644782
-5.5073709 32.634361 0.20153046
-11.541667 32.719837 2.5963502
-9.1502113 32.438309 -1.1465025
-3.2199006 33.925274 8.9474564
-6.2175989 35.011589 7.2397661
-4.183136 32.31147 -0.37318683
-3.3404074 33.586563 6.9351463
2.738471 39.143986 1.461854
-3.6226771 34.972713 6.3325963
-13.633585 31.741653 1.0101844
2.6121736 39.027752 8.8579912
-8.6304951 34.581005 2.6950793
5.0133491 38.615292 11.095366
-4.9927382 32.045033 11.903203
-5.3731222 31.729504 15.687841
0.93152595 37.492306 -1.4413704
-7.7438946 32.096077 11.822961
4.3464537 39.484241 0.13763738
2.3610373 38.798988 2.8690338
-7.0180635 30.22578 -2.6047084
-2.6149035 34.250278 12.495523
0.60013008 36.225079 -5.0163002
0.0017485619 36.64138 6.6699352
-3.6026409 33.346874 6.1185169
-10.807145 31.454165 -2.9109564
-6.3134975 34.522255 2.589746
-13.359466 30.913898 6.6359863
1.6466409 38.145969 0.118569
8.0976171 41.185375 2.7606075
-1.0606371 35.671318 -1.5357323
-9.2454033 28.189243 5.3975396
-12.326008 32.612541 -0.7271595
-8.0928545 31.641773 -2.5745981
-9.9436474 32.86475 9.7237167
-1.8150665 34.980762 2.7179935
-0.28444958 36.380104 9.7491827
-12.520649 31.755363 1.4775791
-4.1714091 33.125835 1.0763103
3.1161656 39.488037 6.0012546
5.0763836 39.454983 9.6941519
2.7480433 38.577209 10.451774
-3.1211495 33.787449 12.040144
-3.371187 33.559299 -2.6623733
-2.461602 34.860432 4.1637182
-7.4177418 29.859774 1.8415644
-5.9762907 33.399361 9.7741976
7.1734495 38.385551 -1.8876665
-8.8974628 31.86689 11.272871
-11.577656 33.514744 4.0513763
-13.198721 31.072977 6.5287976
-8.5964508 32.222359 10.721012
-7.5960226 33.185917 1.1832523
-8.6161222 34.86245 7.4742117
-1.4247097 35.338524 -1.2050388
5.5725861 41.432228 5.5461402
-2.9425693 33.549217 1.829887
-11.642274 32.614494 5.0050688
-6.6959734 31.905285 -1.0961505
-11.27883 32.965164 8.4140463
-11.687851 32.569405 5.0296888
-11.203229 33.047283 5.4040108
-12.794415 31.485964 1.0413189
-9.2936726 31.810514 12.27187
-0.2526145 36.409687 2.2758455
0.95042467 37.508575 7.6800408
-5.0042396 34.234245 3.0491686
4.2947946 40.565331 5.0977049
-7.7186451 30.052952 -4.3931236
-3.1043301 35.047138 7.1838832
-8.439806 34.510639 7.1685205
-5.2230234 35.179916 5.7794213
-2.8849306 35.704601 5.0136223
1.162467 37.702305 5.2753782
-2.9818194 33.915215 -4.0355897
-8.7877216 32.822281 10.681369
-6.7781944 33.73439 2.1594725
7.7866664 41.424255 6.2004261
-7.0331268 32.38615 11.366968
-8.8597755 28.541714 1.8888277
-6.1078968 31.057741 -0.8540467
-10.191681 27.324318 4.82727
7.9086704 41.420197 4.9777551
7.4434261 37.508327 -3.3436878
-3.0452068 33.856384 4.5020504
5.711513 40.823986 7.2340851
0.62769794 36.778122 -3.6326625
-2.6160226 34.989571 6.2875953
2.0034659 37.564095 12.416245
0.71479332 37.293118 4.2737279
-2.5314806 34.326855 0.47665226
-5.8970046 31.250513 -3.5458336
-5.7007556 35.175022 4.911685
-10.238133 34.004074 4.0730295
-9.1509733 33.242458 0.29523587
-13.236429 32.070717 7.6224852
-0.96418333 35.758492 4.8246055
-6.2906694 34.367809 8.2517929
-4.7052073 32.339096 5.3609085
-13.127508 32.163593 8.257926
2.5061586 38.930477 4.9038434
-5.3308764 31.767826 13.824568
-5.9296021 31.220295 0.11189103
-13.30649 30.963207 7.8641748
-5.9045753 35.119476 3.6604948
-5.4057884 31.699261 13.229387
-7.7786045 29.529934 7.0695748
-2.4742875 34.379131 -5.996799
-2.0541549 34.76223 4.1153412
-2.8915188 33.997925 15.697981
-4.0953364 32.896538 7.3195434
-10.711687 32.358418 -1.2913388
-12.26528 31.989952 8.662034
-5.4050674 33.85643 8.1841631
-4.1714253 33.299519 1.3854488
3.5095372 39.847858 7.7498007
-8.2994928 31.677174 -1.5021697
-2.750349 35.121704 5.9348249
-8.1377411 33.611591 1.9409001
-6.6713161 35.181419 6.9727917
1.8614895 36.808453 -4.5232344
1.9759796 38.446346 9.7096405
-12.434813 31.839195 1.8729321
-7.0725574 33.66938 8.4745512
-15.204073 29.096691 4.5059252
-10.740742 34.238152 4.5594201
-3.6230936 33.329037 -2.6941676
6.8659225 41.126362 6.909905
-7.9641876 29.360306 4.891469
-10.03279 33.839088 1.3622947
-0.3229382 36.345627 0.69439292
-10.471104 31.694452 11.540577
-1.8332716 34.965073 -3.3608966
1.3547244 37.878643 10.868387
1.7462873 38.236843 3.0779932
4.060111 36.901608 -4.3617396
-5.3914165 34.441624 2.4451818
0.6778028 37.026726 -3.0422626
-10.771139 33.083977 9.4409294
-4.7814064 35.704601 5.0915399
-4.7509866 34.721066 3.9156618
-3.9095776 35.048775 6.1295333
-11.58619 32.663326 7.6722383
-12.055847 32.196369 8.8643208
-8.1362782 29.203012 3.3456228
-13.243234 32.076588 2.3558941
-12.653853 32.579788 5.5096941
-4.3554101 32.234982 -0.5093264
-5.947423 35.165722 5.8173194
-10.587437 31.691427 11.545271
8.6502438 41.414757 3.2742453
-8.1313248 31.711338 -2.4498749
-1.200933 35.543079 -1.7510959
4.7489762 40.981743 3.7606633
-9.5076599 33.379986 1.5286696
-11.775515 32.472012 9.4007874
-9.1702948 28.257893 8.4032803
-9.2742882 28.162842 0.38275105
0.21921492 36.840282 2.9430635
-2.695164 34.177235 -1.1127017
-4.9419136 32.123154 12.414349
-10.974838 33.125782 9.1090221
-4.802783 35.403221 6.6090899
-8.2194309 29.127007 3.3748446
-7.5764256 33.141098 0.11350906
-4.8793273 34.224319 8.477356
-5.6682291 31.459742 15.648891
10.622367 40.637497 7.7260218
-13.739458 31.631741 9.1839504
-5.6877394 31.441513 13.139028
3.0265028 38.884716 -0.28239655
-8.5635195 34.715569 6.8503723
-9.4187489 33.293015 1.3738766
-8.5305176 34.196873 7.6556349
-1.6718628 35.652885 5.9470367
8.5688286 41.420864 5.219902
5.9165845 37.92794 -2.6515207
-9.7977085 35.055538 4.1239691
-6.5629535 31.812096 -2.2692261
-5.3536668 31.746387 8.2179108
-6.4420156 33.224236 10.049492
-2.3616004 35.704601 5.3683615
-4.9670539 32.100555 -4.6824646
-5.5207443 33.644112 9.389451
-11.013944 32.851624 10.653713
-9.6326456 32.248528 11.58331
0.63651705 37.222038 10.27702
-13.436707 31.893965 9.1289616
-5.9648175 31.865601 -2.173301
-8.6772423 31.810839 -1.2642561
0.36041224 36.96954 9.5470257
-4.9325342 34.725773 2.9546273
-12.258127 32.41243 -1.2156034
-5.5488815 31.568722 -7.7155366
-6.4319582 32.701702 -0.67427355
7.6469073 38.537754 -1.6336415
-8.9374218 28.470747 10.590233
-5.1066861 31.972925 -1.5369273
-1.8900142 34.913368 15.51265
5.7304621 40.833542 7.225914
-7.4582047 29.822788 -0.10348441
-8.0806046 31.183863 -2.3802104
-7.1226225 31.240187 -3.2945917
-7.582345 29.709988 -4.3135748
-5.4636426 31.646486 13.938402
7.7867589 40.494743 7.9645772
-5.7028084 31.428024 -5.9383321
-0.17597926 36.479961 -0.89075804
-5.9994531 31.1563 0.18522739
-9.7637119 32.878822 -0.35672164
-2.6504612 34.217327 9.6393328
4.0632329 38.217213 11.756534
-10.91118 34.083858 8.2180805
-10.422947 34.508656 6.6297741
-7.0032988 33.455673 8.8063297
-10.3397 34.580444 7.2114573
-9.2920227 35.491783 4.8146372
-7.9125366 29.408165 -3.3135352
-6.0567002 31.103798 6.919764
-0.35186934 36.318161 7.3993254
-6.6792836 30.53545 -3.0782762
-7.1692595 32.919338 -0.284078
-9.7849979 27.696037 3.3192222
-7.1274009 35.704601 5.5087385
-6.2837982 30.896997 15.292763
-4.6833153 34.951149 6.3901806
-8.5226812 31.523916 -1.7749506
9.9986563 40.579372 7.8231239
-11.564283 32.680939 9.6382446
-4.9616885 32.105461 -4.9864206
5.8705854 36.858337 -4.4280114
-4.6753006 34.687634 2.8862514
-5.3533082 35.064468 7.1566429
-3.1408768 33.769825 -5.3056765
-2.5429578 34.315453 7.3660479
3.4173274 39.483829 0.91435742
-4.8793898 34.914967 4.2897897
-10.507046 34.435028 7.4310017
5.8877769 41.16333 3.1183102
-8.5248003 28.847891 6.2434492
-2.090117 34.730293 1.1713387
-10.421535 27.114227 4.2006764
-6.4136858 33.085693 9.3807135
-15.084632 30.475811 5.3193254
-9.6334114 32.093567 -0.76103055
-12.762572 32.489906 3.6104677
4.5066304 39.574417 9.4198637
2.2374163 38.319046 -1.0606766
3.8274105 37.597961 -3.2059832
2.6952267 38.607811 10.327078
-7.0134358 32.584919 11.054502
-6.9348836 31.172152 -3.4165671
6.3074794 40.233646 8.3987608
-3.4493551 35.186272 3.7802498
-4.7979164 32.225899 10.715516
-8.6115389 32.723438 10.83675
2.9508452 39.338116 2.9667816
-4.6294594 34.628555 3.7509961
-4.3772607 33.715336 8.4032059
-10.823351 33.416626 8.0721588
-7.6157579 34.582611 2.6979589
-12.088307 32.176678 3.844487
-13.354812 31.983532 0.77030015
-7.146131 35.179855 5.2683616
3.5030808 39.472485 0.81371641
-4.5254102 32.504253 -1.118469
-3.8044498 32.671318 10.024014
-5.5294538 35.704601 5.4653955
1.1182895 37.663021 0.89966625
-7.4945059 29.789606 8.6788063
-5.9729567 31.180344 4.9967823
-11.577058 32.680874 4.2155166
-8.6080732 28.771778 1.7754278
4.438098 38.983139 -0.90365863
5.1174912 40.933044 3.1773567
-11.282839 32.973293 3.5127015
-12.067886 33.097584 0.80606818
-5.6625557 31.464058 8.8076124
-6.4913702 32.279251 -0.43052983
-4.0480361 33.931339 2.510025
-2.4395995 33.943771 2.5321512
-2.8712664 34.015366 3.3973522
-10.764012 32.929035 -0.27289373
0.3616631 36.970592 8.9727821
-6.2494574 32.792427 10.728293
-8.4115973 28.951363 2.3653667
-13.609064 30.67359 4.0849142
4.3398671 38.718235 10.92128
-12.729246 32.518631 3.6686928
9.3516436 40.181713 8.4871998
-8.4240198 28.940006 7.016705
4.119338 39.43013 0.19010663
-8.1742859 34.180092 7.6816883
-5.1812539 34.349121 3.2536428
-8.2420979 31.120663 12.43137
-13.70945 30.579584 1.9863617
2.9199014 39.092659 0.33577323
-14.221427 30.069086 3.8789067
-12.002712 32.891933 10.408258
-1.9781051 35.602615 6.0803418
-2.9534304 34.596157 7.0357518
-3.9259663 33.05175 11.913293
-9.2824574 31.53129 11.793879
-9.4237223 28.026255 6.5383668
-8.661664 35.679043 4.8317952
-9.251955 34.749519 4.0209332
-7.7192073 29.584225 3.9149728
2.3764105 38.812065 7.7007165
0.9161371 37.477322 8.2405987
-8.9442444 33.737408 2.1648486
-12.97326 31.312717 -0.35733998
-5.9781499 31.763079 -2.3571079
0.03111136 36.668236 7.66926
-5.4429493 32.941547 9.604497
6.2790961 39.579853 0.093013883
-9.7341595 31.450682 -2.9171972
-3.1723819 33.741024 -3.6504264
-8.8075686 33.251869 0.31210065
-1.4716619 35.29464 4.5749807
-5.0809779 31.995636 4.3164177
-6.3766918 33.665348 8.4808102
-4.7537107 32.294765 4.9322634
-3.9063849 33.070091 -6.0465636
0.31181273 36.924797 7.5256672
-7.5965767 31.659393 -1.533815
-1.2581413 35.49078 -3.5198593
-9.7635469 34.473579 3.8226559
3.9824977 40.279957 6.2800317
-7.9072328 30.265047 13.759691
0.92117167 37.482521 2.817831
-13.996009 31.429226 0.41252327
-2.2907593 34.547073 15.671551
-7.5797625 30.481239 -3.6308136
-8.3084993 32.110367 -0.73112386
1.8949597 37.694397 -2.3628621
-2.047277 35.389515 4.1446328
-7.743012 29.562649 12.153701
3.4192407 38.292423 -2.0539117
-5.338315 31.761198 -3.0186055
-3.1783407 33.734695 4.2655196
3.5376892 39.873631 4.2797542
-6.2232103 30.951603 9.1577291
6.8014269 41.41452 3.1880779
-10.465129 31.010702 -2.6884217
-3.308357 35.01202 3.4678378
-11.025201 33.216423 8.5911856
-12.031524 32.225918 6.6267319
5.2385931 36.766911 -4.5818005
-0.20388055 36.454456 0.91185582
-10.650015 33.330521 1.4775655
-5.8558187 31.516682 -2.7988691
-3.8044696 35.704605 5.7625384
-6.8636665 30.366213 0.82363635
-7.9583807 29.365616 3.5073686
-9.3419991 31.080299 -2.5645463
6.601325 37.324898 -3.6509159
-9.7718973 27.708014 7.7998734
-4.9438138 32.121006 9.6635866
-2.2737584 35.057503 4.6307106
-1.7898726 35.003788 2.7148106
-4.4380007 32.583332 7.0766153
-0.7268548 35.976418 -0.49667719
-5.4105859 33.653072 1.0314181
-13.049564 32.23291 7.4347591
-3.7207174 33.239803 -7.4730225
-12.70326 31.564369 5.7664762
4.8764911 39.140385 10.218538
1.339958 37.864536 6.8279619
-6.5907412 35.704601 5.3773389
-3.8687651 34.756428 7.6408834
-5.3979111 34.577408 2.6886325
-4.6683745 32.372768 2.0887306
-9.3183384 30.991329 -2.7229071
-11.728102 32.278835 10.526842
-3.6715391 33.285011 16.340485
-6.157043 31.012819 -7.1652317
-2.1622279 34.927212 7.372407
-2.2411113 34.592075 13.228292
-10.524459 31.647545 12.528057
-10.460932 30.971693 -2.7578564
0.41811657 37.022133 2.9958887
-4.0525231 33.685066 1.0887725
-5.1288195 31.952267 12.156036
-7.4323645 33.786396 9.1657743
-2.4814172 34.37262 -0.69908196
-1.4465698 35.317577 5.1445827
0.11491084 36.744812 7.0459585
-10.458074 33.782181 5.9356909
-6.0943604 31.070267 15.967405
-7.1466179 30.107588 9.8588085
-2.4166625 34.431427 12.083364
-8.5148144 34.381813 3.3118241
-10.49621 30.922384 -2.8456185
6.1125021 41.140118 2.8711565
-4.1317253 32.864113 -4.8159194
-2.2123642 35.353973 4.0809193
-7.3045988 30.79011 -3.0810547
7.5097895 41.418495 4.4372849
-0.55842614 36.130379 -1.3282267
-9.0749378 28.345051 5.2831011
3.2505178 39.610893 6.4910951
-4.712079 32.332817 3.9499583
5.6253605 38.786301 10.81204
3.6090546 39.500671 0.7967
3.2043059 39.568596 5.1657438
-7.0343275 34.694725 2.8989611
3.1169872 39.489029 7.757225
-5.7887383 31.348724 6.5977669
-9.964797 33.998161 8.8386097
-4.4768262 32.547844 6.5581217
-11.400455 32.848221 7.1097488
0.072891951 36.707081 11.866831
-14.755829 29.53923 4.6365247
-6.5609279 33.42646 9.7315893
7.435955 40.906036 2.2970345
-0.73600864 35.967842 12.96815
5.3123708 41.100601 3.4404221
-2.5381029 35.179749 5.0738821
-1.3791099 35.380169 14.151266
8.3637314 41.422337 5.6543956
-9.8489628 27.637573 5.0979772
-7.6700597 31.44099 11.934071
0.21500444 36.836861 2.6459918
-6.4561381 30.738703 4.6027627
-14.209486 30.078382 4.8937335
-1.9698297 35.5322 4.4829931
2.710393 39.017742 9.2838783
-2.8310866 34.425941 2.4170666
-7.8756347 29.441244 9.2441807
0.96510851 37.522999 0.5775491
0.80171299 37.372566 6.8068857
4.7667847 40.708961 2.9009581
1.3746729 37.896263 4.8566103
-9.066328 33.069023 0.97518933
-6.1033239 34.424496 7.3022532
-7.1070986 30.274815 -3.998229
-9.9054441 33.165714 9.2564783
-6.3362083 32.728935 9.9345713
-12.450693 32.750866 7.6611938
-4.3592863 32.656406 16.74194
-3.0388086 33.86319 15.055422
-11.08886 33.933395 6.0717592
-5.8141203 32.793839 9.833807
-2.8410203 34.043915 0.88493013
-10.944132 33.300335 6.5946002
6.6202965 38.578583 -1.5687945
-2.8941174 33.995377 -6.2943878
-10.6505 31.407854 -2.9939852
-3.8905966 33.084526 -7.1957798
-8.8766251 28.526318 0.66894758
2.1581583 36.586819 -4.8903894
-4.6740942 35.601406 4.647377
-4.3504195 32.663383 8.2610779
9.9414196 41.422588 5.8270378
-11.014251 31.939293 -2.0439684
-12.147632 32.127373 0.0717448
-6.1582184 31.011578 13.947481
-9.2049141 30.916027 12.74906
-6.3296862 34.970314 6.3390074
-7.8797216 31.030401 -3.6707041
-5.9743834 31.179039 9.2356014
4.432611 40.418041 7.1701975
-5.1936646 32.096138 11.822868
1.7249668 38.216919 3.3677964
-4.93609 35.20108 3.8067989
-7.1146493 30.137495 -3.7583976
-7.0572729 30.189857 14.594409
-6.4162903 30.775848 -2.6048784
-10.175459 31.169849 12.355004
-8.8123732 28.585041 4.8127241
-9.9776888 34.263248 3.3194027
-13.733289 31.656832 0.34072506
-5.9954166 31.160725 16.058556
-12.804996 31.460094 7.291254
-4.5679865 32.465332 -1.6501842
-10.28653 27.237627 3.2600267
-6.4692144 34.069344 8.7209797
-3.2053123 35.226849 6.9013767
-1.4256231 35.337692 -3.681159
8.2515535 41.416237 3.7976177
-7.6477895 29.649502 10.681453
-0.77329862 35.933357 10.424736
-11.631611 33.175156 0.22829938
-2.5209367 34.336494 -3.4013264
-8.504529 31.891451 12.144641
-5.1035037 33.361607 0.50885302
-7.6216354 32.611958 11.011995
-6.8550582 35.179806 5.0774646
-8.9177227 28.48875 10.508582
-2.4672616 34.385803 16.122004
-9.7522526 31.609253 11.672843
1.8405755 37.152279 -3.716718
-7.7694869 32.07576 -0.79272389
-11.845332 32.414284 4.8388414
0.307652 36.920982 5.9572196
-5.5988879 33.427223 9.7304001
-4.8939037 33.088123 1.0091803
-11.368711 33.696018 3.8793297
-7.3066463 29.961319 10.244606
-0.40210128 36.272415 8.8205853
-11.76901 33.334457 9.4561424
-9.333848 32.860138 9.7308788
4.7064171 39.899426 8.7442579
-5.5511785 31.907162 12.119942
-10.202783 34.342922 2.2598815
-10.650484 31.773092 11.41849
-3.7261052 33.234879 -3.522922
-3.3764763 33.554062 12.068364
5.9307871 41.427437 4.5390925
-9.49298 27.96295 0.53098744
-8.670392 35.692543 4.8638582
-3.8593554 34.660332 7.7919445
-6.541913 31.097811 -2.5333776
-3.9633574 34.114212 1.8581724
-1.496962 35.576626 6.1492648
-7.4522943 35.17981 5.0553427
-13.158104 32.140984 6.5205731
7.8459396 40.145905 1.0354469
1.4880387 38.000999 -1.1724211
-10.36706 32.824512 9.8110991
-12.298187 31.955017 9.6436796
-9.2696362 33.644154 9.3893785
-6.6103053 34.839676 6.6576991
5.0652022 41.269764 4.9901147
-12.075819 32.182693 6.4091883
-6.7581043 30.68322 14.04398
-3.8586287 33.113743 -0.40787709
-6.5140815 30.676739 14.054171
1.1783974 37.716999 7.9114838
-5.9004583 35.587769 4.6149859
-11.288321 33.769817 1.9971462
-9.573226 27.889605 8.5629368
-2.377131 35.704601 4.9930263
-4.3394642 32.862328 9.7274809
-4.4591813 33.228531 10.042742
7.8019071 41.423252 5.8975444
-7.3534746 30.344307 13.636636
9.3379164 41.418362 4.5095224
-11.779999 32.473331 7.0698633
4.5165024 37.186447 -3.8872805
-3.9039557 33.072311 0.55826092
-12.337015 32.851036 6.875351
-9.0312071 32.905655 0.68440986
-12.944708 32.321033 8.6228161
-6.3484874 35.446747 4.2799988
-1.1502672 35.588406 3.1147499
-11.079697 33.164043 7.5473161
-13.769167 31.606691 8.8827848
-3.6682477 33.286911 5.8607817
-7.0793605 30.16975 -1.0631263
-13.833473 31.55616 6.5809078
-2.1922445 34.626068 6.9893236
-14.114348 30.171944 5.0687389
-7.2415342 34.063038 1.7664282
0.52173781 37.117725 1.9512107
-9.028451 28.387541 8.2141151
-6.1003089 31.633577 11.635081
-8.0400209 30.764065 13.91689
-12.349081 31.909042 7.8969908
-3.5718703 33.374996 8.7754717
-2.6986313 34.17408 14.646605
-4.7974448 32.255253 12.670155
3.1620486 38.927837 -0.2861774
-6.5452671 30.657238 2.5126445
-4.2639637 35.704601 5.1030416
-1.0111519 35.716553 -4.354722
-4.0822353 32.908512 3.4494486
0.38434404 36.991077 3.4652548
-5.7363353 31.39662 6.6177979
6.383966 41.09761 6.9570875
-9.5482531 35.270962 4.3652086
-10.153218 34.748749 3.6836009
-1.0305464 35.698586 12.838842
-5.3812728 34.069462 8.7207909
-8.4269562 33.912128 2.4758282
-1.5251107 35.246269 11.330883
-11.531541 32.724865 4.6138897
-3.1176097 34.374699 3.2991555
-14.152657 30.13084 6.3893499
-2.241662 34.59177 -5.4033542
-10.183401 27.33189 1.8083972
-2.4771538 34.381084 8.2309208
-6.7167449 31.19529 -3.3750839
-9.953618 34.280476 5.9793444
4.9836688 37.576588 -3.2379069
-5.9532537 32.426857 10.403537
