# .PCD v0.7 - Point Cloud Data file format
VERSION 0.7
FIELDS x y z
SIZE 4 4 4
TYPE F F F
COUNT 1 1 1
WIDTH 1596
HEIGHT 1
VIEWPOINT 0 0 0 1 0 0 0
POINTS 1596
DATA ascii
55.434898 -1.6385646 18.789421
62.2281 17.258575 19.735363
55.434898 0.27742434 7.3461947
61.122398 15.430436 20.328941
55.434898 14.506422 24.709066
59.339119 15.230215 7.2643504
55.434898 10.310964 4.7060146
55.434898 14.279882 20.229263
55.278595 6.4434848 25.954191
55.691505 6.6793499 27.59898
55.434898 11.325058 7.6029868
55.434898 -4.1976318 20.135368
55.291176 -1.7997274 23.959026
61.434158 16.3937 11.740814
59.361374 15.230276 23.075834
55.434898 15.176066 12.375025
55.434898 -3.0774012 18.673376
57.14093 15.22407 16.937941
55.278595 4.7869167 24.311409
55.434898 11.235355 22.709236
55.434898 4.3422389 17.520832
55.278595 0.65612286 23.085297
55.434898 13.555679 17.947107
55.278603 0.66342652 25.064116
55.434902 9.5928011 11.724905
61.520229 18.085369 8.9095707
55.434898 10.493484 11.529952
55.434898 9.9206028 17.350885
55.434898 10.555956 8.4046783
59.842773 15.231623 22.371613
55.278599 9.1467533 25.152615
55.434898 -3.3154583 17.262249
55.434898 11.029339 4.6972752
55.434898 7.4432383 10.169592
60.524509 15.233528 22.897823
60.895382 18.710228 14.053175
55.434898 -0.65218568 9.6713638
55.434898 1.9554361 17.571653
55.691505 5.8823676 19.821125
55.691502 3.2207022 20.19557
55.434898 5.8233752 5.4596777
57.723392 15.225698 9.8913689
61.955112 16.508331 18.520206
55.434898 0.69185495 9.9244051
61.140614 16.329107 8.8695202
61.849861 16.485172 16.964449
55.434898 10.910093 10.317377
55.278599 7.7463617 25.742992
55.434898 -2.6884017 18.308352
55.434898 3.4184277 2.9673376
55.278603 6.8922663 26.327614
55.434898 3.4984972 9.6298094
55.434898 3.041966 7.2955108
56.125496 15.221231 19.868393
55.434898 2.9489737 17.814629
55.434898 -2.489398 9.0961971
59.491474 15.23064 6.4008398
55.434898 -6.7877545 13.670833
60.964184 18.64143 11.469888
55.434898 3.20981 18.59108
55.434898 -4.8931522 15.1318
58.496696 15.227859 11.157379
55.434898 -4.7726216 19.129105
55.434895 11.358361 12.409236
56.473915 15.222204 22.661182
61.122398 15.823299 14.41398
55.434898 1.3013445 13.47843
60.535797 15.233561 7.9018517
55.434898 4.9512186 28.733831
55.691502 4.5573244 27.580759
55.434898 11.161596 15.84142
55.434898 10.289062 12.647319
55.538948 10.868127 26.472878
55.434898 15.14587 10.148841
55.434898 14.647015 9.4800396
60.492538 15.23344 6.690402
55.278595 2.4550502 26.046648
55.434898 11.18598 11.533451
59.500393 15.230666 14.222396
55.278599 9.3534689 26.592985
56.009567 15.220907 23.142328
55.434898 0.98848677 12.404161
55.434898 12.037933 12.797764
60.926373 18.679243 14.632822
55.434898 5.8574471 3.898603
55.673912 15.219969 6.9005427
55.891232 15.220577 9.7948408
55.278595 8.2135601 24.902538
60.291969 15.232878 19.02203
55.278603 5.6850915 26.932465
56.875832 15.22333 22.779615
62.228096 16.693815 9.4513073
55.278603 0.96697092 20.500517
55.434898 2.9416039 15.02395
55.434898 11.215125 5.8958874
58.754757 15.228582 20.620613
61.122398 16.143967 6.9640274
55.434898 13.065216 25.75144
55.434898 10.026817 7.4718537
55.691502 7.2031355 27.193943
62.176464 17.429226 8.1063061
55.434898 13.724313 6.8211675
55.434898 6.3287516 8.3458691
55.278599 4.4456415 23.560581
55.434898 4.2012753 15.257893
55.434898 10.895508 11.512817
55.434895 11.483909 20.380295
55.278595 -0.75050962 22.775387
55.434898 -1.2125133 12.889292
55.434898 8.7544613 13.372629
55.278599 8.6606569 20.725054
55.434898 12.132687 7.2721248
59.122078 20.483412 22.646862
55.434898 1.0510845 5.6686659
61.41684 18.188805 22.356895
55.434898 -6.6360698 17.853569
60.860756 18.744858 23.330696
55.278603 8.7719288 23.495398
55.660675 15.219931 9.1639671
61.770168 17.835499 12.863598
55.434898 9.1542025 12.248577
61.297798 18.307838 17.495972
60.828957 18.776648 17.536636
55.691502 4.5096726 27.581793
59.245804 15.229954 21.150906
61.122398 15.784456 22.68454
55.831856 15.220409 14.460043
56.616844 15.222604 20.742352
58.236115 15.227131 13.877575
62.228096 16.738405 12.055945
55.278599 6.1518984 20.935608
60.467087 15.233368 20.045147
55.561783 15.219656 15.206126
55.278599 3.096772 21.999241
55.434898 12.519231 21.701004
55.434898 -6.5534792 17.586857
55.434895 11.625617 11.102813
55.434898 4.7216239 8.6350241
58.927254 15.229063 9.6697903
55.434898 4.896307 13.1838
55.434898 7.1596079 8.1438007
58.961437 15.229159 9.7016287
59.575104 15.230874 15.578618
55.434898 2.7628784 28.953241
55.278603 6.2905827 26.237181
55.278599 1.3525534 25.500544
55.434898 8.2054834 12.663042
55.434898 1.8063209 14.89382
55.434898 11.500656 10.832459
55.434898 4.4380097 28.99662
55.434898 4.7440701 3.6787829
55.434898 0.48409891 11.192403
62.176991 17.428705 19.195309
59.814045 15.231543 14.476241
55.434898 2.8373792 12.200329
55.434898 14.94056 16.000631
55.278595 2.663815 22.965214
55.434898 -3.3709354 17.312645
55.434898 7.5487919 10.003922
57.087147 15.223919 18.295578
55.434898 -1.0833955 7.3082957
55.434898 1.5704833 12.877155
55.434898 13.26092 16.234631
55.434898 5.3976707 13.918427
55.434898 -0.23827124 11.625839
56.241867 15.221556 22.904856
55.278599 -0.66288197 24.665884
55.278599 10.024009 25.529194
55.434898 10.949441 17.003653
55.434895 -3.0478809 20.593115
55.575916 -2.5284023 22.189829
55.434898 2.1923914 7.5255213
61.195595 16.341206 22.875534
60.314964 19.290607 17.877584
55.434898 14.132523 13.916789
55.434898 4.8238945 4.0344682
57.192719 15.224214 13.98756
55.278603 0.0096188784 25.042847
55.663136 8.109581 19.783054
55.453972 10.171345 21.502142
57.040863 15.223789 22.294825
55.434898 11.554665 6.0020008
55.434898 6.980289 18.302696
55.434898 -4.7184567 19.202009
55.434898 10.267557 10.650191
62.2281 16.889492 11.600105
58.68285 15.22838 7.551856
55.434898 13.479898 24.85358
55.434898 12.127091 18.86055
55.434898 4.1387234 3.0486445
55.278599 -1.0184886 20.878317
55.434898 10.906546 7.3222718
55.537823 2.8807611 27.774357
55.278603 -0.67668003 25.103262
61.371674 18.233969 14.932276
60.122917 19.482635 23.708912
61.80719 17.798481 16.94591
62.2281 16.640919 20.893694
58.844894 15.228834 18.090393
55.278599 4.3184137 20.86857
60.196499 15.232612 9.796855
59.81118 15.231535 7.1852717
55.434898 12.583845 26.126228
58.66217 15.228322 7.1724062
55.434898 13.75638 25.803314
61.122398 15.414079 8.1540346
55.434898 12.323936 12.534831
55.434898 12.976698 18.742401
55.434898 13.107173 11.585983
59.840206 15.231615 11.165082
55.434898 6.3660898 8.4086933
59.15963 15.229713 9.0714626
55.434898 12.557544 22.40765
55.434895 12.634027 24.331675
55.278603 9.3223705 23.367577
61.19619 18.409437 20.851797
55.434898 12.530794 9.3355207
55.434898 2.3323817 16.553787
57.41217 15.224828 23.051176
60.235348 19.370213 20.874073
55.434898 7.5379767 15.827584
55.434898 -3.4686003 16.16073
55.434895 12.136108 24.881832
55.434898 -2.0125005 12.47168
55.434898 11.348383 15.400483
55.434898 -3.0176668 10.232274
55.434898 13.539265 22.230034
55.434898 9.4447851 4.4592595
55.434898 2.5354338 17.414249
61.572063 16.424046 24.632565
55.434898 6.1240788 17.672812
55.434898 7.8189292 9.0549889
55.278603 3.2515945 24.593554
55.690456 15.220015 24.753635
56.172699 15.221363 18.470295
55.608067 -1.933959 22.952049
55.434898 14.098784 19.483465
55.434898 12.536902 14.478272
55.434898 0.20824981 15.772403
55.278599 0.11253428 22.421356
58.603607 15.228158 15.967992
55.278595 1.3839304 24.22316
55.434898 5.1688066 10.117147
55.434895 11.64315 23.505104
55.278599 -1.129769 23.957375
55.434898 12.586227 22.324413
56.088276 15.221127 7.2764277
55.434898 15.025522 17.413923
61.63237 17.973293 14.003099
55.278599 4.0744157 23.454777
55.434898 -7.5219994 16.610477
56.23428 15.221535 20.782742
55.278595 5.9930334 23.083923
55.278603 2.7464383 24.823639
61.325249 18.280386 17.073605
55.434898 9.8298645 14.007902
61.543812 18.061844 14.097932
56.396225 15.221988 9.9412193
55.434898 9.4827442 12.520168
59.420357 15.230441 16.179491
61.992844 17.612835 17.548384
62.2281 16.606926 12.487202
59.089207 15.229517 17.226137
55.434898 5.4075675 12.806811
55.434898 -0.40548348 8.5140448
55.434898 -3.0081239 20.490929
55.434898 11.858836 15.883789
55.434898 11.975298 26.078527
62.228104 16.850796 10.114211
55.278599 8.5724506 26.380997
55.434898 5.5229282 27.889278
55.434898 6.4668107 13.37422
55.434898 14.653642 16.944645
55.434898 12.277628 20.374317
55.434898 12.126255 10.380588
55.434898 8.9575272 13.056492
55.691498 4.956367 27.554731
55.434898 6.6706996 3.1201029
55.434898 6.3366237 4.8622241
60.449844 15.233319 17.063622
55.434898 0.4104619 10.429144
59.965805 15.231967 17.362
55.434898 -2.5249586 15.478997
55.434898 3.5190399 17.109407
55.434898 2.6321321 29.370876
55.434898 -4.1189938 11.08701
55.434898 2.4367337 2.7479067
61.122398 16.105114 11.033656
55.691502 9.4631863 20.144327
55.434898 1.6333719 28.109472
59.55159 15.230809 25.697239
61.011711 15.234891 19.457972
55.278599 9.276124 20.693502
55.434898 2.1078863 14.207924
55.442333 10.965043 25.010061
55.434898 11.8913 22.723553
55.434898 -6.1519928 14.097297
60.85553 15.234455 21.898315
61.45763 16.398865 17.06407
55.434898 7.2017307 14.823378
55.434898 10.82374 7.7068706
57.755966 15.225788 12.083618
57.916321 15.226237 15.104959
61.54364 18.062014 15.624654
61.890549 17.715128 20.890108
57.806984 15.225931 16.790163
62.228104 16.92688 11.885553
55.658718 -0.91640019 19.778629
55.434898 12.032531 8.1199541
55.434898 13.746078 11.163914
55.434898 12.987616 5.9315462
55.278599 6.9404764 24.849388
61.621231 17.984428 12.265533
55.278599 5.458025 24.357267
55.434898 12.398724 14.202129
55.434898 5.0655489 6.7456474
55.434898 7.5191703 19.150372
55.434898 12.795203 7.9177542
55.434898 11.617648 15.174228
58.593445 15.228129 15.074437
55.434898 -0.74359989 18.588408
55.434898 15.200062 6.7411008
55.434898 -2.037509 9.4017715
55.434898 4.2263784 29.192169
55.434898 13.043711 11.884508
55.434898 0.58852887 11.075097
55.434898 5.9817634 10.984467
55.278599 0.32167482 21.346209
60.415413 15.233224 20.596973
55.434898 15.153711 15.107894
55.278599 2.7003007 22.199663
60.462307 15.233355 8.8847761
55.434898 10.841155 15.105114
55.434898 5.3996773 12.070361
55.434898 9.3010845 13.772525
55.278595 6.1973877 24.889023
55.434898 1.8043565 14.065174
61.582359 16.426311 20.310356
55.434898 3.991508 6.358027
56.843491 15.223238 14.735342
55.434898 11.572941 17.048012
55.434898 6.7394695 6.421823
55.316216 1.3052038 20.413666
55.434898 9.535181 6.2347903
55.434898 -4.6050954 13.694088
55.434898 11.232112 18.69607
55.434898 1.833879 12.140385
55.815796 15.220366 12.194908
55.434898 3.74648 28.673807
60.386677 19.218903 22.242413
55.434898 1.5544106 12.945028
55.434898 -1.1299396 11.487345
55.434898 10.903192 16.376038
55.278599 8.6474104 24.453144
55.278599 5.518188 26.965965
55.434898 8.9076347 5.6047888
61.926098 16.501947 23.285793
55.434898 11.824627 15.224184
55.278599 -0.55299157 21.081234
55.434898 11.48134 22.119354
55.434898 8.2525721 12.563831
55.434898 6.1051683 13.036259
55.434898 10.78413 14.845785
55.434898 2.5827558 28.43644
60.575176 15.233669 13.691214
60.561565 15.233632 9.4332991
55.434898 4.4401293 18.637413
55.434898 14.118686 24.014626
55.434898 6.9232645 3.6726913
55.434898 11.052612 16.63945
55.526695 15.219557 17.736347
55.434898 11.987827 12.68417
60.435833 15.23328 20.05529
60.034893 15.232161 9.7910423
55.434898 13.895434 5.7610064
55.434898 0.65831137 12.892015
58.595161 15.228135 14.639009
56.738937 15.222946 18.387821
62.2281 16.606804 16.565817
55.434898 11.108749 16.35
55.434895 0.48029637 7.3730497
55.434898 -2.998517 22.186808
61.122398 15.466293 24.837444
55.434898 4.5450497 7.2385826
55.434898 5.7470579 4.2292786
55.278603 4.8569508 21.005774
55.434898 8.8319044 5.7762003
55.434898 -4.2073774 11.811558
59.467865 15.230576 12.264181
55.434902 9.6231031 9.3302822
61.122398 15.668976 17.50498
55.278603 1.7283211 25.805939
55.434898 5.1251426 17.020023
55.434898 6.5793366 18.17981
55.434898 7.1442013 13.185331
62.2281 16.802698 22.616224
55.434898 3.3355293 12.958054
55.434898 15.13103 6.3399801
55.573444 4.1732111 27.12709
59.437477 20.168034 22.072489
60.888023 15.234544 23.757704
55.434898 9.2971449 11.300951
55.278603 3.9403067 24.469461
55.434898 -0.71141577 11.146376
62.141815 17.463875 23.745874
55.434898 6.5542941 13.885023
55.434898 6.7843065 10.790491
55.278595 8.9758377 20.798214
61.245731 18.359903 23.789528
61.122398 15.904521 13.474419
55.278603 2.6825297 22.585543
61.169903 18.435644 10.244289
55.434898 11.693137 10.908281
55.434898 9.6778641 16.137821
59.658672 15.231108 10.282531
55.434898 14.629135 23.892345
55.434898 0.77378678 6.8022385
55.434898 11.703045 7.0703778
55.434898 7.8971987 12.485282
55.434898 1.4972708 8.2048502
55.434898 11.290216 7.6669874
55.278595 5.6174636 26.420712
55.278599 1.7364939 24.571522
55.434898 -3.170043 18.801081
55.434898 -6.7823877 15.276567
55.434898 -0.47228104 9.4580755
55.434898 8.039526 6.8478928
61.896812 17.708838 10.304622
55.691498 -0.15707827 19.992294
55.691502 -0.59480631 20.036526
56.693092 15.222817 11.455568
55.434898 12.209807 5.6878309
56.501816 15.222282 19.04907
57.207951 15.224257 20.563801
55.383389 0.83867657 27.046585
55.434898 0.760144 17.375196
55.434898 0.39349985 7.0611229
55.278599 -0.56633848 24.853212
55.434898 11.84664 13.438452
55.434898 11.393705 13.844069
55.434902 3.4684341 10.159802
55.434898 0.98431492 18.177391
55.434898 13.940311 15.203669
55.434898 1.2816484 12.565663
61.848965 16.484976 19.060772
55.434898 10.905796 6.2508397
59.513432 15.230702 17.553699
60.653908 15.233891 10.032622
55.434898 -5.6340423 16.23962
55.434898 8.407362 19.274609
55.434898 15.189716 24.156122
55.434898 -1.7903752 16.713488
55.434898 1.6615828 27.989231
61.785824 17.819845 20.011337
55.434898 -5.4202132 14.155005
55.434898 8.9947453 18.866085
55.434898 -0.88328111 11.263726
55.434898 4.0275173 15.416424
55.434898 3.7818325 6.0705109
55.434898 -0.5275116 11.510251
61.886532 16.49324 17.14328
55.434898 -6.0558577 15.348891
60.897995 15.234572 7.8440757
55.434898 8.3546972 10.371835
62.2281 17.335415 16.021227
55.623882 2.6305256 27.688028
55.434898 4.5534453 7.0511003
61.758694 17.846973 23.306324
60.821766 18.78384 19.693161
55.434898 8.5793829 6.6618347
55.434898 12.94855 24.83149
55.434902 -1.4329824 7.1577668
55.278599 7.1594973 22.404911
55.434898 12.315872 5.9175496
55.434898 -5.6911168 18.002939
55.278599 2.6649675 25.295071
55.434898 -0.13589072 15.948662
55.278599 1.6281147 26.791212
55.278599 4.3498898 21.815472
55.434898 -7.2173867 15.386099
55.434898 0.029469013 8.0618544
58.156197 15.226908 9.1140537
55.434898 4.8352823 3.0215759
60.565628 15.233644 22.139566
55.434898 -6.8026805 13.900783
55.434898 0.37881589 12.24892
55.434898 12.874005 16.06959
55.434898 5.7441292 2.6610241
59.511177 15.230695 18.734228
55.434898 13.422174 22.430119
55.434898 1.7495631 28.60935
60.32951 15.232983 18.788197
55.434898 4.3624649 7.8469114
55.434898 -0.10059953 14.273611
55.278595 6.3718791 26.611748
55.434898 14.71703 12.047729
62.228104 16.888447 11.988745
62.2281 17.29269 11.248518
55.278599 8.089201 24.806278
55.434898 1.292421 14.588631
61.280899 18.324738 11.357319
55.434898 3.8904934 9.1020441
60.152351 15.232489 23.480076
55.434898 12.135782 22.835335
55.434898 -7.5848684 15.153059
55.434898 7.7948618 18.096542
55.434898 4.4977322 12.087434
55.278603 6.5751128 24.3545
59.2435 15.229948 16.970991
55.529858 15.219566 20.610172
55.434898 5.64046 5.6339946
62.2281 16.56913 18.356794
57.559937 15.225242 24.935902
55.575409 10.831553 23.276426
58.632095 15.228238 11.300999
55.434898 11.875529 21.416561
55.278599 1.522831 23.27758
55.434898 14.709303 16.526527
55.434898 -0.47391653 18.279222
55.278603 8.2180357 23.484278
59.420845 15.230444 11.506973
55.434898 5.7335529 3.752398
55.434895 2.371531 11.928551
55.434898 4.0473995 14.201609
55.434898 11.97731 21.715916
55.434902 13.231777 25.56933
55.434898 4.5444126 5.7691536
56.682213 15.222787 24.372784
55.434895 -2.2828124 15.914329
55.533043 2.9092486 27.109978
55.434898 4.6556363 6.2066827
55.434898 -2.1398242 18.186697
55.434898 3.7522912 11.913471
55.434902 -3.7976382 9.7305899
55.434898 -5.1190972 15.658772
61.676826 17.928839 22.783983
55.434898 0.31225085 7.4572206
55.434898 6.7332158 15.323228
55.434898 9.2167273 10.077859
55.434898 8.1644382 12.760857
61.122398 15.559534 21.398438
55.691502 -2.10007 20.200665
55.434898 3.6147311 13.542715
60.507408 15.23348 24.648239
55.434898 14.549442 13.447385
55.434898 1.6800187 9.9855232
55.434898 -1.1958789 14.72756
55.278599 6.3100033 26.251774
55.434898 13.335969 7.0737433
55.434898 0.92931366 11.490856
55.434898 5.9704361 8.0556145
55.434898 3.4841328 1.7363242
55.434898 9.3717842 13.166553
55.434898 6.9942279 9.5468607
55.278599 7.3925319 21.901407
55.434898 -0.49522483 17.050903
61.461624 16.399744 19.649982
59.27581 15.230038 22.550842
55.691505 10.494416 22.462986
60.51804 15.23351 13.288337
57.420883 15.224852 21.802504
61.690811 16.450174 13.81527
55.434898 -0.95835149 11.815414
55.434898 5.5494366 17.404198
55.434898 15.169925 15.125799
55.434898 8.3757248 9.3087988
58.942841 15.229107 15.399834
55.434898 -4.9399738 20.177246
55.434898 9.4545069 6.8286667
55.434898 14.739804 23.200275
55.434902 -5.5580797 17.398872
55.278599 4.813005 26.290842
55.278595 9.1515198 21.551729
61.096794 18.508829 20.132467
55.434898 10.948427 17.376244
55.434898 -5.6155148 16.907942
55.434898 13.652327 6.2050924
55.580231 0.79943585 27.129965
55.278595 9.4395733 22.129726
55.434898 10.360413 4.6808901
55.434898 7.6043215 8.261034
55.434898 -3.7412181 11.505928
55.434898 -2.705621 21.621367
55.434898 1.5368507 8.6865845
55.278595 3.5944092 22.916115
55.278599 8.0653601 25.137997
55.434898 -0.10901213 6.1309924
56.263824 15.221618 8.1455727
55.434898 4.4157124 9.2909908
55.434898 2.7906353 8.1690865
55.434898 14.896491 8.9964771
55.434898 7.7483134 16.234951
55.278595 0.05984211 24.854919
55.434898 6.3222909 18.757313
61.122398 16.138332 18.642126
62.228096 16.846838 7.2780838
55.278603 7.6902957 25.515682
59.566719 20.038805 22.193676
55.278599 5.262877 20.927498
55.434898 -2.4297867 14.695479
56.117039 15.221208 11.516676
55.434898 4.5181847 17.516596
55.434898 3.2939103 8.1062593
55.434898 5.5943308 3.9841695
55.434898 12.662025 9.2327776
55.434898 -3.1727219 20.887383
55.434898 4.6423068 14.135498
61.863018 17.742657 18.507168
55.434898 -4.2374492 17.225096
58.950249 15.229127 16.487701
62.228096 16.91787 13.404419
55.434898 0.3299849 13.21348
55.434898 13.184087 17.968758
55.434898 -1.9991999 18.70186
55.434898 11.425521 14.256276
60.523632 15.233526 13.921141
59.362736 15.230282 15.234444
60.580853 19.024736 18.053139
55.64135 15.219878 25.188904
55.434898 2.5966682 12.099102
55.278599 7.8238573 24.188374
55.434898 3.4949868 4.1031952
62.228096 16.795742 16.740402
61.375736 16.380844 10.860382
55.278599 2.8939075 20.90029
55.434898 5.6318545 5.3991218
55.278603 0.57462335 21.325006
55.434898 11.188033 8.3964643
55.434898 -2.7113879 17.332363
55.434898 12.125822 17.964439
55.434898 -2.9867113 21.287117
62.104565 16.541216 21.314716
55.278599 0.10998368 26.082714
62.2281 16.58503 8.5929718
55.721489 15.220101 15.718493
55.434898 3.1470394 18.51058
59.589752 20.015774 21.302561
55.434898 -6.1569695 14.47879
55.434898 5.9987831 16.4226
55.434898 12.717075 10.528715
56.898933 15.223392 19.889519
57.339485 15.224625 20.228943
60.487217 15.233425 12.563253
55.685352 4.7798157 27.174496
55.278599 7.7983012 26.028381
55.434898 6.6058168 8.9691362
55.434898 1.8217881 28.380413
55.278595 3.5936375 21.867226
55.434898 10.285367 6.3522863
61.089302 18.516321 22.661741
55.434898 3.6037064 17.978329
55.434898 14.202155 15.966845
55.434902 11.486442 13.056122
58.655197 15.228303 23.214582
55.278603 3.3415842 21.296448
55.278599 9.0837669 23.739769
55.888817 15.22057 10.758564
60.660118 15.233908 16.569265
55.434898 13.119165 11.753193
59.000854 20.60463 23.590403
59.505981 15.230682 9.3392982
55.434898 13.587922 24.681589
55.434898 11.816067 11.064104
55.691498 10.532644 23.691074
55.434898 11.551134 18.003767
55.434898 4.5681701 5.3761992
62.2006 16.562349 20.007034
60.503899 19.101685 14.951105
61.099396 18.506226 23.700659
55.278595 0.30018055 25.813005
55.434898 -1.9599445 13.709941
55.434898 4.0436997 14.58254
55.278599 -0.79168403 24.311153
55.278603 0.37250787 23.06933
55.434898 -0.59730399 7.2684565
55.434898 5.6598525 3.6216965
55.434902 12.459209 25.112381
55.678406 0.92320287 27.171549
56.676273 15.222771 12.543679
55.434902 11.856695 24.06885
55.278595 1.8931119 26.386892
58.238792 15.227139 14.087582
55.278599 -0.058398724 25.333872
55.278603 -0.13415235 23.842743
55.552059 5.6667876 27.760077
55.434898 15.191751 13.036546
55.434898 11.52613 15.521878
61.998222 16.517817 12.291698
55.434898 -1.87833 17.52223
55.434898 -3.7716775 11.956826
55.434898 14.609944 7.0417948
55.434898 -4.086113 16.107357
59.474716 15.230593 7.9269156
55.434898 1.2621129 11.120024
55.434898 14.079499 25.096161
57.512798 15.22511 21.174929
55.353771 9.2701588 20.397757
55.434898 2.3918388 17.393433
55.434898 5.5971236 13.998884
55.434898 1.4504426 7.083499
59.31501 20.290497 23.257957
56.242966 15.22156 17.142326
55.434898 -0.10279799 12.969923
57.395851 15.224781 8.8285007
55.278603 5.8686943 25.347443
57.830559 15.225998 11.89627
55.434898 1.2439216 6.4478345
55.434898 -3.645925 11.311214
59.356445 15.230263 24.513466
61.1922 16.34046 15.125837
61.64019 16.439037 9.7195711
55.547985 5.7273312 19.667591
62.2281 16.626654 11.010463
55.434898 8.0585957 10.751158
55.278599 9.131094 24.070686
55.434898 4.3577633 8.6969528
55.434898 6.2193203 4.3460379
55.496632 15.219473 10.55398
55.434898 13.271448 6.6801534
55.278595 7.9741855 24.746672
57.383064 15.224747 25.243841
55.434898 11.938732 15.986687
55.504654 10.902525 23.451641
55.434898 7.4323916 5.0831008
55.434898 6.8896117 11.020563
60.789886 18.815718 17.749569
61.065697 15.235042 12.63044
59.881466 15.231731 11.728958
55.646572 10.25288 23.538029
55.278603 4.8656626 26.261566
55.434898 3.9224248 6.0033407
55.434898 1.0283899 14.442801
60.844898 15.234425 20.572823
55.434898 7.4079061 16.43627
55.434898 -0.60349774 11.174273
55.434898 -4.5080767 13.729651
60.199776 19.405788 20.481182
55.434898 2.6136045 3.3740838
55.434898 -4.601778 19.339832
55.434898 6.7487922 15.87306
55.434898 8.5548449 7.8191729
58.410156 15.227618 18.583502
55.434898 15.117301 13.690586
55.434902 10.29283 9.0347157
55.434898 13.878597 19.860294
61.122398 15.719213 18.020401
61.2318 18.373837 22.206339
55.434898 15.138306 18.645058
55.278599 -1.2596457 22.10121
55.278599 7.2579169 21.360102
55.434898 -6.7093487 15.667377
55.434898 -3.0086176 10.701216
55.434898 2.6013584 2.7142398
55.434898 10.722149 6.6071057
55.434898 9.6525698 11.686939
55.45541 1.4959277 20.354706
62.1297 16.546749 7.2561541
55.633102 10.773685 21.214878
55.691502 10.380865 25.561188
61.458488 16.399054 10.00363
61.428654 18.176991 22.912088
61.304203 18.301363 9.5888348
55.527203 1.4781952e-05 19.646757
57.938934 15.226301 9.1327162
55.434898 5.0981097 15.245201
55.434898 11.896397 16.721994
60.535889 15.233561 22.354101
55.434898 3.264765 1.5960886
56.146 15.221289 6.8607125
55.434898 1.9329865 2.6854801
55.434898 13.906971 9.2949963
55.434898 -4.3821449 14.75099
55.434898 10.687748 5.6470757
55.434898 4.3788829 12.879103
56.090263 15.221132 24.434986
55.434898 9.0927496 8.3084335
55.434898 -1.0920587 19.06517
55.434898 0.41304111 10.029716
61.641369 17.964293 21.45302
61.406967 16.387716 8.878664
55.434898 -5.4475408 14.127619
59.995502 15.23205 10.941671
57.255043 15.224388 18.489801
55.434898 13.495663 9.9143581
55.434898 12.787089 14.938878
60.068771 19.536785 21.334995
55.434898 3.8513808 7.4499145
60.19693 15.232614 22.581657
55.434898 2.0949304 15.824654
55.434898 1.9749445 14.73168
55.434898 2.1504617 9.4966202
60.568275 15.233651 18.979519
55.278595 6.4231396 22.651449
55.434898 -6.100009 15.112706
55.434898 1.5402086 11.387997
60.635193 15.233838 17.938147
55.434898 -0.82728779 14.014673
60.641907 18.96369 19.147015
55.434898 13.119534 12.004436
55.434898 12.54846 11.41103
55.434898 -2.4119136 14.656701
55.434898 -1.7875082 11.617282
55.475929 10.931343 21.051983
55.434898 13.415642 25.539394
62.2281 16.931473 11.003962
55.434895 11.088734 7.2477598
55.434898 2.6052394 5.2142711
55.278599 7.4706359 25.075485
55.434898 10.41519 16.946186
55.434898 11.919375 6.9441462
55.434898 3.7756481 18.494905
55.434898 -5.8765206 18.321829
55.278599 9.8683767 26.854614
62.110115 17.495577 24.689865
55.434898 10.057899 17.152092
55.434898 1.7659338 14.970341
55.434898 14.145652 23.614138
55.607407 8.6373005 20.290325
60.950932 18.654682 16.349094
55.434898 6.0208607 7.9505515
56.213737 15.221478 12.057156
56.31633 15.221765 9.5570421
57.925262 15.226263 14.414116
55.434902 1.0859863 12.283236
55.434898 1.1045132 3.831738
60.195633 19.409927 20.207794
55.434898 7.0214472 16.757784
55.434898 12.735277 26.180624
55.278603 8.1879244 26.336456
55.434898 6.8143849 8.3866529
55.434898 6.5062246 14.012156
55.434898 11.701746 15.570867
59.086479 15.229509 21.745094
55.434898 1.7930983 14.990602
55.434898 10.384239 8.2150116
59.820694 15.231561 19.539471
59.791252 15.231478 21.400154
56.824196 15.223185 10.067229
55.434898 3.2558155 15.35857
55.434898 2.5490818 28.339808
55.434898 3.2542906 4.5951624
55.434898 10.072283 14.511454
58.452538 15.227736 13.371677
55.434898 8.3141289 9.0024385
55.434898 11.257511 10.215101
55.278595 5.0329275 26.037485
55.434898 -5.5405307 11.726191
55.434898 2.2018776 15.377798
60.643112 15.23386 22.623569
55.434898 7.1256742 13.47318
55.658611 -1.9553676 21.054995
56.773228 15.223042 9.148715
56.591808 15.222534 18.271517
60.329674 19.275904 19.174978
55.434898 4.3326654 3.2848291
55.434898 5.646081 6.4409842
60.564171 19.041416 17.879158
55.434898 8.235033 5.9380684
55.434898 -3.2996311 15.37781
55.434898 3.4588342 13.380322
55.434902 11.47134 24.882208
58.015091 15.226514 24.514277
55.434898 -5.0583797 19.246323
55.434898 12.570558 25.621859
55.434898 -2.744905 17.443157
55.434898 4.7436886 12.457018
55.434898 -0.42982852 13.952306
55.434898 10.786095 10.277847
55.434898 8.0061054 15.739107
55.434898 2.777688 16.262278
60.106495 15.232361 10.69165
55.434898 13.433369 12.789022
55.434898 1.2642398 18.830095
55.434898 13.877872 6.745635
55.434898 -6.691236 16.014147
55.434898 -4.5120864 10.53775
55.566216 -0.92373675 20.307766
59.178253 15.229765 20.795725
55.434898 3.086894 14.038631
55.434898 10.146358 6.0129957
55.691498 7.566967 20.150354
59.811676 15.231537 25.193172
62.228104 16.967163 15.315248
61.972267 16.512104 19.687891
55.434898 -0.31147814 9.2650337
55.434898 12.213055 8.5152111
55.434898 -4.0836926 11.411133
55.278595 1.2372094 25.948896
55.434898 -5.6594772 18.625103
55.434898 10.985974 16.235683
55.434898 -1.5277736 14.11331
55.434898 0.11446834 12.169941
61.122398 15.937957 10.686296
55.691502 -2.2889771 21.762177
58.698742 15.228424 24.077759
55.434898 9.2250757 19.164305
55.434898 3.365067 19.421825
56.259827 15.221606 12.17658
61.448967 18.156681 13.147129
55.434898 13.330785 19.402948
55.434898 8.2753315 3.9757128
55.434898 6.0431671 13.419841
55.691505 7.3070517 19.973295
55.434898 14.501413 20.937298
55.434898 6.5302415 16.737736
55.434898 6.3847165 15.270832
62.228096 16.599564 10.678314
55.278599 6.986125 21.045517
55.434898 -2.9307775 11.721922
61.44556 18.160023 10.089394
55.434895 -2.5923374 18.365328
55.434898 -4.2702255 15.30457
55.434898 14.925866 13.847687
59.572586 15.230867 23.94133
55.278599 7.7509441 26.309175
55.434898 5.7530961 17.888699
55.434898 7.4120097 27.934843
55.434898 0.97738039 11.857959
55.434898 10.377967 18.941149
61.122398 15.396423 15.258326
57.007729 15.223698 18.804907
55.434898 -3.7273819 17.229412
55.434898 -2.4162614 12.310095
55.571724 6.0933256 27.126362
55.434898 -3.1764514 11.187841
60.64431 18.961288 18.199745
55.434898 4.4114394 4.2798491
61.122398 16.102085 7.6654272
55.434898 11.673226 21.185833
55.803047 15.220329 14.847555
60.548813 19.05677 17.878027
55.434898 3.0255642 9.9868441
55.585892 7.2566891 27.726135
59.946198 15.231913 24.308796
59.82122 15.231564 17.792124
55.434898 9.5967054 18.942394
55.434898 9.4353218 16.876949
55.434898 4.0872269 5.0891538
55.434898 5.3396025 11.798767
55.434898 -1.735754 11.240838
55.434898 8.5021601 16.719648
55.434898 3.820787 10.69845
61.122398 15.239852 13.010448
55.434898 3.4272444 9.2288065
55.691505 6.8370934 27.485266
55.434898 8.2456017 13.773637
55.434898 6.4024305 4.8858643
61.329212 16.370607 11.078156
55.434898 13.108156 22.874172
55.278599 5.7456193 20.934177
55.278599 8.7579908 22.003189
59.506702 15.230682 17.585609
58.179764 15.226974 24.182091
59.67733 15.23116 7.0229812
55.434898 5.4119139 6.4956956
55.434898 13.891665 5.8340034
55.434898 -2.5898225 15.24013
55.691505 8.2475157 27.416222
55.691502 6.8679681 20.150124
55.434898 10.548053 12.224648
55.278599 6.8216815 25.570904
55.434898 6.9558196 9.5779381
56.373871 15.221926 14.716333
55.434898 6.9962831 11.152851
55.434898 9.9764986 11.713106
55.434898 3.70613 18.140453
55.434898 8.9086275 13.16715
59.869343 19.736202 23.795334
55.434898 12.163121 26.367111
55.434898 2.4826498 5.5678735
61.442783 18.162802 10.577925
60.362343 15.233076 11.013608
61.122902 18.482719 18.454666
55.434898 4.190589 7.0092511
55.434898 -1.0797402 14.774484
55.434898 0.20970869 13.326845
57.761051 15.225802 22.479738
55.434898 3.1304855 15.658967
55.278603 -1.0765042 20.822479
57.197731 15.224228 7.5047522
55.434898 13.15389 24.951546
55.434898 14.257927 6.5496092
56.969147 15.223589 16.44133
61.397453 16.385624 18.623749
55.51041 10.730495 19.629919
55.278599 10.088847 23.45586
55.278599 2.6032181 21.794075
55.278599 -0.79072887 22.479324
55.628796 -2.4753785 22.706062
55.691502 -1.3736516 20.194719
55.434898 7.3743014 9.6022453
55.31646 10.113129 22.716068
55.434898 -1.3895514 19.046419
55.434898 13.060259 14.385134
61.52578 18.079874 19.961828
55.434898 13.01808 19.803345
58.268761 15.227221 21.94478
56.725285 15.222907 12.866423
55.933609 15.220694 18.468172
55.434898 4.1498842 12.455401
62.2281 16.614798 25.312702
55.434898 4.1503873 2.0689535
55.434898 11.183596 20.969143
55.434898 7.5254002 27.957277
61.122398 15.392817 12.379263
55.278595 4.9230566 23.465796
55.278603 3.6233504 24.805574
55.464085 3.1635151 20.35103
61.122398 16.115604 18.333748
55.434898 1.757147 10.118267
62.031963 16.525242 17.923882
55.278595 1.9027541 21.559719
55.434898 0.95305526 15.045349
55.278595 1.2187102 20.797579
55.505081 -1.8903364 24.012682
61.087128 15.235101 22.776161
58.764099 15.228607 21.972563
55.434898 -0.5099647 13.583618
55.691502 9.5747089 20.001209
55.434898 6.4066143 18.426271
55.434898 12.294497 20.649931
61.122398 15.537238 8.0960884
55.434898 -7.0606012 15.568131
55.434898 7.7703147 17.038757
62.2281 17.35113 18.097027
55.434902 14.926048 8.8831053
55.278599 1.3091066 26.782436
55.434895 -2.7180893 12.431202
56.614624 15.222599 24.262684
55.434898 2.1839972 4.8617735
55.434898 10.816676 6.855063
55.434898 10.662683 11.927281
55.434898 -0.74174523 13.430469
62.123749 16.545437 21.578407
61.122398 16.194109 20.03002
58.091595 15.226727 12.211849
55.434898 12.255473 12.955803
55.434895 0.38131714 18.373657
55.434898 6.9172421 17.355562
55.691502 1.6387426 19.826027
55.434898 -3.2480087 10.006759
60.585648 19.019939 18.411259
55.434898 -3.9943366 21.301834
55.434898 9.8170719 12.253456
61.045418 18.560202 20.521078
55.434898 4.4664268 15.273757
55.923386 15.220666 22.897625
55.434898 5.387414 7.2491746
62.2281 17.03083 17.056414
55.434898 -0.47763741 15.284342
57.493473 15.225056 19.174091
55.434898 -5.2107687 12.265607
55.434898 13.524107 19.324556
61.217331 16.345989 22.137802
61.011002 18.594616 23.397015
55.434898 4.5157499 11.56538
55.434898 1.563351 16.411345
56.724724 15.222906 9.4629774
55.434898 10.073449 19.309021
55.434898 11.531082 21.25506
55.691498 10.55709 24.013666
61.122398 16.236017 17.246805
55.895233 15.220587 6.4734373
55.434898 0.54503393 14.971034
55.278603 1.0273376 25.02873
55.434898 6.7555776 10.503592
60.848351 18.757261 13.569088
55.434898 1.6873893 4.293539
59.575783 20.029739 22.66111
55.434898 -1.9440955 11.666239
55.434898 5.9959021 18.201284
55.685204 4.4900017 27.626516
55.434898 -4.2494106 16.341248
55.434898 2.6458387 18.99931
55.278603 -1.0032872 21.967741
55.50375 -0.38869059 20.334229
62.228104 17.321447 18.905193
61.122398 15.928819 20.203905
55.434898 -2.9794767 12.034473
60.051929 15.232208 25.552723
55.434898 13.132757 7.9054327
55.434898 -5.6538653 16.772234
55.434898 2.8857248 3.3117723
55.278603 9.3000994 20.858671
55.434898 -4.6361675 11.157498
55.434898 1.8713831 6.827558
56.476028 15.222211 23.689331
55.434898 13.120765 18.77906
55.434898 1.9943796 8.2363863
55.434898 14.826617 16.877285
55.434898 11.663538 5.4811449
59.280663 20.324844 22.501564
55.434898 4.6418028 17.757664
58.831554 15.228795 24.362497
55.434898 11.814186 5.3834057
55.278595 4.0629015 22.681023
55.434898 -0.75212502 14.967361
55.434898 -5.9012842 13.203691
55.434898 14.65192 24.890795
61.621601 17.984062 14.062592
57.29229 15.224493 19.33481
55.278603 8.9861679 22.809303
55.278599 0.20088732 21.867895
57.95623 15.226349 15.631221
55.434898 2.6595201 13.353465
60.986504 18.619114 16.817297
55.434898 9.9315434 4.2710686
56.806583 15.223135 24.912018
55.434898 -4.2190752 18.371601
56.303577 15.221728 8.2092562
55.434898 -0.17678642 8.2067909
58.535378 15.227968 9.8064623
60.51276 15.233496 7.5920243
55.434898 4.6802449 19.459106
55.434898 9.2973289 16.233589
55.278595 2.0489659 21.30838
55.434898 -1.6425173 18.951292
55.691505 9.8478661 19.9683
55.434898 14.205876 7.5473356
55.434898 10.607125 9.9019871
55.434898 8.804842 4.2608995
55.434898 8.411334 18.082737
61.276718 18.328844 9.7562761
61.122398 15.927663 23.361488
55.434898 -6.5871148 16.97636
55.434898 2.1930919 2.9599404
55.434898 13.814617 7.981813
55.434898 10.332124 16.44474
61.303562 18.302004 9.9464149
61.704422 16.453167 15.98146
55.434902 -1.3435087 19.165846
55.278599 7.7013578 20.713509
55.434898 -0.82197928 8.2681627
55.278595 -0.67845106 23.731163
59.126144 15.229619 24.099697
62.228104 17.096458 23.872932
55.434895 -1.2248883 7.7660346
55.434898 7.6433296 5.2596459
55.278599 9.2376251 23.317736
61.862724 17.74295 18.996368
59.387566 15.23035 23.025326
60.048969 19.556583 20.750538
60.279327 15.232843 21.510979
55.554451 6.5481243 27.119045
55.434898 11.163269 6.8481703
57.717201 15.225681 7.7239656
55.278603 1.0820968 20.901329
55.434898 1.3968804 4.831635
58.100899 15.226753 23.403864
55.434898 -3.1098242 11.27107
55.434898 2.2929335 4.9711323
55.278603 1.2233007 21.275633
60.291424 19.314148 16.056248
55.434898 -0.10133791 17.671257
55.434898 2.0349114 9.5567493
55.434898 9.5180387 5.6540732
55.691502 -2.3053517 21.051739
59.382038 15.230335 10.661438
61.914139 17.691538 16.092148
55.434898 14.855218 15.108749
55.434898 10.118482 13.781354
61.223473 16.34734 24.021639
55.434895 14.985026 10.042226
55.434898 11.576822 24.108646
59.503975 15.230677 14.192499
55.278595 9.1142626 21.111126
55.434898 -4.8080454 20.507822
55.434898 5.1740103 19.206903
55.610981 10.237811 25.863132
57.951324 15.226336 13.071384
59.507782 15.230686 22.696377
57.102154 15.223961 18.405415
55.537071 10.206523 22.680878
55.434898 7.0229964 5.8542604
55.434898 -4.1437449 10.830642
61.122398 16.226583 15.781958
61.581886 18.023771 22.180553
55.278595 5.5239892 21.397676
62.228104 17.150063 11.212067
55.434898 6.9684954 15.617117
55.434898 -0.13885856 7.1023927
55.434898 3.588273 1.9817344
55.434898 8.0504131 13.102055
55.691505 10.449118 23.700378
55.434898 8.7689657 16.163591
59.353775 15.230256 9.2561836
61.119625 15.235191 13.378527
55.434898 12.991266 6.2030854
60.430199 15.233265 17.210743
56.08717 15.221124 11.477286
55.434898 10.991359 13.579764
55.462563 -2.6420572 21.414722
55.489552 10.917678 23.455589
60.534935 15.233558 8.1190529
62.173096 17.432594 10.571861
55.434898 14.793612 17.303808
56.181919 15.221389 11.404208
62.2281 17.046169 22.988499
57.572166 15.225275 11.737781
55.434898 13.806055 13.705162
61.074318 18.531303 20.129084
59.540512 15.230777 12.386028
60.202263 19.403301 16.265274
55.434898 10.039935 8.996315
55.278599 3.0425601 24.531349
55.434898 0.16561604 17.837109
56.981941 15.223625 23.938925
61.122398 15.237748 22.889664
55.278595 5.5338001 26.439178
55.278603 4.1419969 21.952772
61.122398 15.94289 17.607122
55.434898 6.6044831 17.346542
55.278595 5.7263465 24.544582
60.947777 18.657835 13.752609
55.434898 5.7950125 15.787449
61.306019 18.299618 12.700312
61.016113 15.234903 25.877178
61.122398 15.837564 11.143739
55.278603 7.0834866 24.850332
56.18705 15.221403 16.067997
55.434898 -1.1229897 10.324676
55.434898 9.1377821 17.747292
55.434898 -0.31018102 16.171967
55.566147 3.5908027 20.307796
55.434895 9.7667351 8.0330982
55.434898 5.9335423 7.9902062
55.434898 7.3953919 12.76557
62.228104 17.028427 7.7148609
61.122398 16.20063 24.596924
61.847893 17.757784 11.918845
55.434898 -5.0817289 17.617815
55.434898 -4.5158305 13.805323
55.434898 -0.58685243 10.848297
55.434898 10.398766 16.754221
55.434898 11.635212 7.3769851
55.434898 10.643628 15.847683
61.122398 15.343815 13.262663
55.553741 -0.58521044 20.313051
60.766975 15.234206 16.680511
55.475616 8.0222073 20.346144
55.434898 8.7272635 17.40662
55.92572 15.220673 19.027592
62.220516 16.566732 7.0794115
55.686256 4.801095 20.256922
58.275795 15.227242 10.222149
55.434895 12.022758 8.4624453
60.486404 15.233421 18.847778
62.2281 16.754848 18.963406
55.434898 5.7249632 17.564972
61.122398 15.93432 23.330738
62.148964 16.550987 8.8091125
55.434898 -1.6562204 17.174601
55.434898 8.8358631 18.040091
60.604828 15.233753 7.2618532
55.434898 -3.9315085 10.97272
58.897247 15.22898 7.1703138
59.40292 15.230392 17.973129
55.434898 5.3283381 17.88413
55.434898 2.0683324 2.5150721
55.278599 1.8846217 26.476362
55.593628 9.5423002 20.296158
55.505257 3.2650034 27.098209
55.278599 7.6657844 22.179426
60.773132 15.234222 6.950429
55.434898 11.206557 16.149132
55.434898 -2.4375644 10.241787
61.562275 18.043329 8.7923775
55.434898 1.1317465 9.8345509
55.434898 1.1401567 7.4473138
55.434898 2.5579374 17.801399
55.526318 2.6806083 27.785896
55.278603 0.73144054 20.498268
55.434898 -3.1670048 19.652596
55.434898 -5.6651187 14.98956
55.434898 11.604118 12.48473
55.434898 11.172372 25.800329
55.434898 12.746317 10.686639
55.434898 7.6258464 13.298124
55.434898 1.1517187 14.763776
61.518391 18.087261 14.275896
55.551373 15.219625 14.868568
55.434898 5.48666 15.635527
55.434898 11.043263 18.177797
55.434898 9.5506525 6.8736238
55.278595 8.3945885 26.101221
55.664001 10.742685 21.751541
55.434898 7.6482224 17.640312
62.2281 16.652689 11.278557
55.434898 -2.7445943 10.451491
55.434898 -0.76167107 18.135952
55.701424 15.220045 20.952267
55.626984 10.779819 22.887901
59.963543 15.23196 10.950279
55.571518 10.835455 23.606148
55.503883 3.6654418 19.623373
55.571461 -2.532871 23.145063
55.434898 -2.0161581 14.577912
59.975788 15.231995 16.258997
55.434898 7.8481698 28.00453
58.678314 15.228368 24.775343
55.434898 -4.0350237 14.18737
56.425735 15.22207 14.379272
57.148468 15.224091 25.291618
55.434898 5.3246374 10.040663
62.228096 17.355606 15.972831
55.434898 5.925035 14.732227
55.434898 11.378218 17.884222
60.384933 15.233139 25.542435
55.434898 9.1480846 9.2345581
55.278599 7.9649935 23.05891
55.434898 5.7354097 7.778904
62.19865 16.56192 16.967716
55.434898 7.7607393 8.9150553
55.434898 8.9363422 6.4905734
55.278599 8.0242872 21.249752
55.654675 -2.0162923 19.774576
55.434898 11.067598 21.988434
55.434898 -4.2622352 14.665173
56.216137 15.221485 24.643656
55.434898 1.139082 4.5141826
55.434898 11.350804 5.9135351
60.777885 15.234237 8.0545292
55.434898 6.1078968 10.370233
55.434898 6.9960365 18.46526
56.597839 15.222551 20.865549
55.434898 -1.6985023 18.958845
55.434898 6.7808323 14.055095
55.434898 13.501175 14.713906
55.434898 3.7249441 6.9094667
55.434898 1.761873 13.064413
55.434898 5.5214462 7.9472861
62.2281 16.728947 17.870888
59.910046 15.231812 18.378431
61.854492 17.751179 15.434278
61.384712 18.220928 17.931862
55.434898 11.017744 17.657251
55.434898 7.7591076 15.338076
55.434898 6.5969381 17.55448
55.434898 3.7309549 12.461215
59.808914 15.231528 17.556753
58.241196 15.227145 13.002142
55.278599 0.86770761 21.550812
61.33836 18.267279 16.887968
55.278603 6.9418936 26.49856
55.918427 15.220652 7.2586536
55.434898 13.803013 9.0389214
55.278599 8.9415359 22.310987
55.278599 9.3786888 21.420006
55.434898 -4.3233333 12.075283
57.462494 15.224968 8.3519745
55.434898 8.8816996 10.892313
55.278599 -0.34112889 20.799841
55.278595 0.013713956 23.868248
56.453136 15.222147 11.698471
55.434898 -1.1002853 8.804739
55.434898 3.5466413 6.782537
55.443729 3.7600889 27.868744
61.713699 17.891962 16.430153
57.038937 15.223785 14.749408
61.122398 15.989111 25.450632
55.434898 6.526382 16.239254
55.434898 14.517173 14.912362
55.434898 11.691798 22.540686
55.434898 -2.8924732 14.176216
55.434898 6.8499608 6.9001031
55.434898 -7.6958923 14.412376
55.278599 0.82391626 21.696793
55.434902 9.8644714 19.402481
55.434898 4.3375759 16.139
59.300404 15.230107 13.484528
55.434898 13.55994 9.8868103
55.652596 3.5235763 19.772488
55.434898 -0.21033812 15.666706
55.434898 5.678544 16.556105
56.400917 15.222 18.605137
55.483921 15.219438 19.499077
55.278599 4.7409806 23.641312
55.434898 -0.076394558 18.008926
55.434898 -3.8047869 17.88611
55.434898 8.7969675 5.4292269
55.278599 -1.6934791 22.91658
55.278599 -0.55407751 24.350216
61.776711 17.828953 21.245003
55.434898 7.4504676 4.0593143
55.434898 5.8378253 9.6131411
55.71743 15.22009 19.303982
55.278595 5.3568273 26.875555
55.434898 5.5506225 11.271996
55.691502 5.9058723 27.250996
61.122398 15.452903 15.722215
62.228104 16.940033 16.15251
61.299091 18.306543 24.159533
55.670246 8.5628376 27.641518
61.739861 16.460966 11.628751
55.434898 11.157889 16.213562
55.434898 -3.7498903 14.792801
59.993629 19.611919 24.152523
62.144093 17.461601 14.266148
55.434898 4.1152611 6.7963166
61.122398 15.639638 14.781111
55.434898 4.4167266 6.9164848
55.278603 7.1788874 22.018345
55.434898 10.29292 10.339538
55.434898 -0.53443325 9.3131599
55.434898 12.928198 11.863141
55.434898 4.5787334 28.440514
57.966072 15.226376 20.194759
58.821449 15.228767 15.514845
55.592484 15.21974 24.475643
55.278599 5.0453844 20.529102
55.278599 0.16921771 25.109335
55.434898 1.2118962 17.733376
60.464321 15.23336 11.551998
55.434898 -0.39689147 15.216019
55.434898 9.6035233 7.0785694
55.434898 2.2386634 16.369484
55.434898 14.722724 23.588703
55.278599 0.39432266 20.848902
55.434898 10.46677 11.089505
55.434898 -4.7136917 17.677967
62.228096 17.092878 22.78364
55.434898 1.5260739 15.456247
61.804802 17.800871 17.091709
61.959675 17.646006 13.139471
55.434898 7.5061822 4.2943993
55.434898 -3.640615 21.121862
55.434898 -0.25605226 12.105862
61.679073 17.926588 16.575365
55.278595 5.3342295 22.912384
55.278595 5.650579 23.42157
55.434898 11.585402 7.4448833
59.843933 15.231625 21.249199
57.278214 15.224453 17.718769
55.434898 1.5393308 18.015827
55.434898 2.2344832 19.004669
55.434898 10.563066 6.7048306
55.434898 10.082178 9.8367949
55.434898 4.3742213 8.092886
56.166523 15.221346 11.656315
55.434898 11.629915 24.802078
55.434898 -2.325278 12.992868
55.434895 2.8562415 27.980751
55.278599 3.5207791 24.431932
55.434898 10.469677 16.98049
55.434898 2.2984734 16.352383
58.328159 15.227388 25.151867
62.228096 16.759256 17.625702
61.122398 15.91633 7.1490555
55.434898 6.0528035 5.2612362
61.122398 16.073923 9.4562874
55.278603 -0.84423548 23.018654
57.460495 15.224962 22.34733
55.434898 3.9171081 2.9435592
55.434898 2.8387141 14.761024
55.434898 8.2168961 12.370778
60.652943 18.952652 13.806023
55.434898 6.1126337 10.951328
55.434895 0.18049502 10.599449
61.122398 15.435915 21.686447
59.925499 19.680042 19.370148
55.434898 0.27816629 16.734886
60.755394 18.850212 22.602211
55.434898 12.908687 11.298977
55.691505 10.375164 26.273033
55.434898 -1.8994701 12.624328
55.434898 4.4705215 13.950216
59.974564 19.630989 17.460289
55.434898 11.481359 20.054585
55.434898 -4.2040129 10.470828
55.434898 -0.77014899 19.523178
55.434898 14.294423 13.713335
55.434898 7.5484414 4.1775956
55.434898 -1.4672871 13.740668
59.881893 15.231731 18.886805
55.434898 3.1239386 14.237004
55.434898 2.1009665 5.4270916
55.434898 11.787512 7.8122568
55.434898 5.3026848 4.0050216
55.278599 9.2212801 25.247879
55.434898 -1.778053 13.39825
55.278595 1.9631782 24.73979
55.434898 14.912155 17.282379
55.278599 5.0573931 26.659081
58.819954 15.228764 7.4289312
60.751801 18.853798 13.73051
55.434898 0.30257714 5.8742919
55.434898 14.654753 14.73555
55.434898 4.6848879 8.5063944
60.023735 19.58182 22.17193
55.434898 -1.8804188 17.17351
55.434898 11.38796 6.6706104
55.434898 5.5718136 4.5175366
55.937782 15.220706 24.612423
62.067226 17.538462 13.969203
55.434898 10.709818 12.943401
55.434898 5.7068558 10.333996
55.434898 3.7331343 8.2899008
61.334698 18.270939 22.186306
55.434898 -6.9357734 15.49188
55.434898 12.744624 12.178428
55.434898 -3.2718287 12.288382
62.2281 17.068624 24.24786
61.231857 16.349186 13.705833
55.278599 6.5239425 23.925537
58.707699 15.228449 13.565612
55.434898 9.6475735 14.595576
55.434898 13.678698 24.189865
55.434898 11.601372 5.1981902
62.2281 16.726484 17.827873
55.434898 7.1910458 14.246384
55.434898 9.1862907 7.4519234
55.278603 3.9375923 21.55834
59.490448 20.11507 21.606539
55.434898 -7.2597399 15.288456
61.953281 17.652401 17.494755
58.003792 15.226482 15.920098
55.691502 -2.1407824 21.673035
55.434898 -5.6538243 16.002224
62.228104 17.061657 24.983353
55.434898 14.457569 12.240984
60.449856 19.155725 20.806767
62.2281 17.232197 24.954853
61.122398 15.874212 20.769291
55.434898 13.106572 18.405539
55.434898 12.846733 16.141447
55.278599 9.5820293 20.545988
55.278595 -0.82719696 22.220068
55.278603 -0.29282171 24.033054
55.278599 9.1357985 20.442268
55.278599 -0.87212813 21.402596
55.434895 13.124449 11.156952
55.434898 4.2439728 17.445894
55.434898 12.638735 15.326332
55.434898 7.8897209 11.394204
55.434898 3.3385065 10.894329
55.840645 15.220434 8.0051565
55.434898 13.628857 21.115326
55.278595 7.4950175 26.733887
55.434898 8.1925516 17.725571
55.434898 12.581185 22.092216
55.434898 1.0004693 4.4075756
61.097546 18.508081 21.970097
55.434898 -1.0506853 9.2594404
55.434898 -4.4595613 18.129805
55.434895 -2.2112052 9.547596
55.434898 5.3686695 16.533407
60.100231 15.232342 12.088424
55.434898 6.7489433 7.858645
55.434898 -4.3455138 20.443562
55.434898 13.918291 10.031845
55.278599 7.0777516 21.878426
55.434898 10.468402 16.397327
55.434898 14.545762 16.913071
57.133049 15.224049 24.730175
55.434898 13.498884 22.621069
55.434898 11.927547 6.0901818
55.434898 5.6089759 14.928544
62.2281 17.066862 24.191284
55.434898 6.5180435 11.927704
57.878288 15.226131 15.148545
55.434898 2.6751647 9.1031389
55.434898 10.935948 14.322923
55.434898 -0.79883111 18.356369
55.434898 11.544077 13.44183
55.434898 13.023277 23.421637
55.278599 7.6527319 26.491932
60.022453 19.583099 18.148401
55.434898 4.4003596 3.3037982
55.278595 0.64119744 24.589291
55.434898 -1.9331911 13.792572
55.434898 -3.5404925 17.437956
55.434898 5.2173009 9.1661072
61.732689 17.872938 8.6868095
62.228096 17.148651 13.902118
55.434898 3.8988097 8.5162287
61.122398 16.176994 13.127744
60.597759 19.007833 18.80975
56.294624 15.221704 21.693867
55.434902 1.8997679 6.2570601
55.434898 -5.5678844 13.379744
55.434898 4.7908659 11.157186
55.278603 3.9976017 20.658997
55.434898 9.0547466 12.733812
55.434898 -3.9631834 12.542256
61.609322 17.996338 24.085857
61.226383 18.37925 18.933262
60.932381 15.234669 19.148901
55.434898 -0.0018804073 16.653999
55.434898 9.1140032 10.90127
55.434898 10.865343 4.7920876
61.122398 15.903803 14.587321
55.434898 0.38569486 5.578197
55.434898 11.089235 23.916107
55.434898 -5.303863 19.628262
60.084263 15.232297 13.626074
55.434898 -2.5011668 7.9301753
