# .PCD v0.7 - Point Cloud Data file format
VERSION 0.7
FIELDS x y z
SIZE 4 4 4
TYPE F F F
COUNT 1 1 1
WIDTH 1610
HEIGHT 1
VIEWPOINT 0 0 0 1 0 0 0
POINTS 1610
DATA ascii
46.097725 18.309605 45.009933
62.22226 17.383442 29.88846
61.829567 17.77611 37.793114
56.534439 23.070879 34.785339
46.364174 15.227913 42.826469
55.434898 11.131899 31.59931
53.906269 23.65663 36.080898
57.153412 15.227394 42.335522
54.590664 4.6705856 39.752602
55.434898 8.0299797 38.830288
61.809666 16.476326 41.018631
51.504269 27.402882 28.742531
45.579041 7.549757 39.75259
62.073959 17.445774 44.489563
51.335789 12.767869 39.752602
55.434898 2.821183 37.498516
53.867111 15.219681 39.888271
61.122398 15.258368 27.616663
61.122398 15.536533 35.807026
55.434898 8.0713148 30.447714
59.274136 20.331366 37.488667
48.431202 28.482746 28.021725
48.074314 25.46245 33.065346
57.62434 18.09691 45.365116
49.976334 9.1960173 39.752602
59.94191 19.663635 27.512901
53.540943 8.9904633 39.752602
48.852436 27.696354 29.33493
47.099857 11.034524 39.752602
47.095493 19.403477 43.18327
51.614864 9.4421787 39.752602
62.164223 17.441471 33.309467
55.434895 13.639201 38.13401
60.205296 15.232635 37.118885
59.445293 20.160223 39.208595
45.630604 7.1644697 39.75259
49.893661 21.032398 40.46312
55.434898 14.635082 29.304379
45.546799 23.502296 36.338619
55.434898 13.903809 26.355942
53.847889 23.859386 35.742313
50.296803 16.102854 45.427101
55.443592 15.219324 32.30106
59.353642 18.754341 43.751389
55.434898 9.1512814 34.667614
51.206192 27.831879 27.906689
46.620476 11.357653 39.752602
51.041878 23.023903 37.137489
60.222523 19.383045 36.484039
55.937305 23.667978 34.13242
50.364464 26.675726 31.039282
55.434898 4.7725101 38.064106
53.554768 23.749298 35.926151
57.190445 22.414917 30.717405
47.976738 28.366802 28.215338
49.461784 23.393036 36.521072
51.015697 13.464324 39.752602
52.31414 27.040703 28.88937
55.563442 15.219659 35.209892
59.52697 15.23074 27.82885
58.875687 15.22892 32.350983
60.464394 19.14119 33.012623
55.744541 15.220165 33.464371
55.434898 10.035644 38.337502
57.353642 22.251736 28.629755
45.997868 12.329496 39.752598
53.155991 16.14855 45.427101
55.846195 17.006844 46.566299
46.932499 18.011507 45.507729
59.77953 19.826008 36.84943
52.462429 21.997047 38.852245
53.366165 10.796508 39.752602
61.122398 15.574722 26.621323
48.968449 15.230894 43.890255
55.434898 3.5355544 36.845024
57.191811 15.22603 41.575058
48.581367 17.555994 46.268402
57.19112 22.414246 35.063774
44.757782 10.533578 39.752602
58.136665 21.468763 28.084679
46.658581 26.75742 30.902863
55.434898 12.124865 38.582348
55.434898 11.236507 26.989143
53.566528 9.4414673 39.752602
49.298569 15.220166 40.061535
48.325294 23.267506 36.730701
50.477165 6.3961635 39.752602
55.434902 11.011598 27.376696
60.388248 15.233149 31.524483
58.834564 20.770908 26.335331
55.434898 13.448439 33.985085
48.717377 21.634769 39.457214
44.986916 11.552694 39.752602
46.619686 14.050531 39.752583
57.989407 21.616007 25.96166
61.122398 15.437053 33.40065
44.176613 27.011181 30.479103
57.042171 15.223793 37.189987
45.641644 11.091816 39.752602
51.116066 9.5002832 39.752602
47.082783 26.962605 30.560226
60.710705 15.234048 39.980095
51.944099 22.726858 37.63353
55.434898 1.7193079 37.812325
53.003483 18.261986 45.089458
52.228748 7.9748979 39.752602
46.369106 20.929394 40.635128
60.645035 16.523197 45.548836
50.142731 15.231171 43.988682
59.947098 19.658451 31.938372
51.873226 15.669016 45.427101
59.517078 15.230711 39.450603
58.685631 15.228388 25.99931
45.21315 20.548573 41.271072
48.508011 18.130772 45.308575
55.434898 10.441139 35.907173
47.871372 18.719339 44.325718
46.3783 24.739267 34.272991
57.399506 21.941845 37.280857
56.121281 23.484011 30.785595
57.056713 21.650858 38.392761
48.74736 11.649564 39.752602
52.519432 26.123997 31.107491
51.764587 20.065994 42.076927
51.699265 4.8506966 39.752602
49.577415 26.579231 31.20042
62.228104 16.740835 41.133369
47.113884 18.69898 44.359715
47.971191 28.131012 28.609089
53.383636 15.230137 43.620251
58.921288 16.354975 45.226997
47.093292 28.285423 28.351238
61.239464 16.350859 28.786463
55.434898 9.1692572 28.114004
55.434898 4.5244641 33.176704
60.384411 19.221165 37.961941
47.541412 19.913929 42.33086
52.033279 7.3039217 39.752602
55.434898 5.9712415 38.779449
49.203041 16.478224 46.14407
55.471535 24.133715 26.440454
46.099121 21.830078 39.131073
58.773224 20.832245 33.390064
55.434898 15.138371 29.539677
55.434898 4.255383 35.0242
50.470509 2.2986743 39.752598
48.006203 15.233844 44.942738
56.780331 15.229162 43.272408
57.507786 15.225211 40.828659
61.903648 16.497005 33.228729
48.937984 22.223589 38.473946
59.79335 15.231485 33.173649
46.928841 12.019889 39.752602
57.218201 15.224285 30.589857
48.154743 26.222979 31.795326
55.113667 23.481796 35.496628
55.674232 15.219969 32.060154
48.900906 21.61632 39.488026
57.84222 15.22603 32.902351
52.652706 24.918369 33.973907
53.50959 7.7726812 39.752602
51.751427 15.226564 42.344887
51.495815 25.245489 33.427647
47.177765 20.195461 41.860729
55.434898 13.825544 33.587574
62.2281 17.191647 40.205364
61.122398 15.860985 39.156563
46.419785 15.225981 42.136524
54.542355 15.223478 41.243668
55.434898 11.680538 29.522488
58.755733 18.966637 43.788216
54.709274 9.1206245 39.752602
55.434898 8.6408539 31.757729
45.335754 15.224711 41.683811
53.002281 16.428345 45.910522
55.420044 22.656668 37.371098
50.436535 14.146033 39.752594
53.676567 13.865379 39.752602
57.967117 21.638302 26.564304
55.434898 1.6984801 38.160175
61.784897 17.820772 38.451389
57.741447 15.225748 38.455761
47.855782 6.1064582 39.752602
51.968803 1.658595 39.752602
56.832031 22.773306 25.816841
55.434898 9.6857786 38.057831
54.073196 21.984577 38.87307
55.434898 12.691842 38.431473
44.617744 22.998291 37.18026
46.636467 8.9921465 39.752602
55.434898 12.856723 29.32728
53.505119 6.7725158 39.752602
44.285347 25.486538 33.02512
46.182739 21.454308 39.758575
55.434898 8.5765238 29.107809
45.764671 8.5713634 39.752602
46.018776 15.234671 45.238281
57.958069 21.647346 33.557896
60.584991 15.233698 37.321121
55.434898 13.460843 36.682411
55.434898 2.6152477 30.507895
45.239574 23.096809 37.015747
55.434898 8.7988119 28.319801
45.698578 18.994682 43.865921
52.410736 25.86203 31.908579
55.434895 14.429682 37.398758
51.699944 15.020455 39.75259
51.949043 27.569225 27.85726
47.871365 15.352521 45.427101
56.330235 15.221804 38.514591
53.386143 21.597786 39.518974
48.885269 16.46501 46.082203
58.222271 15.227093 26.274677
55.434895 9.3458166 31.181519
54.577545 25.027645 28.820515
49.992527 11.570311 39.752602
58.621819 15.228209 29.397167
56.910778 17.579037 46.229919
60.023338 19.582218 24.882061
55.434898 14.433062 27.086689
60.580807 19.024786 33.530006
58.308823 19.471027 42.902016
57.760967 21.844431 36.810104
58.00634 15.226489 36.233166
55.434898 2.9265065 30.545914
53.490395 15.227269 42.596931
59.385803 19.892673 40.710545
56.461571 15.22217 33.270653
55.434898 7.9445076 33.365829
61.818863 17.786808 28.106266
57.053429 15.223826 37.521896
62.2281 17.349743 43.987309
58.781929 15.228657 37.011444
54.31699 15.460935 45.427101
53.794525 15.222823 41.010178
44.605801 10.89509 39.752602
61.373001 18.232637 34.237961
61.122398 16.055252 41.787994
49.304161 2.0383549 39.752583
55.434898 11.165726 30.716724
47.700836 15.221785 40.639088
49.578781 22.168461 38.566002
47.55563 5.520936 39.752598
59.058449 20.547039 37.060749
55.434898 11.822905 30.965157
57.058434 22.546923 30.97706
47.144329 19.03163 43.804226
50.201195 22.187 38.535042
55.434898 4.8050542 37.627914
59.055878 15.229424 29.757015
58.84404 15.23238 43.299938
61.876251 16.490978 30.842922
55.434898 10.685605 36.765442
48.125435 26.877777 30.701881
61.077118 18.528503 31.540503
56.779266 22.826075 27.767601
51.480824 1.6558675 39.752598
57.072731 22.532625 35.769775
48.227768 28.145824 28.584352
59.086285 20.519205 34.333767
62.004219 16.519136 31.353199
45.455063 3.3524489 39.752556
57.561543 22.043844 33.853584
49.377121 27.287361 30.017908
48.74321 3.4245415 39.752586
59.614819 15.230986 28.523741
55.434898 9.1899014 38.000202
55.434898 13.795652 35.280933
61.774284 17.831385 27.229818
61.974411 16.512577 31.652252
55.434898 13.8416 27.674191
45.809803 8.3335781 39.752602
61.122395 15.25782 29.672426
52.461872 27.143175 28.318359
58.676544 15.228362 39.805073
59.74453 15.231348 32.137085
54.920601 13.647027 39.752602
46.640087 22.854654 37.420116
47.159954 21.897245 39.018902
47.485149 24.377495 34.877117
55.434898 3.7083972 36.600124
57.132492 19.15971 43.59034
47.604378 3.7315691 39.752583
53.45652 3.4324107 39.752602
61.122398 15.287144 33.657825
61.122398 15.851128 36.902058
53.582363 24.94405 33.16317
45.773499 7.4494834 39.752594
61.892853 17.712824 38.721699
55.434898 3.7074876 37.159317
59.544582 18.316982 44.716404
53.278141 15.231746 44.194153
58.138535 21.466894 26.110075
56.287621 15.221684 26.923189
55.434898 4.353899 31.675028
55.434898 5.1920195 29.232418
49.495762 21.451967 39.762482
52.642555 11.91155 39.752602
47.312897 16.530762 46.390076
50.301788 14.878462 39.75259
58.561905 15.228043 33.558838
48.552799 24.00539 35.498497
53.727825 25.877306 28.030855
58.518627 19.407576 42.859901
55.434898 9.2717628 31.289042
59.006939 20.598545 31.072664
55.434898 8.4976377 38.284939
55.434898 4.7539482 38.786903
49.347694 6.0719247 39.752602
47.388409 3.7511501 39.752579
54.302914 10.897348 39.752602
51.257412 15.23068 43.814533
60.526051 18.187183 44.07795
57.180199 15.22418 30.809668
48.311375 28.262684 28.38921
62.2281 17.01034 42.236526
51.843346 14.469249 39.752598
49.099701 15.234262 45.092476
61.728813 17.876846 39.429703
57.995838 19.911079 42.051929
61.779331 16.46965 33.436501
55.888618 15.220569 34.354889
44.469685 26.497707 31.336555
58.685661 15.228387 41.052444
55.434898 13.43939 32.247108
53.507851 26.097267 27.548584
56.824219 15.223184 36.970352
59.95866 15.231947 40.497845
55.434898 2.6855087 39.26506
46.544086 27.838484 29.097586
55.780121 21.400806 39.847916
56.95536 15.223551 35.264099
55.434898 14.151371 37.965748
47.443085 19.387648 43.209702
49.282188 23.44128 36.44051
61.692505 17.91316 33.829239
47.293915 7.310267 39.752602
61.405464 18.20018 31.397095
51.826954 25.473772 33.046436
51.561417 24.225054 35.13168
45.639263 20.08997 42.036896
50.475521 22.148537 38.599274
55.233879 15.225049 41.80423
53.772259 20.433681 41.462917
57.562252 22.043137 24.993912
62.217724 16.566116 31.962238
55.434898 12.474337 34.632099
49.457031 18.175491 45.233894
48.71616 25.847853 32.421757
47.932186 15.234476 45.168724
57.093433 18.323442 44.986828
46.566505 18.175571 45.233757
45.355568 2.6055951 39.752556
58.265266 15.229503 42.350067
50.065712 22.10788 38.667164
47.526234 16.800121 46.566299
59.778442 19.827093 29.446665
45.437317 14.263418 39.752579
62.077305 17.528385 34.402557
58.249821 15.255466 45.384903
44.876846 6.6388135 39.752583
55.434898 14.446618 30.284916
55.434898 14.221773 34.150215
53.419075 4.2891116 39.752602
52.754353 18.50058 44.691029
49.062756 15.224695 41.67794
47.43906 14.442279 39.752583
57.124786 15.853412 45.427101
51.140823 5.3316674 39.752602
57.692314 19.373924 43.232616
59.729694 15.231306 40.564178
55.434898 4.8488245 30.467283
54.936512 24.668705 26.810572
57.314152 22.291218 26.509768
55.434898 6.1151638 33.015179
58.70507 20.900394 32.709587
51.641541 8.4243994 39.752602
55.434898 12.239082 35.185764
51.39724 27.830545 27.718845
60.122696 15.232407 30.441515
50.270836 23.796053 35.848076
45.06567 7.8948684 39.752594
56.415955 20.821043 40.816063
45.766243 3.4396844 39.752563
59.215759 15.232498 42.994034
57.891144 20.139362 41.553257
52.803513 8.1610107 39.752602
53.911388 22.55114 37.92696
44.863705 26.330162 31.616344
54.529766 25.07542 26.566236
61.348495 18.257149 27.248074
54.471752 25.133429 26.832273
46.818062 16.038984 45.427101
49.061581 10.347557 39.752602
62.2281 16.914413 41.030628
45.015869 26.747364 30.919653
61.534767 18.070889 37.313408
48.047043 23.185913 36.866947
44.339314 24.32192 34.969917
55.434898 7.6280479 34.666763
54.780617 24.824591 30.623512
54.589573 23.59454 35.722752
54.70924 11.641793 39.752602
55.434898 12.080061 33.998932
48.017319 18.229845 45.143127
52.344894 4.4453483 39.752602
59.252396 20.353107 31.500523
48.060692 14.184966 39.752586
58.147377 21.458046 24.614893
54.027283 4.1774292 39.752602
51.100914 5.8310943 39.752602
57.109646 20.793715 40.605309
58.82885 20.776619 25.46257
60.752983 15.234167 39.592888
55.434898 9.795187 39.655079
46.226875 14.061995 39.752583
47.072598 20.987659 40.537834
56.542015 15.222395 29.241423
50.212719 26.576504 31.204971
49.497147 15.230085 43.602077
59.646809 15.231506 42.043007
47.684162 3.879303 39.752586
51.596043 21.029305 40.468292
53.246284 17.690231 46.044235
46.90163 15.222139 40.7659
62.035191 17.570496 36.462353
53.045689 15.231821 44.220818
58.578976 15.22809 28.729885
61.122398 15.453859 30.901955
49.471458 15.224144 41.481491
55.434898 14.093235 28.784035
53.41581 5.2494178 39.752602
60.938938 15.234687 35.268703
56.439301 15.222109 27.442596
55.434898 11.345738 32.351276
47.728073 23.832819 35.786674
60.976227 15.234791 31.635801
50.02927 23.080681 37.042679
44.897675 24.571474 34.553188
56.153397 18.181374 45.224068
59.894325 19.711218 31.522945
50.221012 14.360771 39.752594
59.239418 20.366083 36.765636
62.033508 17.572174 33.375992
59.128933 15.229628 28.905472
61.576553 16.425032 33.687027
55.434898 11.474853 39.302681
55.434898 5.8506279 30.010723
48.782951 20.728476 40.970642
50.168423 27.157749 30.234348
55.434898 9.9482403 39.11438
55.434895 14.922882 38.766098
45.343449 12.712306 39.752594
56.470356 15.222194 34.867504
54.389851 17.211733 46.566299
45.18792 12.966542 39.752586
60.722816 18.882784 37.984776
60.617516 16.415108 44.269405
59.131569 20.473927 27.341362
54.822769 24.782436 29.635471
48.063587 25.934532 32.277008
45.985596 21.100653 40.34914
55.434898 7.8911209 36.396919
52.871708 21.090664 40.365822
46.936836 6.2896571 39.752594
57.46767 22.137711 35.245625
56.149849 15.221298 35.263088
58.965015 20.640471 33.271843
49.87434 17.997658 45.530861
61.367592 18.238052 28.434261
44.862175 25.190605 33.519295
55.434898 2.7696538 38.063713
55.64674 15.219893 32.384945
45.973175 4.7878799 39.752575
59.66267 15.231119 38.511269
50.436447 1.7378742 39.752594
45.118786 25.991096 32.182552
61.270557 18.335077 29.750658
52.849182 23.725357 35.966125
59.472446 19.639633 41.29269
54.48703 2.1526732 39.752602
55.434898 5.464005 37.873348
56.055088 23.550201 29.479214
51.791634 15.234877 45.311993
52.584785 1.7778074 39.752602
55.434898 6.5981069 29.29443
55.740795 15.221614 40.578648
55.61776 18.379025 44.894012
58.775909 20.829565 31.238201
51.487644 15.233665 44.878998
61.122593 16.643198 45.621166
56.553566 21.931015 38.155464
55.434898 12.335055 27.790897
59.41114 15.2334 43.278908
52.017548 26.035946 31.842115
44.895561 25.696562 32.674393
54.807079 24.46994 33.191357
58.453819 21.151632 35.883423
47.563477 11.729548 39.752602
57.684464 15.22559 36.88855
57.068176 22.537178 24.725069
59.004852 20.60063 28.253021
49.148483 17.789368 45.878681
61.266129 17.475647 45.218475
48.729286 22.881124 37.375916
61.807056 17.798618 37.197388
56.931637 22.190861 37.09058
47.312614 24.711155 34.319939
62.026955 17.57873 36.280907
61.135616 18.470009 41.570763
52.582333 15.235139 45.405441
54.954292 5.67379 39.752602
55.434898 4.4963298 31.997744
46.061684 28.105099 28.652359
49.965443 7.2798905 39.752602
55.434898 11.048875 39.565323
47.986355 3.5331526 39.752586
57.794106 18.698177 44.361053
50.067101 7.111445 39.752602
55.386841 23.241661 35.85812
55.292389 24.312851 28.347597
61.965477 17.640203 41.365902
51.664742 26.529812 30.889627
50.101246 15.618069 45.427101
50.36348 23.212954 36.8218
59.305939 15.235143 44.305527
54.676186 20.231791 41.80006
55.434898 3.5911107 29.937069
46.158363 7.4479523 39.752598
44.981754 24.228405 35.126087
49.041035 25.702648 32.664234
57.82045 21.784952 34.315178
55.434898 3.0821643 37.003666
45.91729 9.8561869 39.752602
48.579704 15.436438 45.427101
53.312176 21.567326 39.569847
46.09771 7.7051129 39.752598
46.158749 27.792629 29.174156
50.041183 26.368734 31.551929
48.44701 7.5816989 39.752602
62.228096 16.61471 36.297066
48.883354 14.23255 39.75259
60.151154 15.247787 43.499905
48.374908 20.147043 41.941582
56.114693 22.88768 36.06583
50.946033 23.85535 35.74905
55.434898 5.2470136 33.888336
49.52095 15.226246 42.23185
45.369797 21.521221 39.646828
58.616959 20.988501 28.073212
49.245899 9.0510511 39.752602
50.400841 17.765636 45.918312
55.434898 12.367033 36.484592
46.998615 24.446045 34.76265
61.417179 16.389963 33.551289
49.771523 15.225378 41.921745
62.228104 17.106377 35.571537
53.473129 21.470768 39.731083
49.029705 23.999535 35.508274
47.37896 15.219646 39.875484
55.434898 8.4605865 36.625164
60.525986 15.233532 37.155716
46.268608 5.8036795 39.752586
55.434898 12.424495 36.553726
60.46434 19.141243 32.100025
56.651089 15.2227 29.738213
48.474579 27.447973 29.749699
55.434898 2.8746753 30.57106
55.434898 5.1916623 34.15757
55.202137 23.805882 34.551567
53.628929 15.234305 45.107887
56.691032 22.914303 29.202562
56.931431 22.673918 31.960327
46.069744 6.8228707 39.752594
48.556343 27.896122 29.001333
57.080219 15.2239 35.323292
58.105347 15.226765 26.586597
57.382904 15.234746 45.264969
46.057037 15.230585 43.78022
56.319401 22.342878 37.301056
55.434898 13.052206 33.089531
49.931309 2.3049061 39.752594
50.294323 7.9273391 39.752602
55.434898 9.3290472 36.503826
60.628868 18.976723 24.851624
54.649548 15.230366 43.701599
47.045353 15.231369 44.059643
56.217819 23.270004 34.951832
55.434898 6.0013328 39.255592
49.657143 7.8018036 39.752602
55.337017 24.268223 29.687897
51.372944 13.958021 39.752598
60.620728 15.233797 37.770203
62.145599 16.550247 26.021315
45.600754 19.103951 43.683449
57.193947 17.478161 46.398373
60.51088 19.094713 39.828487
56.878429 15.223336 36.010612
47.645386 22.928301 37.297134
46.818184 26.303108 31.661522
61.031582 18.574036 39.17308
49.98774 23.119286 36.97821
55.434898 11.388948 31.663357
49.863457 23.404984 36.501125
58.010517 15.226501 36.067993
47.892002 15.221955 40.700291
55.053673 2.7513261 39.752602
51.463936 8.4332619 39.752602
62.228096 16.656235 30.764072
46.441498 15.635933 45.427101
58.797131 20.186895 40.521603
52.960777 15.224279 41.529732
55.434898 7.4527845 29.894987
55.434898 11.413183 39.52874
48.488052 17.78747 45.881855
56.354607 23.250704 28.106405
47.431824 14.861091 39.752579
58.340668 21.264778 35.748795
59.766861 15.23141 25.941048
55.434898 8.973938 28.209232
57.065331 15.231878 44.241699
58.093048 21.512377 24.528332
45.656536 18.728544 44.310349
61.772198 17.833471 28.989571
61.122398 15.675551 30.881773
61.122398 15.827711 41.741493
53.448647 26.156471 26.987364
58.126907 15.233983 44.859577
61.209671 16.344303 29.624113
60.119965 19.485594 38.157501
55.434898 7.6159115 28.575373
55.434898 11.548891 27.697182
47.562424 15.231552 44.125137
49.654839 18.460957 44.757195
62.116737 17.342587 44.626965
62.016014 16.52173 38.360069
58.123631 15.226817 38.541206
49.937645 25.460115 33.069241
55.532509 24.072742 30.030256
55.434898 4.1816373 37.343639
57.827301 15.225988 31.576401
52.735847 21.732658 39.293751
55.850582 23.754696 33.955307
61.385227 18.220417 37.113716
54.953491 24.651724 28.913654
55.434898 6.4592724 33.920296
55.434898 3.5811958 32.389809
46.034248 22.100262 38.679886
49.541473 16.411648 45.832348
49.856461 25.972097 32.214275
59.106655 20.498837 31.609524
56.702847 15.222845 38.323536
55.019432 24.585785 27.92071
60.201141 19.404423 30.391464
55.434898 11.380981 37.029907
46.445396 25.456257 33.075684
56.599327 15.226949 42.482262
55.434898 4.4203467 34.59185
43.721279 27.018169 30.467438
57.911331 21.694082 36.667061
55.434898 13.06688 39.493736
49.219414 25.967411 32.222107
57.301098 20.876253 40.195694
55.434898 7.3306241 33.095875
61.122398 15.459724 38.878422
52.702415 24.55125 34.58696
46.196808 9.4446878 39.752602
59.556705 15.230823 37.483829
58.944649 16.396002 45.701881
59.177498 15.229762 38.030014
62.228104 16.71973 35.281952
55.434898 12.854792 32.261345
55.434898 3.800324 31.39892
59.088768 20.516724 32.198486
58.694695 15.228414 37.445942
55.434898 11.046038 31.311283
62.2281 16.639494 43.180794
55.434898 7.0883031 37.952969
51.164055 21.250294 40.099251
60.548325 19.057266 25.022436
60.147247 15.232473 34.176361
55.434898 14.744873 27.641857
59.631393 19.974133 36.78112
58.240387 21.365047 25.958973
56.898132 22.707214 35.500919
61.227947 18.377682 38.547066
59.202606 16.423794 45.782021
45.867603 24.477789 34.709637
48.925255 13.490912 39.752594
49.680424 18.464018 44.752079
54.491753 25.113434 29.554708
48.21035 7.0352039 39.752602
55.434898 7.0745049 38.745712
53.123779 24.496212 34.678875
61.122398 16.131943 26.830093
53.68663 21.686501 39.370827
57.277943 16.039089 45.427101
55.053223 15.224968 41.77533
57.84214 21.763268 29.12038
59.444122 20.161388 33.178074
55.434898 9.3010521 38.031185
57.176029 22.429335 31.544403
62.228096 16.787228 39.886585
56.611313 22.994013 31.447697
62.2281 16.661346 42.421299
47.380928 14.898054 39.752579
55.434898 4.64433 30.885895
55.434902 14.461445 36.079041
60.308956 19.296616 32.486851
46.667656 10.835057 39.752602
55.434898 10.515512 37.374363
60.580608 15.233685 41.695766
53.669586 15.726012 45.427101
48.431286 21.620609 39.480865
56.034653 15.220978 36.723354
48.083965 19.405254 43.180298
57.57658 21.518179 38.223545
45.600971 23.983833 35.5345
57.467064 22.138321 35.262772
53.489471 15.225028 41.79705
55.434898 10.929173 27.92046
61.167313 18.438316 33.193932
50.211647 20.784416 40.877228
49.994328 15.223193 41.141975
55.434898 2.1256261 39.261269
48.093323 15.821621 45.427101
55.434898 8.1698265 29.545723
48.893608 23.761028 35.906559
55.434898 14.531624 32.284294
61.587372 18.01829 35.845207
44.755867 26.767681 30.885727
61.222908 16.347216 30.939674
47.768997 4.794281 39.752594
48.97245 18.666317 44.414257
49.723305 12.304029 39.752602
57.166664 18.25481 45.101437
58.814636 20.790836 31.597523
50.581955 21.64904 39.433388
44.911995 25.718657 32.637501
60.629333 15.233822 32.019352
52.520683 25.194628 33.512585
61.36274 18.242899 27.716877
57.940025 15.226303 34.47266
50.536667 5.3495245 39.752602
48.888184 27.322678 29.958935
46.041916 3.48458 39.752571
55.434898 9.8076067 36.29409
60.215218 19.39035 29.168261
61.517529 16.412046 37.636967
51.21022 15.231845 44.229656
54.707352 22.459713 38.079639
55.434898 4.8997865 30.216091
46.037579 18.485077 44.716919
55.462395 24.142857 27.746109
47.939548 2.7780163 39.752579
55.434898 12.144182 27.334583
46.868336 20.970226 40.566944
50.647152 11.120883 39.752602
49.429611 1.4968423 39.752583
55.434898 12.913061 28.28886
53.619267 20.144032 41.946613
57.309311 15.224541 37.052532
55.434898 14.112203 33.683052
46.969269 25.216665 33.475777
61.122398 15.940104 37.038063
48.962963 18.615049 44.499874
55.786697 23.818571 29.198523
55.434898 12.693896 39.663918
55.434898 5.2275186 35.698418
59.85083 15.286295 43.802822
55.434898 7.3437452 29.648352
54.154694 15.22076 40.273762
54.117863 16.600002 46.566299
54.865395 16.323336 45.427101
56.479584 22.872841 35.740032
48.677853 19.676111 42.727997
59.934338 19.671211 38.635338
56.806686 15.226789 42.358162
54.190529 25.168835 31.960524
61.645988 17.959675 35.127129
50.493397 15.235176 45.418819
55.434898 5.2039609 30.184042
52.472641 15.224783 41.709457
60.480255 18.757101 42.617424
62.213005 17.392691 32.506554
52.256886 26.377932 30.698879
44.158085 24.483706 34.699753
57.183804 22.42156 30.477543
54.219326 15.229832 43.511032
52.3405 20.310844 41.668049
47.670727 15.228709 43.110519
61.393707 18.211939 36.8806
54.13039 5.8606706 39.752602
56.964424 15.223577 31.714693
59.667603 15.231133 29.738874
55.434898 4.1058793 37.718605
47.730568 26.772743 30.877277
46.871876 21.825188 39.13924
47.894131 13.46373 39.752594
61.122398 15.330068 27.230173
47.415268 3.6850584 39.752579
50.569054 19.449146 43.107006
55.434898 4.9693303 30.145905
53.272827 25.100773 33.058495
59.254089 20.351412 26.338882
49.925259 21.101742 40.347324
48.138401 22.766342 37.567596
54.546879 24.431156 33.554218
45.089138 10.243364 39.752602
59.759613 19.845921 29.259682
55.434898 4.9183383 30.371855
55.961136 15.220771 39.96701
61.333984 18.271656 28.455921
48.849289 8.9319038 39.752602
55.434898 7.8463092 33.809853
52.550056 25.140057 33.603703
55.434898 13.1441 36.835072
62.220749 17.384951 42.90596
52.939598 26.665483 27.040739
50.138748 23.08577 37.034184
55.434898 12.844753 33.623989
47.516884 15.221301 40.466576
46.788139 15.233601 44.856136
48.037666 27.507719 29.649929
45.917458 18.890648 44.039642
53.785088 4.1362395 39.752602
53.433113 8.3585815 39.752602
55.190208 8.9663906 39.752602
60.896759 18.708851 28.187244
58.958225 16.480097 46.15284
55.434898 12.769745 26.551662
59.057415 18.608902 44.432026
55.590744 19.785368 42.545547
61.122398 15.705105 38.948376
48.662888 28.078838 28.696211
55.434898 13.367661 38.088276
45.981327 19.267231 43.410789
51.715218 27.539989 28.168789
53.232357 19.163967 43.583229
58.999954 15.245788 44.640289
55.434895 9.0780916 36.653664
45.881569 5.9646873 39.752583
54.938683 24.666531 27.215794
48.482742 26.504532 31.325157
46.486908 20.484314 41.378368
55.434898 6.936677 31.921741
46.741798 24.983528 33.865097
49.520233 20.144341 41.946098
46.798763 22.104538 38.672749
55.434898 10.877308 30.556051
57.369476 22.235897 31.275515
56.763672 22.841663 32.398907
50.176197 18.680912 44.389889
60.223541 19.355808 41.291588
53.459007 6.7647753 39.752602
45.63409 9.3906612 39.752602
54.027428 5.6303563 39.752602
61.278431 18.327206 27.567125
61.616482 16.433819 25.791405
55.434898 12.796978 32.790924
51.828732 16.311296 45.427101
60.278389 15.23284 36.082943
50.619202 13.359799 39.752602
61.915024 16.978226 44.828686
49.32505 25.705723 32.6591
54.360863 9.1623859 39.752602
55.349274 23.713984 34.647312
60.286079 15.232862 39.634785
60.074425 15.232269 27.64043
59.440678 16.552101 46.489986
51.141811 15.321404 45.427101
46.197517 20.807358 40.838917
57.371887 22.23349 30.178265
60.09729 19.50827 34.295856
57.864815 17.599586 46.195602
56.90102 22.704321 34.015717
60.48423 19.121349 31.103514
51.605167 4.852869 39.752602
53.327236 24.587585 34.36047
61.858856 17.746819 32.625996
54.830139 4.739851 39.752602
52.241814 1.4945962 39.752602
50.763874 22.481676 38.042961
46.099251 25.763714 32.56226
60.988548 15.234827 40.50375
55.434898 15.053938 26.532984
50.119362 12.033644 39.752602
51.465477 20.423584 41.479782
55.724613 22.031715 38.718296
46.427677 15.228 42.857388
49.017212 11.50304 39.752602
44.619583 9.6037569 39.752598
51.591206 16.537964 46.42379
44.300537 25.322231 33.299496
48.765976 21.881516 39.045174
56.827309 15.223192 40.259113
47.431969 5.9926057 39.752598
48.322121 19.556511 42.927715
49.38546 19.601826 42.852047
52.553871 27.051184 27.508726
61.128456 18.477173 31.415554
59.878185 19.727356 38.572803
60.56459 19.041 24.752781
61.426773 16.392075 26.466764
54.51115 21.238234 40.119392
51.187363 21.349569 39.933475
55.434898 8.1393919 33.7043
54.6819 21.714788 39.323589
55.434898 7.2272277 30.203629
55.074211 24.531015 27.473862
51.404369 20.51152 41.332939
58.771942 19.123411 43.357643
55.434898 11.557765 32.056324
57.593922 15.225335 37.192562
49.466263 15.229364 43.344254
55.575176 15.219692 27.557856
61.88467 16.492832 36.805653
54.510109 16.470776 46.1092
58.588211 21.017244 24.504854
55.434898 11.794079 36.36657
60.230892 15.232708 31.248209
60.898537 18.707075 37.319027
44.798477 24.187433 35.194504
48.851227 26.874352 30.707594
44.563995 11.373383 39.752602
60.16943 15.232535 38.78442
48.538261 3.5738945 39.75259
60.014637 19.590916 38.103035
52.231697 8.8135757 39.752602
60.718975 18.376284 43.385212
50.421604 11.325693 39.752602
53.614471 15.229315 43.326675
50.952194 15.22823 42.939514
58.621178 15.228208 39.977032
45.658176 15.231069 43.952805
47.121544 15.378971 45.427101
51.291374 23.253147 36.754673
58.174145 19.322899 43.317829
50.730469 18.030437 45.47612
55.744133 15.223333 41.191883
61.897144 17.708534 40.356266
44.511597 11.370173 39.752602
57.818336 21.014683 39.312542
55.434898 13.049379 39.23185
50.88382 24.528883 34.624313
53.18346 14.366063 39.752602
57.103832 15.223967 28.407995
46.613247 25.56617 32.892139
55.434898 15.0368 37.766014
46.940105 16.439463 45.962585
52.983208 22.368954 38.231197
55.434898 10.180372 28.920481
55.434898 4.2398696 30.47794
51.240932 15.222336 40.835979
57.894161 21.711246 27.942701
55.434898 4.6198711 32.11879
55.799877 15.232027 44.294868
56.278893 23.326414 31.512747
46.475857 5.9358273 39.752586
60.044182 15.234811 43.398376
53.17725 17.950853 45.609024
55.971245 15.2208 37.501785
47.152332 24.307867 34.993389
52.931816 8.4569311 39.752602
55.016312 12.906775 39.752602
45.332455 27.207054 30.152012
62.228104 17.104385 41.507198
62.127773 17.477917 42.745834
61.247875 17.824432 44.314865
46.224033 19.241337 43.454033
55.434898 9.0340137 34.083199
55.434898 10.010052 34.218479
55.434898 14.495472 35.800667
61.122398 15.473929 40.342045
55.434898 11.805534 37.127903
45.010223 15.221718 40.615376
52.910751 22.165234 38.571388
45.41832 27.44326 29.757572
55.434898 8.1779251 31.695923
61.880981 16.49202 42.291248
59.996284 15.234924 43.505512
52.827953 26.777119 28.589626
52.862812 19.570732 42.903969
59.123417 20.013325 40.654049
60.966888 15.234764 38.605816
50.27079 8.0055714 39.752602
61.118744 18.486881 24.922316
50.547478 27.035664 30.438219
45.25351 20.660168 41.084709
54.443287 11.369785 39.752602
58.920834 17.982506 45.556164
55.434898 3.2949345 32.236786
58.166149 21.439281 29.529533
49.651955 7.1235328 39.752602
47.722801 28.346306 28.249565
54.950207 5.1809878 39.752602
58.93354 20.67194 24.211157
51.047981 4.4740963 39.752602
47.84771 27.582577 29.524921
56.398525 21.915871 38.350533
51.656239 16.344027 45.515724
50.782227 22.834187 37.4543
54.897495 5.8559833 39.752602
54.113773 15.222898 41.036972
52.006844 15.225542 41.980247
56.222633 23.382668 26.61504
58.557858 20.712881 39.37067
47.765297 27.954954 28.903091
46.879852 23.504332 36.33522
55.434898 6.1986289 35.466484
55.434898 5.6468134 30.398151
54.716652 17.446188 46.451763
58.250637 21.354799 32.247368
59.122349 20.483139 36.073647
54.124722 15.225288 41.889412
60.566376 18.413202 43.440247
61.122398 16.102152 38.936295
58.562504 15.228044 40.753967
49.4958 15.222519 40.901402
57.264965 20.130802 41.968704
49.688393 11.57223 39.752602
61.122398 15.438558 36.436741
49.895477 23.798199 35.84449
53.814728 11.882259 39.752602
55.434898 12.648502 33.543644
61.989849 17.615837 26.789097
60.674339 15.233948 34.197819
56.201538 15.763723 45.427097
55.434898 6.1554537 37.985081
57.325577 18.79496 44.199432
48.207413 4.3096952 39.752594
62.200386 17.405308 39.534473
59.038548 20.566936 26.223545
57.579655 15.225296 26.138554
51.398312 20.635952 41.125153
57.38369 15.234304 45.107903
45.113838 25.977631 32.205036
55.434898 7.3068447 29.17189
52.593582 18.723415 44.318913
59.440434 20.165081 26.996782
60.04512 17.118391 46.566299
55.434898 8.6448498 29.674137
60.771519 17.680433 45.171833
51.133671 15.532342 45.427101
50.385971 24.545553 34.596478
58.24514 21.360291 36.688663
61.769184 16.467421 38.468353
55.434898 2.6701765 34.857899
61.988686 17.616997 33.419086
55.616611 21.29422 40.025902
60.478107 15.233399 37.276627
48.218109 15.232759 44.55629
54.41293 22.940052 37.277512
55.434898 1.4819537 39.419521
50.018173 27.078709 30.366341
49.833904 15.231449 44.088364
48.434277 20.420197 41.485443
55.894997 22.684746 36.821907
48.484375 16.109852 45.427101
44.564453 26.82226 30.794586
60.558781 15.233624 41.305931
59.752998 19.852533 26.165104
53.029743 6.8032017 39.752602
54.463371 11.166212 39.752602
48.808964 12.596883 39.752602
50.612564 9.6345367 39.752602
55.434898 12.691954 26.979549
58.030231 15.226557 31.713057
51.591228 21.891018 39.029308
55.434898 13.605743 31.269987
55.434898 6.8777814 30.74667
44.04929 26.440195 31.4326
61.600174 16.430229 39.470062
57.940334 21.665075 37.185719
55.330475 24.274767 31.073418
55.434898 6.029592 29.221157
49.413307 15.221025 40.368198
60.09861 19.50695 29.527111
45.828362 9.7492876 39.752602
61.65308 17.952583 29.027996
60.430256 19.175325 31.169498
60.539108 19.066481 34.274082
55.434898 10.548494 38.241131
62.228104 16.942919 33.438534
48.498909 4.2721195 39.752594
59.241165 15.229941 32.130463
58.311893 15.227343 36.270439
57.00486 20.77755 40.752827
53.779068 23.763851 35.901844
61.122398 16.26931 28.20163
58.408035 15.227612 31.012934
60.712303 18.89329 31.771029
50.259037 2.3688879 39.752594
50.186531 27.637934 29.432484
51.663067 16.455833 46.039238
52.75227 16.527571 46.375134
61.984127 17.621559 41.735641
55.434898 14.791707 29.843161
49.277794 10.562717 39.752602
52.973911 3.2170901 39.752602
55.261837 21.612709 39.494053
53.582359 15.229588 43.423958
45.908009 7.824872 39.752598
53.131615 23.918663 35.643326
59.991051 15.232038 40.569389
55.434898 2.3581154 36.12624
49.309772 21.631502 39.462677
49.599808 7.1874766 39.752602
60.692909 18.912689 29.252316
45.203331 26.081997 32.030754
55.434898 5.1463218 36.914413
51.221153 12.554439 39.752602
47.036976 20.606396 41.174507
49.834255 17.893246 45.705215
51.619743 6.9585371 39.752602
55.434898 3.9307289 39.27084
61.572361 16.625465 45.171368
58.314728 21.290707 33.052692
56.601349 15.222561 29.173992
55.434898 4.7729793 33.67807
61.055496 15.235013 33.4655
54.13163 17.826878 45.816048
51.320858 14.903212 39.75259
62.001865 16.51862 42.686729
55.434898 2.8815482 32.681213
56.633144 18.852163 44.103912
55.155136 16.406334 45.807461
53.238018 16.378956 45.679272
45.528744 12.385501 39.752594
44.046276 25.991552 32.181789
47.604477 2.3202362 39.752571
57.155388 15.22411 28.234772
54.011322 15.221355 40.485744
61.562042 16.421839 38.06435
55.434898 5.3121772 29.861574
57.551708 21.069941 39.433132
61.551304 16.419477 31.276333
51.505318 14.176398 39.752598
47.552956 15.601952 45.427101
55.434895 10.880896 32.880112
55.434898 1.8501415 37.911987
51.758675 8.259202 39.752602
54.595322 19.989563 42.204559
46.833294 15.225403 41.930656
48.815464 25.164692 33.562572
47.263351 3.1600494 39.752579
46.984699 6.5814166 39.752598
49.576218 15.221169 40.419575
58.207962 16.395744 45.757881
60.227242 19.378323 35.385731
55.434898 12.117796 39.319839
59.822884 15.231567 30.069777
46.075012 19.457851 43.092468
59.908112 17.111467 46.566299
48.857162 15.225254 41.877094
48.732796 25.62331 32.796719
48.655025 12.823814 39.752602
55.434898 12.538469 28.737797
58.237862 15.227137 36.017544
47.868767 15.231342 44.050404
59.549191 20.056326 33.576847
62.228104 17.126133 43.088692
55.434898 14.763833 35.740067
57.343307 17.504486 46.354408
48.81406 12.661516 39.752602
55.434898 11.09429 29.773634
62.228096 16.793591 31.876989
51.567604 2.5187149 39.752602
57.932823 15.226283 25.66992
55.434898 2.4909239 33.044731
55.434898 13.562971 27.226768
61.122398 15.70298 41.704433
60.336597 19.268974 35.047905
48.532646 2.7305 39.752583
45.796356 25.72842 32.621197
45.015743 15.219325 39.76107
47.733246 26.641157 31.097006
45.359436 22.498013 38.015682
57.928299 21.677113 32.801277
57.913521 21.691889 29.346666
55.255032 7.8655257 39.752602
45.994469 17.616436 46.167465
52.192055 19.50843 43.008011
52.480457 20.869804 40.734642
60.405106 19.200478 29.423885
55.434898 11.319846 33.143494
49.600922 21.467705 39.736198
55.434898 12.820114 35.21365
57.43755 22.167835 34.202606
52.659908 23.089617 37.027756
53.624065 15.230372 43.704517
46.219639 9.3268242 39.752602
54.570827 24.838341 32.453674
57.281151 15.224462 39.401016
52.008537 25.147346 33.591537
55.434898 13.97857 35.904816
54.145653 5.7741108 39.752602
56.281357 23.323944 32.497082
45.531609 27.180349 30.196608
61.664906 17.940758 26.384869
61.240353 18.365284 39.702908
59.065281 19.407242 42.314106
61.731743 16.459181 40.86916
56.629269 15.222639 33.181816
55.434898 2.8695905 38.985229
47.064396 23.360664 36.57513
49.199062 9.3982792 39.752602
55.434898 8.7452345 30.947683
55.434898 11.243861 35.143242
55.434898 14.952236 34.341713
46.814144 14.326597 39.752579
45.841698 4.9234505 39.752579
58.862442 19.64287 41.894176
61.122398 16.03429 28.122757
54.425117 25.180061 29.518658
47.835068 6.2448606 39.752602
55.434898 10.730242 37.869125
56.013313 15.225915 42.113228
61.122398 16.045773 32.339115
50.256172 10.12098 39.752602
56.45182 15.226914 42.469879
55.434898 11.037709 32.903454
55.434898 3.9739852 33.616379
57.462196 15.224968 25.712471
55.258888 14.774684 39.752602
55.654957 15.219915 36.452209
55.445297 15.579442 45.427101
60.187862 19.417702 29.640017
59.907841 15.231805 36.10479
46.352688 24.027805 35.461063
60.377869 19.227705 33.671825
53.510422 24.818909 33.565884
57.982853 15.226423 33.681473
55.434898 12.450163 39.136883
59.894436 19.711113 37.051041
56.798618 20.899265 40.637379
59.803429 19.802107 38.09338
61.122398 16.280649 38.375229
47.166405 6.952848 39.752602
45.998844 20.357264 41.59053
62.228096 16.726896 43.602367
57.670597 17.618925 46.163307
46.22242 15.223957 41.414356
55.434898 12.200173 37.849274
50.446861 21.073467 40.394539
57.928738 20.290451 41.116325
61.124172 18.481455 38.318249
44.590485 4.7389956 39.752563
58.953072 15.229136 32.61496
60.42379 19.181791 28.316643
60.11652 15.232388 26.709944
48.754368 25.600147 32.835403
61.99437 17.611317 34.095242
49.115135 18.119995 45.326561
51.709965 21.424572 39.808228
60.905807 18.699806 26.108627
50.988121 22.469946 38.062546
44.913605 5.2480402 39.752571
56.995144 22.610205 33.012764
52.176468 7.2599239 39.752602
50.982361 4.657856 39.752602
60.091213 17.731874 45.716217
56.597324 15.233374 44.775871
45.991604 19.680496 42.720673
53.55254 23.848976 35.759697
55.434898 7.9369631 37.41452
59.771309 15.231423 31.524324
55.457031 15.219362 34.429222
62.161232 17.444468 37.275627
50.410347 15.230749 43.838409
51.263245 6.0186362 39.752602
56.706299 22.899033 27.57457
60.65168 15.233885 29.042393
58.100693 16.527283 46.373775
57.889359 20.239017 41.291656
55.434898 12.329716 26.68351
61.122398 15.464063 38.472183
60.560986 15.233631 38.475739
62.228096 16.989388 37.574318
54.41082 6.1896677 39.752602
55.767197 15.220228 28.998734
55.536415 15.219584 26.750488
61.277607 16.359253 34.743641
55.434898 10.991708 34.589436
54.274082 15.221217 40.436764
44.916519 24.649813 34.422371
48.099705 17.764225 45.92067
45.953011 15.226667 42.382202
48.496571 22.092051 38.6936
44.485619 25.562336 32.89854
51.828541 27.776468 27.398621
58.215618 15.227074 26.421246
51.699265 3.5001602 39.752602
55.434898 14.425131 26.902061
49.527927 22.994553 37.186501
53.044987 15.079113 39.752594
57.036934 22.568424 31.987923
55.434898 14.315445 27.963484
62.181053 17.424644 37.953827
55.809631 23.795641 26.548725
55.434898 4.1482449 32.324883
47.11441 15.230175 43.633369
61.289356 18.31628 32.421803
47.33445 11.600079 39.752602
54.084885 25.520275 27.117939
47.298431 14.624763 39.752579
48.009148 20.9216 40.648148
53.710598 24.031322 35.447323
59.439743 20.165771 28.494947
55.712189 18.743364 44.285599
53.330921 19.335117 43.297428
51.889236 20.864338 40.743767
60.404007 19.201569 28.878355
58.586815 20.142916 40.848164
61.122398 15.558186 42.348034
53.591576 16.132839 45.427101
55.434898 14.209372 33.614433
47.340343 4.2252188 39.752583
60.709648 18.895947 39.985508
53.806728 15.136806 39.752598
55.434898 13.147285 35.711319
55.434898 11.309521 32.126686
60.799278 18.806324 38.439922
55.434898 5.7773991 36.26247
53.618771 20.491827 41.365829
52.875443 25.308931 32.905724
49.536705 1.6122148 39.752583
56.83754 15.223221 26.234922
55.643963 23.961296 29.397434
55.434898 13.891931 38.589539
55.434898 11.817508 35.50061
55.434898 11.911751 32.182785
45.324249 8.6288433 39.752602
60.025166 17.94441 45.22052
59.146809 17.820702 45.826363
46.472645 25.41012 33.152729
60.416294 19.189285 26.560604
55.434898 5.1691742 32.804276
47.638031 17.112997 46.566299
60.225357 19.380207 33.810852
59.495327 15.230652 39.109943
55.434898 5.7293024 34.949837
55.434898 13.828902 28.15691
58.087036 21.518391 32.433208
45.665451 15.228102 42.893723
44.969387 21.249218 40.101051
50.735725 17.565027 46.253315
53.18684 21.457489 39.753254
55.434898 4.3843741 34.765034
56.23801 15.233889 44.959297
55.434898 2.5693252 36.64246
53.331863 26.273245 28.907236
55.434898 6.5199604 30.370333
57.342247 22.26313 27.93836
55.434895 14.846876 28.987066
46.359745 12.577472 39.752598
55.782593 15.220272 29.083529
52.101036 20.873001 40.729305
55.434898 1.7168133 39.257603
55.434898 14.011528 26.613838
57.905403 15.226206 34.649605
59.546921 15.231136 41.945141
54.783413 11.084479 39.752602
55.434898 11.91062 28.238056
58.279633 15.227253 26.591244
55.434898 7.7320251 33.717903
53.256004 23.284 36.703152
53.394672 26.210442 28.871876
45.271843 20.557877 41.255524
53.15686 4.7266769 39.752602
49.109047 2.0236621 39.752583
55.434898 3.7954364 38.740486
44.395241 25.401665 33.166847
55.434898 9.1933546 29.557362
55.434898 8.1737823 31.587433
56.702744 22.902588 30.608526
61.247635 17.944986 43.996475
46.715675 28.381372 28.191008
55.434898 3.7826309 30.439075
55.434898 9.5844574 36.174568
58.946251 20.659231 27.702017
55.434898 4.5662136 35.067768
61.702911 16.452837 41.911018
48.779369 15.121851 39.752579
44.292046 5.5650525 39.752571
54.073669 23.398453 36.512024
45.089008 4.1180182 39.752563
46.897137 22.285198 38.371063
48.585915 24.309105 34.991325
56.631233 15.226303 42.251884
61.122398 15.586807 35.278908
51.919487 6.5581293 39.752602
46.723675 1.6981302 39.75256
53.858974 15.224372 41.562977
57.20002 15.224235 29.344883
53.39566 25.669231 31.433189
57.503906 22.101482 28.997612
53.765495 20.563684 41.245831
53.101204 23.151075 36.925125
62.012466 17.593216 26.367163
55.434898 2.5485063 36.69128
47.422569 5.0553141 39.752594
56.105816 23.499477 25.363251
59.012177 16.423815 45.889305
62.180443 17.425253 36.231644
56.513828 23.091492 28.544664
54.372314 25.03931 32.120998
60.789047 18.816555 25.126255
50.417965 25.639565 32.769581
59.087902 20.51759 34.431782
55.434898 14.399293 30.796196
53.531319 11.43178 39.752602
51.605614 6.5527172 39.752602
62.2281 16.715778 31.088327
61.835026 16.481907 28.388039
61.711761 17.806862 43.897388
48.182159 24.971937 33.884453
56.737442 15.228481 43.029366
52.346931 1.5210665 39.752602
61.991718 17.613968 41.400944
55.437469 15.48635 45.427101
55.434898 8.9690628 36.709187
55.91116 19.674664 42.730415
55.434898 6.934361 30.002438
55.434898 13.8083 39.308487
48.177628 18.643326 44.452652
50.584896 21.632046 39.461765
49.122761 15.227533 42.690758
50.18829 15.23207 44.310188
57.433006 16.719202 46.566299
55.434898 6.2915931 31.33952
49.200752 16.621094 46.566299
55.434898 8.5508537 35.386246
61.242035 16.39056 43.356018
59.740311 18.226017 44.761097
58.386078 15.227551 38.920135
53.45525 5.7456708 39.752602
62.228096 16.996418 32.454796
55.489544 15.229586 43.42318
55.434898 14.011987 27.919609
51.960167 23.936924 35.612823
49.334671 6.6076202 39.752602
57.15477 22.45059 26.073856
50.207592 21.777111 39.219521
44.47147 10.940212 39.752602
60.35585 18.686457 42.928551
54.164322 7.5261331 39.752602
50.824474 21.10965 40.334122
61.700706 17.904957 35.562515
57.799232 15.22591 34.355656
60.080936 19.52462 24.843327
55.434898 7.9463024 37.690918
59.864067 17.085529 46.566299
62.228104 16.813969 31.679245
55.434898 13.034681 27.034164
51.066177 20.84856 40.770111
46.597191 7.1671276 39.752602
55.434898 15.056949 37.561253
55.216763 19.343391 43.283607
51.296795 1.863732 39.752602
54.609901 4.9181223 39.752602
55.51646 10.890682 27.236525
62.2281 16.625713 36.746765
60.049587 15.232201 39.52132
57.044479 15.231649 44.160042
56.766087 15.223022 33.326527
59.321747 15.230165 39.474319
59.387547 16.404856 45.366665
53.477715 25.402859 32.055168
47.81694 15.227382 42.636818
47.60421 21.270676 40.065224
62.228104 16.793045 33.542721
56.698341 22.90699 28.897041
49.148968 16.023962 45.427101
55.249912 18.736986 44.296253
55.434898 3.3372386 34.892464
58.139595 15.22686 33.730072
53.544395 5.9367952 39.752602
46.660423 25.083057 33.698895
57.627808 17.161444 46.566299
58.841339 20.246086 40.320938
55.327675 5.340323 39.752602
55.434898 12.807276 37.305977
62.115002 16.543512 32.117184
54.989059 11.89415 39.752602
56.871628 19.054026 43.766823
54.823708 24.781494 27.273308
56.461334 15.22217 35.39275
55.404846 22.508816 37.777077
45.59285 18.834888 44.132759
47.8647 20.603508 41.179325
59.043442 16.446648 45.996223
49.38335 18.585598 44.549057
58.604771 19.00753 43.831104
55.434895 11.655937 31.064507
61.466736 16.400869 33.989697
61.596634 18.009027 41.605862
47.049694 19.046417 43.779526
46.901253 19.925421 42.311672
54.466949 22.280071 38.379623
60.129696 15.232426 29.614779
50.032677 7.7506208 39.752602
55.434898 2.7897832 35.97084
55.434898 13.716196 30.915382
49.566727 15.22206 40.737598
48.805325 24.997154 33.842342
48.069233 22.398254 38.182262
48.641243 24.512348 34.651924
62.228096 17.213734 28.443645
55.183453 23.398399 35.647255
46.651459 15.224644 41.659805
54.593647 22.260077 38.413013
61.898941 16.495972 35.660912
56.634716 15.222654 35.013821
56.163948 21.669424 39.236504
54.145336 25.459824 26.826239
61.279873 18.325766 32.650795
53.862671 15.234483 45.171398
47.8494 18.306845 45.014549
52.923401 26.521156 29.653183
59.285439 20.320066 23.985004
58.512917 15.227905 27.234962
53.53651 25.184227 32.574226
61.175415 18.430216 30.285583
59.388031 20.217476 28.920059
48.931366 28.049999 28.744373
54.444134 14.792344 39.752602
53.602081 22.448303 38.09869
50.505093 26.7089 30.983883
46.788441 15.879462 45.427101
47.698746 8.6666241 39.752602
45.063091 3.3820658 39.75256
61.307827 18.297812 40.476879
61.645538 17.960123 27.336048
61.122398 15.50256 39.816963
61.747238 17.858427 40.597542
55.434898 6.9615407 34.131409
61.122398 15.251105 39.317226
55.434898 14.375544 26.200554
55.434898 14.106464 39.550972
55.434898 12.322859 29.746704
56.793377 22.811966 35.08445
57.092159 22.513201 24.761553
61.548134 16.418779 39.210625
57.509682 22.095703 27.948301
61.105415 15.235153 33.444344
59.49292 18.209747 45.051502
44.622471 26.074438 32.043381
60.178368 17.534348 46.151131
59.080078 15.22949 34.22411
56.936989 22.668356 25.373669
50.718178 10.557469 39.752602
44.55838 25.111511 33.651379
58.108196 15.226774 29.158024
50.093475 19.680233 42.721115
48.643951 26.174286 31.876644
44.098984 24.639601 34.439426
55.434898 6.4756365 37.047066
57.913273 15.226229 32.027325
54.718376 23.387484 36.141205
51.358398 3.9728498 39.752602
58.567448 15.228057 28.875719
49.872292 20.121117 41.984879
52.176235 12.378509 39.752602
61.164276 18.441357 33.298397
55.549 17.502338 46.357994
52.129234 17.72028 45.994053
51.212936 26.02919 32.118938
55.434898 13.041365 37.171768
61.508587 18.097065 36.911537
51.449165 6.1445122 39.752602
55.434898 13.91945 39.470173
55.193665 2.1144838 39.752602
59.737785 15.231329 27.548834
59.982391 19.623158 36.258595
48.324814 12.614931 39.752602
56.414383 23.190926 30.483664
52.219345 23.378492 36.545361
58.518589 17.553337 46.272831
55.434898 5.4694424 34.033607
55.434898 5.2613792 34.006981
56.586777 23.018549 33.418697
58.244305 15.229829 42.544083
59.056023 20.549463 37.934631
54.180988 21.740551 39.280571
59.976883 15.231997 27.176525
59.912342 16.306274 43.883987
55.434898 13.683142 26.706081
57.139168 15.224064 39.585087
61.442135 18.163517 39.655769
51.417549 21.722441 39.31081
52.560394 19.070131 43.739929
52.945999 17.818657 45.829777
56.268597 15.221631 30.032883
59.406906 20.198601 39.313118
55.434898 4.3074064 33.785431
56.123257 16.359617 45.588722
62.123337 17.482361 26.281326
47.99221 15.221283 40.460426
57.388107 15.224761 30.075779
61.860512 17.745163 31.236061
54.843914 24.761293 28.945318
57.172478 22.432884 26.957485
52.799831 21.892815 39.026302
46.924919 15.227152 42.554504
62.228096 17.260382 41.871864
58.347549 15.227443 35.091667
55.434898 6.8556461 31.715698
53.17094 12.803077 39.752602
51.791576 16.35708 45.576839
