# .PCD v0.7 - Point Cloud Data file format
VERSION 0.7
FIELDS x y z
SIZE 4 4 4
TYPE F F F
COUNT 1 1 1
WIDTH 1559
HEIGHT 1
VIEWPOINT 0 0 0 1 0 0 0
POINTS 1559
DATA ascii
62.09742 16.53924 -19.011101
55.438881 9.6960421 -29.641333
57.569595 15.231045 -34.101028
48.205482 22.006203 -29.069729
56.705902 15.222845 -20.578436
55.238441 9.9232941 -29.974785
57.968193 15.228771 -32.482468
57.152328 22.456285 -26.066195
62.231224 16.97971 -24.092697
46.887291 27.499231 -19.953598
60.934242 15.717456 -32.989517
59.834122 15.231596 -18.033039
46.655388 11.943225 -29.977247
57.372772 22.235064 -20.668398
57.004753 17.441071 -36.645039
48.241539 20.365776 -31.792192
55.887379 17.917326 -35.854767
47.77536 26.299946 -21.943844
54.586029 20.359539 -31.801798
55.530895 5.5383525 -18.010445
49.962624 6.8694344 -29.976954
59.760971 15.233243 -33.061687
55.435181 11.383576 -18.460245
47.757961 7.3997078 -29.977861
55.437405 11.287905 -25.366539
55.438751 12.686229 -29.258299
55.435596 5.7296996 -20.127476
55.436924 13.643167 -21.761343
43.907368 27.29517 -20.292612
54.635098 18.299744 -35.220249
60.256432 15.651785 -33.665447
53.841995 25.764935 -16.932463
49.915585 26.846617 -21.036331
47.722973 15.219683 -30.112915
53.248756 15.233131 -34.934631
61.916569 17.692327 -24.797619
54.718559 23.698795 -25.592056
55.691502 4.0274673 -17.449915
48.417683 25.235815 -23.709805
52.63625 26.970772 -18.351883
53.375904 19.150581 -33.808338
43.47504 27.235594 -20.391533
46.293922 19.381037 -33.426701
55.876991 21.769726 -29.461288
47.675159 6.0103564 -29.977896
58.78624 15.23275 -33.782597
56.023262 23.584549 -21.450624
60.841606 18.767536 -27.175741
48.676647 12.08992 -29.977133
49.480225 27.738333 -19.556482
55.834324 16.561121 -36.71838
43.559967 24.572685 -24.810911
51.958588 4.1782379 -29.976131
54.961857 14.734655 -29.974899
47.645889 21.648317 -29.663742
60.544418 15.233582 -18.355207
48.572422 25.268284 -23.655905
52.496212 27.110666 -17.491812
48.597584 28.322443 -18.587185
49.552254 11.852422 -29.977121
61.601105 18.00782 -25.168921
47.020119 13.730585 -29.976173
44.460083 23.188963 -27.107246
61.863579 17.744875 -21.848885
55.437092 11.340472 -24.463484
62.231308 16.581167 -24.635546
55.435303 8.2899075 -19.283098
51.365257 15.221829 -30.881834
49.185024 24.272881 -25.307816
46.650333 15.221043 -30.600195
50.877342 15.234776 -35.524361
61.364265 18.245001 -27.619812
55.437782 7.4108496 -26.447567
60.112259 15.232373 -25.462519
53.465618 7.5583234 -29.975512
55.979805 15.220816 -22.161821
57.991356 17.541348 -36.478497
55.43705 11.105495 -24.322832
52.693825 5.5579581 -29.97583
59.020786 17.828053 -36.00256
55.946854 15.22072 -30.06646
55.438629 8.4706526 -28.904942
55.691505 7.5764561 -17.692995
44.881718 13.835302 -29.976389
47.000515 22.285637 -28.606117
56.14608 15.230328 -33.929447
57.3759 15.224718 -21.843203
48.004814 27.410917 -20.100035
49.718903 21.47846 -29.945396
57.642105 15.225464 -21.921623
47.33445 18.86175 -34.288391
53.957336 15.233383 -35.024895
52.705364 15.234159 -35.303226
49.285748 22.19413 -28.757717
47.097721 24.45134 -25.011885
61.927177 16.501469 -33.123398
60.889084 15.234546 -19.044077
56.066433 15.226103 -32.414307
44.745399 20.226389 -32.02393
51.181664 9.6954699 -29.976452
45.029682 19.875675 -32.605942
56.204891 17.992228 -35.730423
56.578323 23.02956 -21.5133
52.480614 20.308813 -31.886234
55.436203 11.161885 -21.882324
54.836441 24.771027 -19.881521
60.501289 15.233463 -20.49596
44.612358 19.411346 -33.376595
51.923176 25.623787 -23.065517
52.745796 26.140823 -21.143353
45.988331 24.775394 -24.474213
49.341064 10.243435 -29.977211
54.643761 13.309915 -29.975029
44.210964 23.074549 -27.297157
58.423851 21.18479 -25.401411
59.15155 20.45735 -26.68449
55.435677 12.561618 -17.323944
57.651787 21.956696 -24.843523
48.930611 12.830282 -29.976557
55.546783 24.061131 -22.425131
55.437099 6.1651125 -24.480127
46.04454 14.331703 -29.976089
55.438156 7.0407009 -27.523075
46.346848 26.229382 -22.061115
51.390148 15.23103 -34.180878
45.763504 11.294064 -29.977751
58.342087 21.265486 -18.239305
47.273197 18.649113 -34.641296
55.278599 8.2579517 -16.009846
56.74839 15.222967 -18.410538
57.296684 22.310589 -16.944551
47.255322 8.9830379 -30.140606
58.122593 15.232404 -34.268536
50.112648 19.463982 -33.288597
61.249699 18.35857 -20.982395
53.621799 17.876081 -35.923477
55.435772 10.451578 -20.638596
52.415684 13.944483 -29.975693
55.278599 6.603106 -16.72542
52.425888 17.380558 -36.745995
55.437996 9.7009411 -27.063705
59.304928 15.233027 -33.407089
52.427296 20.114428 -32.208839
56.115028 15.221192 -27.932325
59.324211 20.284977 -28.491741
55.940037 18.264837 -35.278027
58.444317 15.230871 -33.124283
48.366459 26.008009 -22.428272
51.066269 6.7235475 -29.9765
51.566101 13.840887 -29.975773
61.613091 17.995382 -22.128395
43.953293 20.715849 -31.211708
56.403732 23.07863 -25.537495
56.742527 15.355213 -35.676399
45.24971 13.924333 -29.976315
55.435921 12.412294 -19.585545
44.95034 27.433884 -20.062279
55.436302 10.063239 -22.17403
55.438206 6.0244331 -27.671787
52.81131 26.795649 -17.834412
52.448097 16.42984 -36.139374
59.351944 18.190176 -35.401539
49.355648 22.980473 -27.452688
55.278599 6.9365792 -16.989861
46.768513 11.166477 -29.97785
57.462357 22.145136 -18.318867
46.595688 25.580276 -23.13835
57.803139 21.805111 -23.147728
50.049103 15.230112 -33.851593
60.727795 16.449696 -34.777214
55.438705 10.525063 -29.133759
55.437599 4.5078125 -25.919893
59.580475 15.230886 -21.104748
61.122398 15.702911 -21.256187
61.122398 15.579437 -24.88603
54.181335 19.962452 -32.460857
50.364441 15.233178 -34.951317
60.786957 18.822805 -31.379965
54.64024 24.967537 -22.089058
51.954189 20.733944 -31.18074
48.835442 9.2806072 -29.977417
52.565552 18.405338 -35.045242
57.39608 22.212502 -25.686405
55.435898 9.279439 -20.992552
62.232117 16.845947 -30.104263
56.822227 22.785229 -18.493534
51.164669 15.228508 -33.276527
55.437359 4.2864237 -25.225826
55.435642 8.0048246 -20.266628
47.939857 10.751301 -29.977787
48.178825 11.508335 -29.977583
55.059341 4.5976505 -29.974857
52.176247 24.178064 -25.464819
53.606934 15.59507 -35.676399
47.107094 12.014457 -29.977192
50.625076 21.531029 -29.858047
55.436363 13.217272 -19.566589
47.51627 19.221279 -33.691689
46.604645 15.713159 -35.676399
52.307697 19.60071 -33.061424
47.739136 18.974018 -34.102024
56.034843 23.573051 -21.961496
61.673218 16.445957 -28.592625
55.437492 14.961664 -20.577614
59.977543 15.526589 -33.92984
55.435223 7.3350434 -19.043127
55.436295 13.879955 -16.513126
58.476532 15.227798 -20.087542
58.566032 20.207016 -30.926136
61.377277 18.231491 -24.283037
48.509193 18.608192 -34.709061
53.745834 17.419676 -36.680927
58.071419 16.326588 -35.682991
55.437721 9.1226139 -26.284416
55.437141 10.001451 -24.596071
55.422272 24.185757 -23.274527
47.523186 15.615537 -35.676399
50.318897 25.475996 -23.310974
51.642982 26.663372 -20.872297
46.323143 20.204388 -32.060257
61.122398 15.708071 -17.593954
60.002319 19.60537 -17.945745
54.480804 25.126125 -16.535501
53.754959 10.780339 -29.975393
57.879734 21.728924 -25.882799
55.278599 4.3450112 -16.88291
61.122398 16.130184 -18.408947
50.40287 27.852272 -18.9862
53.341324 17.599852 -36.38195
56.165825 21.469288 -29.959866
55.435974 7.7069316 -21.21582
55.496578 24.111353 -22.575138
55.675133 8.5761347 -17.865816
44.797379 7.1759739 -29.821701
55.435524 4.2099662 -19.909298
60.484413 16.5229 -35.900887
61.85284 16.485222 -31.768848
55.434998 9.2976828 -18.387745
61.882824 17.493111 -34.745411
52.26989 9.1099052 -29.976006
62.232025 17.144104 -29.461908
49.400101 5.44838 -29.977184
54.969078 22.991562 -27.201355
57.625481 15.225417 -30.087658
56.067631 16.566505 -36.742115
55.435875 10.072517 -20.932196
56.090378 19.831385 -32.678154
57.733368 15.225719 -17.889091
45.033981 15.228418 -33.244629
50.454071 20.643801 -31.330521
55.437481 12.972559 -25.58906
58.111263 15.226776 -19.723858
55.438885 7.8611083 -29.649363
43.734528 15.223109 -31.341347
45.004288 14.473997 -29.976166
56.336884 22.547916 -26.999842
58.95343 20.654594 -20.890846
58.48679 21.120724 -17.772596
46.737968 15.207335 -29.975721
56.479198 17.064079 -36.750435
48.804516 27.718092 -19.590153
60.299885 19.309811 -31.283865
54.495533 19.007963 -34.044895
44.788151 5.3687048 -29.821701
52.209728 19.426115 -33.3512
48.581169 18.840683 -34.323208
52.254616 25.868687 -22.350338
43.860603 10.305698 -30.234541
51.838875 14.832724 -29.975248
56.140972 15.221266 -23.908054
55.435474 11.515072 -19.777746
58.688339 15.231295 -33.104435
47.668404 20.238522 -32.003448
55.438057 13.567069 -27.237925
55.43697 13.788481 -21.520813
55.438705 5.6258116 -29.1259
56.863968 20.608854 -31.38777
55.401875 15.229284 -33.555428
48.442051 15.22965 -33.686386
56.941593 15.223504 -30.333725
55.436001 12.525593 -19.737686
52.981888 26.624866 -16.297966
62.231258 17.131416 -24.337849
55.270363 15.224335 -31.779716
60.467091 15.233366 -20.591112
57.051674 18.146334 -35.474571
55.43565 10.537219 -20.279892
55.436657 7.9340029 -23.191492
55.436699 5.0782175 -23.31365
43.746853 25.544554 -23.197968
55.438461 11.043217 -28.416592
60.401745 17.508556 -36.186302
46.353241 14.708878 -29.975929
44.490345 6.0916872 -29.821699
51.145752 13.650347 -29.975918
48.896946 15.228697 -33.344055
44.372185 21.176462 -30.447222
55.948219 16.075993 -35.676399
61.570297 18.037987 -20.892565
56.135979 17.453197 -36.625011
44.195564 10.890763 -30.059452
55.71418 15.220075 -18.435472
61.955078 17.653667 -23.714642
45.384636 18.767456 -34.445114
57.286201 18.59516 -34.729664
62.230904 16.694372 -21.926058
44.869156 18.783501 -34.418545
55.437984 4.1457119 -27.035074
53.929192 24.969696 -23.039433
50.141586 15.950964 -35.676399
55.435204 4.9584246 -18.996315
45.150116 15.227236 -32.82016
55.436707 14.165916 -18.254948
58.762321 20.135124 -30.918856
55.435646 3.8424087 -20.256689
55.436584 6.5301013 -22.986942
49.736786 24.212566 -25.407846
62.084728 16.612997 -34.847214
50.311245 28.245516 -18.043699
46.559471 13.495602 -29.976303
55.437843 8.7907305 -26.633535
57.281631 15.324246 -35.676399
55.438766 3.9985709 -29.308399
61.644474 16.439592 -30.627478
59.966663 16.453604 -35.592876
61.233044 16.349447 -21.620001
55.437729 6.7840476 -26.297596
55.278603 7.3809137 -16.600161
52.81353 7.544416 -29.97578
53.714783 15.22017 -30.286488
49.189125 23.470486 -26.639475
55.327736 20.115583 -32.206585
55.436859 9.7261467 -23.788383
55.298592 24.308634 -17.921953
61.122398 16.27898 -23.048378
51.642254 15.222815 -31.234926
49.440086 8.7870388 -29.977169
46.467567 6.2442951 -29.821701
47.595383 17.623291 -36.343719
55.436417 7.161828 -22.508869
50.030014 25.352324 -23.51626
59.868584 18.621496 -33.792809
50.307316 25.51939 -23.23896
45.179443 27.594175 -19.79623
54.169434 25.437572 -17.20886
55.437962 4.5066423 -26.968967
52.816635 11.17974 -29.97578
49.262878 21.414827 -30.051052
55.691502 6.3726635 -17.486208
55.436401 9.1487484 -22.447569
53.842888 25.764509 -20.055508
61.197994 16.341734 -26.442005
55.643383 23.963787 -17.349545
48.49778 5.917593 -29.977556
61.111935 18.498079 -32.839005
55.437363 13.525157 -25.24873
48.397095 13.883869 -29.97596
55.356342 7.7918239 -29.974735
55.640301 23.798332 -24.408472
56.042038 18.584135 -34.748108
44.947643 27.050858 -20.69795
55.436909 13.979178 -20.363419
54.954014 15.232658 -34.765297
54.055965 15.219681 -30.111
55.436993 11.433125 -24.166723
49.048607 21.027309 -30.694208
55.438477 14.943673 -27.437555
57.160065 22.447971 -22.160192
53.041443 19.455158 -33.302898
55.278599 4.7355089 -17.089642
58.669903 20.938786 -25.539698
60.897522 18.711613 -27.090704
49.539619 24.771172 -24.480801
44.343399 7.2845936 -29.821701
43.672836 25.747919 -22.86047
55.438522 5.9055023 -28.596512
58.881866 15.228931 -23.137684
57.999939 15.230106 -33.163902
47.273922 25.452129 -23.350945
55.467533 15.219386 -16.453571
55.436226 5.8419199 -21.952332
55.436234 9.0965214 -21.963688
45.668343 15.231412 -34.317978
55.711956 23.896093 -23.232513
44.033527 15.219985 -30.221363
51.517761 21.044485 -30.665413
57.476509 15.225002 -17.237707
45.587719 21.142929 -30.502728
56.04834 21.012796 -30.71748
52.596619 16.51572 -36.518387
55.437389 10.904912 -25.319405
43.600636 26.474791 -21.654156
60.176113 15.232553 -29.072264
58.716675 15.22847 -27.020252
55.435822 12.804056 -17.424055
46.619904 26.865948 -21.004629
59.496346 18.818672 -33.646629
52.936546 15.221626 -30.808804
56.21196 15.221462 -29.036821
55.947304 15.220724 -22.660452
55.435837 9.8642931 -20.818233
55.437363 7.9247532 -25.232925
61.122398 15.26442 -21.620043
56.515099 15.22231 -27.511641
48.699886 21.405909 -30.065926
47.433475 9.9437551 -29.977993
43.886692 27.742918 -19.549526
45.279655 5.1511421 -29.821701
50.61245 9.0092134 -29.976686
51.366959 9.7595263 -29.976376
48.84306 24.244926 -25.354244
49.870483 15.230785 -34.093285
53.927315 16.125698 -35.676399
55.437717 5.9392419 -26.260984
46.591118 15.232011 -34.533012
54.345844 15.22253 -31.13308
55.991848 23.164146 -25.724417
52.559269 20.737209 -31.175251
61.122398 16.001781 -28.138863
57.41618 19.67234 -32.941952
55.437141 15.036108 -17.891968
51.984955 16.551069 -36.674473
53.63636 15.548086 -35.676399
57.753895 15.225835 -31.12921
58.49633 15.227854 -19.461058
53.954796 15.23152 -34.356514
47.324493 22.275866 -28.622295
61.097553 18.510479 -19.490917
57.968571 20.090818 -31.829361
44.273151 16.343283 -35.756912
53.201035 25.230186 -23.082779
55.438461 13.683352 -28.419525
55.436913 13.89732 -20.692339
57.124352 15.233481 -35.060169
55.970871 15.862377 -35.676399
51.435837 6.3588037 -29.976347
49.291897 15.234592 -35.458382
49.405998 23.33757 -26.860041
55.438034 13.79721 -27.185965
57.768955 21.839893 -27.211983
46.664581 27.218452 -20.419605
55.278732 15.226311 -32.488354
48.44698 11.848153 -29.97732
58.71656 20.89238 -27.202559
57.644035 19.750111 -32.812855
52.724274 26.038883 -21.432966
49.27042 20.966131 -30.795713
58.826637 20.78091 -17.786877
62.165539 16.553688 -33.734463
49.431625 6.6639042 -29.977173
56.368031 16.528133 -36.572739
49.843224 25.018749 -24.069887
61.122398 15.736726 -30.476105
55.595898 5.9411216 -17.365704
59.041214 20.566505 -18.797304
55.438583 8.8985538 -28.774239
55.437862 11.523893 -26.683558
61.517097 17.414103 -35.319023
48.039955 8.7637615 -29.977745
56.470181 15.222188 -18.240202
52.88776 18.360632 -35.1194
46.906998 16.337883 -35.733002
53.993126 24.917166 -23.113632
51.616886 18.530813 -34.837116
60.842346 18.766926 -28.025145
62.231518 16.670193 -26.075041
53.736721 8.9641829 -29.975403
55.438778 12.383457 -29.32757
48.735245 17.946007 -35.808002
56.626404 21.65748 -29.05191
47.998692 15.227618 -32.957863
55.436569 7.5982056 -22.942474
48.552261 10.868129 -29.977535
60.013981 19.594387 -22.477184
53.345863 15.795694 -35.676399
58.946899 18.021862 -35.68092
43.8484 7.5826201 -29.821701
53.083572 14.8355 -29.975101
50.639233 20.075569 -32.273544
55.957104 15.220753 -19.81612
46.559578 7.0924821 -29.860613
49.803116 6.2793608 -29.97702
52.219189 22.807034 -27.740194
46.9622 23.431324 -26.704723
51.093456 26.067095 -22.329893
52.710167 7.2926841 -29.975824
61.122398 15.57543 -22.275139
55.43821 14.596209 -26.904518
55.437382 14.512495 -21.579256
53.934898 15.223306 -31.411167
45.935875 25.400291 -23.437134
43.906101 25.68623 -22.962822
60.1432 19.464972 -21.084597
46.123993 15.226868 -32.688442
59.565628 20.042503 -21.230297
55.43716 8.3088999 -24.661823
50.911903 27.535572 -19.309872
55.233315 15.23307 -34.912922
58.226158 15.227097 -26.691696
53.488369 11.720211 -29.975502
47.207779 5.8597713 -30.187981
54.277649 15.229237 -33.537987
55.435463 9.3709507 -19.740784
57.012207 15.398329 -35.676399
61.757866 16.464865 -17.665668
55.43512 10.641327 -18.754593
54.477615 10.629348 -29.975096
50.323101 16.720108 -36.751152
53.525528 26.081812 -19.887909
55.436111 4.066915 -21.618767
59.710667 19.898712 -29.483965
60.222012 19.387453 -29.742466
55.437477 6.3152843 -25.578407
55.278595 5.6182871 -16.703318
55.435905 5.295733 -21.023125
55.436947 13.708477 -21.678766
48.269279 11.716677 -29.977421
55.438774 14.506257 -29.318325
51.49419 17.493025 -36.559456
55.435841 12.139952 -20.077326
62.231403 17.315279 -25.330885
48.633186 22.067602 -28.967781
45.233971 24.930557 -24.216785
50.028816 21.322655 -30.203934
54.366291 3.9161096 -29.975143
46.682819 21.326168 -30.198496
59.379902 15.234668 -34.208359
44.057709 27.471752 -19.999535
61.01786 15.234907 -26.294765
47.716816 11.621283 -29.977497
55.437027 9.9113207 -24.265955
55.437912 12.995486 -26.828365
52.039207 26.48583 -20.942848
62.21167 16.564196 -21.574543
51.339119 13.15909 -29.976303
59.777641 15.371065 -34.110153
51.519035 22.608955 -28.069008
49.263695 27.565613 -19.843155
53.428532 17.133549 -36.75079
62.047264 16.527916 -29.159523
60.822037 18.787085 -27.04071
52.607548 20.597965 -31.406334
45.794323 9.3548241 -29.821699
56.163429 22.110979 -28.322399
50.551319 25.471722 -23.318045
55.278603 5.2076664 -16.94644
44.969784 10.979228 -29.977995
47.010361 16.583361 -36.751541
52.575653 23.635248 -26.365635
55.438652 10.419708 -28.969425
55.143173 15.224789 -31.943003
55.435093 11.818106 -16.183922
47.382294 10.584486 -30.014078
55.435879 12.715178 -18.166063
55.436657 13.112566 -21.991123
55.435818 12.241191 -19.565552
51.731651 25.941193 -22.538769
57.289749 15.224478 -27.213446
55.435715 12.61213 -17.404163
55.437733 15.132965 -21.610292
49.889523 15.233423 -35.039459
59.623081 19.986046 -27.854961
44.962845 19.062119 -33.956139
57.580658 15.225292 -27.80863
53.518829 8.7002535 -29.975491
45.589508 12.461209 -29.976845
61.030872 18.578346 -27.558878
45.082092 9.8204594 -29.821699
56.157608 20.394932 -31.742878
55.691498 10.411796 -17.348293
59.458073 15.230545 -19.183247
53.921959 15.229949 -33.793026
58.500275 15.227863 -17.430729
56.924065 15.223455 -23.502899
59.083176 20.524368 -17.545471
59.547516 20.06068 -21.637672
59.34259 20.265404 -20.428617
55.43858 13.751038 -28.762077
60.800117 18.247032 -33.845764
51.314228 7.495182 -29.976398
62.058327 16.53059 -21.510448
55.436745 13.951204 -19.3564
58.982189 15.229212 -25.263052
61.763111 16.465714 -26.93454
61.122398 15.690761 -20.654079
57.698124 15.22562 -19.796482
48.004631 13.133087 -29.976322
48.33012 15.224085 -31.690252
55.437119 8.9972286 -24.53051
56.278484 23.329334 -21.291697
55.437607 4.2320557 -25.950928
55.438568 13.165221 -28.726927
57.091927 17.422029 -36.676624
48.352219 24.775871 -24.473143
59.248711 20.360062 -25.753193
49.972424 15.230444 -33.97065
55.435425 7.5084195 -19.62842
54.156548 11.000313 -29.975229
59.0145 19.206106 -33.109734
61.122402 15.678093 -29.541904
55.437233 13.588521 -24.105776
49.049698 19.462652 -33.290924
60.503971 15.233469 -19.940653
47.87677 16.556755 -36.700047
53.010292 26.596525 -16.73624
55.436844 13.539793 -21.605204
57.648685 15.225481 -29.544758
54.050163 11.577955 -29.975273
60.555271 15.233614 -28.323545
60.681492 15.233967 -24.805634
61.332764 18.275995 -24.244787
55.435013 8.9782429 -18.439497
46.699104 20.376514 -31.774548
55.436092 13.33391 -17.216482
48.333256 10.826502 -29.977627
55.43647 13.436776 -19.42837
46.790321 25.782896 -22.802059
55.435123 11.598244 -17.257572
55.434952 11.160754 -17.738512
50.367897 15.234976 -35.596054
44.380146 17.083126 -36.751846
47.665451 20.651623 -31.317863
55.437824 7.7770915 -26.571396
51.029587 23.5408 -26.522564
55.435463 12.416687 -16.455292
61.122398 15.831963 -25.799934
51.173504 14.815701 -29.97533
57.745361 21.862312 -19.33342
50.16082 15.232754 -34.799343
44.012138 26.932991 -20.893673
51.617126 24.481812 -24.960783
50.899288 24.808294 -24.419033
50.966675 17.926563 -35.840012
55.438103 7.1360564 -27.383413
55.691505 6.2395267 -17.633007
51.820442 24.928812 -24.218916
55.437862 14.264625 -25.805321
57.937447 21.670448 -20.706219
55.435135 8.6411495 -18.791443
61.087341 17.685646 -35.034798
51.974594 21.355385 -30.149391
55.677662 22.493052 -27.803539
55.436413 9.903204 -22.490992
55.433121 6.6423903 -17.296753
56.707588 17.6632 -36.276424
47.934952 23.379827 -26.790075
49.012535 10.019352 -29.977346
56.673744 15.222755 -27.183329
47.102211 6.4247079 -30.234501
46.670586 20.014225 -32.375813
55.436714 9.9555864 -23.365677
43.889938 10.968519 -29.981968
46.208359 26.988922 -20.800591
47.411152 15.593237 -35.676399
48.417458 24.748159 -24.519125
46.480915 15.625017 -35.676399
49.861023 19.442947 -33.323532
61.566158 16.422354 -32.96888
50.029526 15.227285 -32.838577
49.032211 15.979801 -35.676399
59.914112 15.231819 -27.70363
58.508217 21.100418 -25.285221
52.117962 22.766048 -27.808226
55.436981 6.8885622 -24.141731
61.047302 18.561264 -23.154627
61.314545 16.367378 -21.319426
55.438156 8.8526783 -27.532196
44.157364 15.227695 -32.98494
46.694679 26.920143 -20.914684
58.610424 20.997944 -23.414061
52.43325 26.569492 -20.328674
59.884636 19.723455 -20.680931
58.792255 20.815851 -21.54933
59.014874 20.549015 -29.577915
58.545551 16.866079 -36.750191
55.438705 11.896948 -29.131369
45.282784 22.195267 -28.756296
55.436569 8.7299805 -22.937609
61.122398 16.229712 -23.980843
55.43679 7.3785305 -23.579113
44.596954 18.832615 -34.337067
55.596088 15.219744 -18.483923
54.010674 25.596321 -17.243782
47.246891 15.233459 -35.051842
48.72298 16.001822 -35.676399
46.632141 5.5841093 -30.031967
48.23558 28.015699 -19.096308
57.393242 15.224768 -22.824427
48.01688 14.307918 -29.975868
55.831696 15.220401 -22.992842
56.551178 23.056744 -21.822565
59.812473 15.231537 -25.426672
59.027763 15.22934 -26.165668
55.435978 10.436998 -21.229961
58.810513 19.230173 -33.250481
61.245155 16.352026 -32.184765
48.362144 15.231155 -34.225685
55.357494 24.149416 -23.768164
57.780853 15.225853 -30.925734
55.43668 14.398524 -17.183445
55.436249 10.758084 -22.008801
45.831944 23.976284 -25.800434
60.58728 15.233704 -18.977198
53.485535 15.232609 -34.747009
57.527836 18.37883 -35.088661
55.375996 24.23188 -22.264309
47.669769 9.8638506 -29.977898
46.699997 6.8373923 -30.192217
55.438 7.7006865 -27.079826
56.120419 23.487257 -20.471191
51.588707 18.319214 -35.188293
59.941444 15.231895 -19.494984
57.192604 15.224207 -22.05072
52.667763 25.474424 -22.9739
54.258202 23.976011 -25.32353
58.489178 21.119732 -27.171318
55.436249 4.9664388 -22.009674
55.435616 4.2137909 -20.181477
57.793816 20.590073 -30.691219
56.40321 15.222001 -17.304729
55.437943 10.909834 -26.916954
55.437012 13.871287 -21.472605
44.927753 25.879286 -22.642307
59.757084 19.852119 -28.302996
56.127838 23.480354 -23.880566
51.360767 26.354731 -21.852497
54.915787 4.6483884 -29.974916
61.122398 16.066689 -29.044613
48.292709 15.234016 -35.252106
47.43631 16.515051 -36.516037
45.188374 15.226844 -32.680111
54.138641 7.563982 -29.975237
51.577042 13.00234 -29.976288
53.199226 4.9312401 -29.975622
53.674919 15.231484 -34.343948
49.175762 15.219908 -30.193459
47.802311 18.470612 -34.937473
55.437431 14.681959 -21.25362
50.365486 9.191083 -29.976788
43.940014 15.223536 -31.49423
50.438988 17.66716 -36.27058
60.453285 19.155067 -22.078545
52.614128 25.538635 -22.858696
56.344223 23.26321 -18.675526
44.395771 15.219724 -30.127598
61.340576 16.373108 -20.131386
55.438438 13.500133 -28.348431
49.232628 18.01207 -35.698307
60.256191 19.352642 -25.472118
56.402748 15.221996 -28.236542
52.468395 16.624746 -36.7509
57.834175 21.774618 -26.818989
61.834373 17.775574 -31.906246
55.438545 7.4130669 -28.664454
55.337418 6.2449059 -17.256214
59.022537 15.233208 -33.789352
50.995285 25.124691 -23.89393
61.567543 16.422894 -25.665916
45.242317 20.395893 -31.742561
55.438797 6.5499258 -29.392624
53.946293 15.222321 -31.057825
55.438858 8.1195936 -29.565744
50.66993 26.886585 -20.969906
51.744839 9.9239473 -29.976221
50.052986 23.842684 -26.021666
56.1647 15.221333 -19.78092
55.435074 9.0590715 -18.620607
49.144302 5.5860972 -29.977291
45.257118 18.848747 -34.310215
55.434967 6.5182099 -18.303604
46.911381 17.972412 -35.764397
60.962475 18.645689 -20.47324
55.569038 18.935251 -34.165447
57.123108 15.224014 -18.54937
48.918991 15.230918 -34.140869
46.644634 5.22859 -30.061476
55.436405 7.2517338 -22.465599
54.007751 6.9599013 -29.97529
59.746822 15.73709 -34.192482
47.198814 23.683201 -26.286684
62.231148 16.86517 -23.585943
55.21262 19.977953 -32.435013
59.109787 20.497841 -18.094887
44.954041 5.9490776 -29.821697
62.135384 17.47282 -19.972864
60.17215 19.436396 -23.589937
55.438938 5.7756753 -29.806274
55.750954 15.231136 -34.2188
54.078384 22.353378 -28.492863
57.067894 15.223858 -24.469374
59.570488 15.23086 -17.526632
59.155491 15.229698 -27.071899
55.436859 13.720655 -21.027288
44.033333 15.02475 -29.976097
47.557785 17.376171 -36.751476
47.379253 15.810791 -35.676399
58.140373 21.467781 -22.296082
49.938248 21.488268 -29.929092
59.688179 19.92086 -27.204926
53.762756 21.465513 -29.966412
57.117271 22.490276 -18.885876
60.870136 18.739212 -28.515509
55.435452 6.6379404 -19.708458
60.599148 15.234458 -32.864525
62.075203 17.533819 -25.527367
48.713375 21.456009 -29.982773
57.090942 15.223925 -19.117956
47.735813 15.790586 -35.676399
61.078838 18.529631 -22.473539
55.436733 8.5085983 -23.423016
55.026798 15.220265 -30.320999
53.442593 18.576412 -34.761227
48.077377 27.835962 -19.394615
55.43494 7.2554293 -18.221399
53.781738 25.825657 -20.134773
60.804081 15.234309 -32.378193
53.105652 15.226751 -32.646515
58.11055 21.498301 -27.012079
55.438431 7.501718 -28.328117
61.964378 16.509911 -24.293179
45.277607 10.358431 -30.23452
55.83448 20.197639 -32.070347
47.292885 7.114872 -30.103176
55.522038 9.2413225 -17.334419
58.866074 20.742039 -21.582127
55.438347 7.0791454 -28.081757
46.490116 11.124669 -29.977882
49.574905 15.219694 -30.116554
55.437447 11.806126 -25.484533
61.187267 16.339373 -25.117779
53.031883 24.306004 -25.252388
45.777756 22.602087 -28.081076
51.85733 21.21172 -30.387829
55.438709 11.890718 -29.127708
52.227615 24.508339 -24.916691
55.435951 13.101062 -17.155268
57.590958 17.114714 -36.750301
57.098167 18.18668 -35.4076
58.190388 15.226997 -17.854015
50.368546 25.726526 -22.895187
46.575279 6.5937066 -29.897696
55.438866 13.618958 -29.58157
48.702011 25.517702 -23.241947
62.015007 17.594385 -28.071827
54.489902 7.2671595 -29.975092
51.578785 24.984772 -24.12607
48.776806 20.866871 -30.960503
45.631073 27.903294 -19.283161
44.904221 21.540953 -29.842247
53.588703 26.018223 -17.102926
45.198524 13.229639 -29.976547
58.715706 15.228467 -25.169434
48.884506 15.228097 -33.129284
49.753181 20.640783 -31.335611
45.15147 9.623601 -29.821699
51.119957 19.657539 -32.967255
43.773254 24.583977 -24.792149
55.438522 12.240232 -28.605122
55.437866 13.36206 -26.703337
55.43692 10.948669 -23.957737
55.953217 15.220742 -20.212667
61.659321 16.443243 -18.44886
52.669373 4.7073011 -29.975842
60.914696 18.693554 -21.081448
57.374115 22.233803 -21.23774
55.678635 4.033216 -17.862297
50.842113 10.783577 -29.976591
51.030632 27.286095 -19.847187
51.542442 10.681973 -29.976305
57.920425 17.499531 -36.547905
55.436741 9.15487 -23.432257
46.269058 11.285993 -29.977757
55.438847 15.082137 -29.461878
55.836342 20.748983 -31.155327
50.869755 6.1565833 -29.976582
59.518806 18.878511 -33.466789
44.411221 26.890869 -20.963533
55.43718 11.232926 -24.713142
44.917152 23.688255 -26.278561
47.182785 18.302168 -35.217098
43.797981 12.612298 -29.976913
56.365013 16.525116 -36.55941
51.276688 27.384645 -19.341896
45.192154 25.255859 -23.676918
48.322819 20.403683 -31.729271
48.022282 4.8358941 -29.977753
55.437481 12.506684 -25.581741
55.387547 10.143224 -16.201874
58.269463 15.227219 -24.686523
44.248489 14.733933 -29.97617
53.916077 9.5384455 -29.975328
52.298988 27.307915 -17.78067
55.437187 6.2241907 -24.734158
52.551403 22.550821 -28.165365
60.550751 19.057503 -21.350605
55.437958 8.3679495 -26.958868
59.088531 20.519287 -19.434219
61.553192 16.419607 -29.985096
44.714573 21.762165 -29.475145
50.599327 15.234148 -35.298782
44.500854 18.167686 -35.440598
55.435741 8.14217 -20.547289
58.15976 15.228779 -32.29351
55.438202 14.694707 -26.502459
58.202576 15.227032 -18.014456
60.565228 15.233641 -30.441399
45.873619 15.22674 -32.642582
55.438381 8.8147602 -28.180389
54.822594 15.227942 -33.07399
55.445541 24.162514 -23.446159
44.369087 8.6525517 -29.821699
53.372299 15.221859 -30.891985
55.435455 6.9922748 -19.727467
58.973736 15.229189 -29.506926
47.005905 15.606821 -35.676399
55.436958 14.431114 -18.954224
56.584427 22.643314 -26.50135
60.450447 19.159145 -30.45336
59.65612 19.951855 -20.075157
61.58659 17.555998 -34.876347
46.377033 15.220041 -30.241283
44.374626 22.954088 -27.497055
57.304047 15.232065 -34.552326
54.591331 6.644217 -29.97505
55.436394 4.9256053 -22.44088
50.308407 24.185091 -25.453379
54.282848 9.2190351 -29.975176
55.438423 4.648212 -28.297607
55.438179 9.9739981 -27.60787
49.36171 18.630665 -34.671669
52.883499 26.723404 -17.408512
62.23214 16.804981 -30.266321
45.1409 24.680109 -24.632446
55.437183 15.094837 -17.951809
55.438774 4.7268929 -29.327156
44.773178 15.228436 -33.25098
55.436382 13.764194 -17.567226
53.163517 17.610064 -36.365021
51.2309 26.902126 -20.656614
50.993042 21.097109 -30.578142
53.876991 15.228392 -33.234734
47.312119 25.045568 -24.025667
61.532295 16.415112 -27.402567
58.084877 21.52367 -24.991013
55.171661 7.3257356 -29.97481
54.995972 11.57128 -29.974882
49.524681 10.96913 -29.977135
58.521618 15.227923 -26.53463
55.279366 8.3151951 -17.231625
51.727451 25.554024 -23.181316
55.726032 22.023075 -28.991098
47.565868 15.222516 -31.127983
48.471024 22.058544 -28.98283
60.60556 19.003803 -28.817671
48.879433 20.966999 -30.794319
54.655495 15.234932 -35.580536
50.360252 15.220046 -30.242496
45.735359 24.186079 -25.452278
47.752621 7.1825504 -29.977863
62.231724 16.590122 -27.448599
55.436501 7.0183554 -22.740589
45.258579 16.368542 -35.868759
49.438129 15.227294 -32.841496
57.949417 15.226324 -20.447256
44.552433 15.853859 -35.676399
55.437195 4.7132983 -24.748936
55.437298 4.1113815 -25.049408
55.502304 15.221778 -30.863392
57.072517 19.514784 -33.203468
55.499126 15.219471 -22.120993
58.340508 21.267681 -22.397177
60.603565 15.233747 -25.22715
55.435394 5.9138851 -19.545017
61.122398 16.253695 -28.789148
55.784035 20.531542 -31.516203
45.098248 15.22402 -31.667828
55.437405 10.624863 -25.349728
58.086678 21.521231 -20.657375
49.458176 26.195419 -22.117113
47.98711 18.084185 -35.57877
46.511536 18.787815 -34.411194
57.283386 21.849127 -27.890739
61.441452 16.395044 -32.285255
58.522709 21.086281 -27.666451
62.230904 17.246719 -21.928442
55.435345 8.3185282 -19.389219
54.307957 22.999304 -27.420855
60.97831 18.630648 -25.807724
55.435654 4.1710763 -20.30106
53.562843 20.341436 -31.831963
52.925423 26.681412 -16.930851
51.690636 17.642876 -36.310738
57.436592 22.170757 -17.348858
57.196445 22.411678 -22.760469
48.27512 27.751925 -19.534061
54.009022 7.1736689 -29.975288
53.96735 21.153141 -30.484802
48.981117 18.276642 -35.259254
60.594055 19.013979 -19.878862
51.047329 15.223531 -31.49164
55.436119 6.7539697 -21.645067
61.726006 16.457382 -33.108719
54.791145 15.229811 -33.743614
55.437195 13.276894 -24.744677
59.75071 15.231361 -29.735596
52.290752 15.225028 -32.028542
52.409779 4.2695298 -29.975948
55.982716 23.624935 -20.354156
46.023041 19.472944 -33.2742
61.671127 16.445644 -24.143154
50.166721 18.012684 -35.697174
46.167557 10.407108 -30.234509
52.560211 4.02635 -29.975883
57.745243 21.223324 -29.074482
54.943794 24.663429 -18.146097
47.417572 26.97621 -20.821548
52.453518 24.857588 -24.337048
59.764145 19.617035 -31.279213
60.282158 19.326885 -26.877731
58.392303 15.227563 -26.692604
57.031815 21.569553 -28.877602
51.853565 15.225421 -32.169353
61.092354 18.517126 -29.264517
59.772552 15.231424 -18.409138
48.275948 19.968792 -32.451023
43.734802 21.591537 -29.758432
54.781845 12.078511 -29.974972
61.340805 16.872057 -35.591354
49.555649 5.1597419 -29.977121
44.167553 7.0681076 -29.821699
45.471199 20.2845 -31.927399
51.287033 15.221741 -30.849869
56.304016 15.22172 -29.169815
61.122398 16.192934 -26.977299
56.547802 15.23187 -34.481884
51.040619 15.226316 -32.490627
58.462017 19.072853 -33.936745
44.024384 10.816588 -30.133364
52.927952 19.303471 -33.554657
59.826324 19.781872 -21.467682
55.037949 15.604742 -35.676399
60.329666 17.599039 -36.020447
50.729839 23.161642 -27.151852
61.288361 18.031803 -33.923389
59.362221 20.245483 -18.434608
55.435318 9.751956 -19.312237
55.437469 9.6963873 -25.541077
47.330555 11.221291 -29.977808
62.231609 17.377392 -26.694368
62.047096 16.527748 -33.187531
52.493767 26.190653 -21.264416
62.207417 16.562859 -33.986046
50.428417 17.510441 -36.530678
52.126877 15.230431 -33.966125
53.707619 22.017403 -29.050495
55.435284 10.320487 -19.229122
55.435066 7.9487724 -18.580837
55.435177 7.8771124 -18.91968
46.176525 15.221233 -30.668335
55.436638 13.739165 -19.429964
55.014225 14.1699 -29.974876
52.590401 17.985855 -35.741421
58.819939 20.788992 -27.052755
46.803135 14.540905 -29.975931
56.682564 15.226118 -32.363403
51.266304 18.854454 -34.300041
50.184731 26.624212 -21.405405
57.186073 15.235092 -35.638069
51.335419 12.559191 -29.976389
52.657318 8.1281023 -29.975845
55.200207 19.370033 -33.44392
55.436459 6.588274 -22.619659
53.529709 15.225784 -32.299637
60.264168 15.2328 -29.799145
61.319397 18.289762 -26.970463
53.833492 16.597034 -36.750744
44.764801 15.227927 -33.068573
44.560432 18.974646 -34.101357
47.014416 11.019829 -29.977962
49.528515 11.3452 -29.977133
52.494339 6.5564284 -29.975912
60.842354 15.234416 -20.080969
58.731956 15.228512 -26.187439
53.205601 22.085381 -28.93774
58.043297 15.226585 -18.943308
54.850288 24.757414 -21.472435
61.647079 17.962006 -26.260931
55.437187 15.181849 -17.660364
55.438148 10.730761 -27.513172
46.501076 18.490364 -34.904846
54.856453 6.1050706 -29.974941
46.846466 21.58194 -29.773998
46.799583 6.6081772 -30.234501
56.639565 17.555784 -36.454697
47.569115 12.186852 -29.977057
57.153961 22.453724 -19.792639
60.261566 15.232793 -22.269932
47.993225 6.5153012 -29.977764
55.434994 5.7730732 -18.386257
44.83736 9.539443 -29.821701
60.934467 18.674843 -28.250813
43.325382 26.728525 -21.233086
46.407753 15.231791 -34.453796
53.715824 10.629501 -29.97541
57.598789 21.891958 -27.462742
43.747051 14.171345 -29.97641
62.159943 17.450396 -34.369251
54.253605 19.292732 -33.572319
62.201653 17.40659 -20.213579
58.067593 20.025497 -31.902082
52.388908 13.38137 -29.975956
44.681244 24.056238 -25.667877
43.399033 10.878547 -30.071629
59.403652 16.377735 -35.2533
44.645435 10.114136 -29.861931
57.359131 15.224672 -18.390261
56.821968 15.223171 -19.192911
51.821209 14.807297 -29.975258
58.869514 15.228897 -29.392019
51.749798 24.79372 -24.443119
51.665447 10.829033 -29.976254
56.382309 15.221943 -17.336092
45.44194 15.589636 -35.676399
45.222313 18.636471 -34.662514
59.567924 15.230852 -17.305037
47.480564 15.801655 -35.676399
54.663799 20.433676 -31.678753
52.871098 21.81073 -29.393591
55.438835 13.900224 -29.494818
53.281738 25.58848 -22.059803
44.559929 7.9233928 -29.821699
56.60321 15.228518 -33.280384
50.384068 10.650129 -29.97678
57.598778 15.225343 -18.668451
55.435013 10.754005 -18.43321
55.28698 12.898999 -29.974762
56.966957 15.226856 -32.470825
46.921505 21.534595 -29.852562
61.055107 15.235012 -21.168119
56.664864 22.366497 -27.14887
61.122398 16.011608 -21.705923
61.339539 18.268299 -18.05825
59.412891 20.19611 -27.177509
47.602421 19.735859 -32.837677
50.435318 27.849405 -18.961281
61.129494 16.32666 -22.242722
56.824844 22.782804 -19.80385
55.728111 15.220109 -28.523998
62.157784 16.552307 -24.034666
61.402725 16.386551 -32.438343
48.349731 24.94392 -24.194248
53.860668 7.9167705 -29.975353
56.279125 23.329014 -23.42466
52.11454 7.6457343 -29.97607
53.425278 25.191086 -22.961292
53.886475 5.7268076 -29.97534
49.625408 23.628876 -26.376558
55.264046 23.724689 -24.978321
52.858727 15.219453 -30.02989
55.436623 13.00214 -22.169817
55.437778 11.632451 -26.451986
52.552773 26.894173 -19.355642
55.322044 15.223449 -31.462334
57.916969 15.226233 -17.809368
58.509754 21.099163 -27.196499
50.54282 19.756727 -32.802704
61.491932 16.406412 -21.816103
62.231922 16.969959 -28.80426
55.436863 11.41189 -23.787458
55.865631 20.657669 -31.306873
46.376232 6.1630669 -29.821701
46.772499 10.302246 -30.234501
46.780025 15.220331 -30.344841
52.73299 22.039682 -29.013639
55.435898 12.299916 -19.891968
58.568695 15.228055 -31.402588
57.905869 15.226202 -22.108208
53.355713 8.0792208 -29.975559
55.435852 3.8234372 -20.861067
49.294495 18.173828 -35.429844
58.154766 16.458889 -36.266903
55.436958 13.923315 -20.917099
61.031849 15.234947 -17.689339
60.878532 18.730267 -24.81238
59.219742 20.388926 -25.054468
57.336227 22.27178 -21.843962
48.66909 25.113485 -23.9128
57.49913 22.108706 -20.617155
46.944153 18.838299 -34.327358
51.77832 15.220832 -30.523911
60.587715 17.449306 -36.15609
47.642075 20.895554 -30.913036
60.49197 19.11684 -25.160717
60.717655 18.891562 -27.730574
52.390213 8.868432 -29.975954
55.278599 7.7652445 -17.126684
61.26828 18.341606 -31.869446
55.436321 4.7748175 -22.234756
61.709919 16.548325 -34.98074
44.315502 17.152122 -36.751854
54.135124 25.471802 -16.715034
59.2024 15.229829 -20.400379
55.436954 7.381238 -24.058962
46.270546 23.803699 -26.086809
50.286003 20.909599 -30.889418
47.885948 24.999043 -24.102821
45.818481 15.221631 -30.810955
55.325043 24.167259 -23.753687
55.435776 7.7670817 -20.653309
59.130993 16.421543 -36.053944
56.232147 22.427685 -27.420799
46.547493 7.0182862 -29.832075
60.931591 15.234666 -18.517715
44.634232 18.336802 -35.15992
55.437481 11.910845 -25.578789
44.057373 25.996899 -22.447216
53.533993 24.623955 -24.34399
55.437016 14.189355 -20.286737
55.435928 4.2098994 -21.091482
49.345436 15.228422 -33.246372
51.102112 21.943481 -29.173481
55.437622 6.6783323 -25.996178
56.755081 20.928102 -30.841316
52.971962 5.9149113 -29.975716
59.888535 19.719189 -18.231173
57.000923 22.606647 -19.119619
53.662167 19.69639 -32.902473
52.944603 15.229361 -33.582355
55.437553 7.6703768 -25.796686
55.434898 11.009096 -16.352013
60.076614 19.531145 -18.36845
60.218666 16.359482 -34.210281
58.47414 15.227793 -27.041538
50.259697 15.220392 -30.366571
60.62616 15.309521 -33.243877
48.389309 25.606989 -23.093809
48.12505 25.27807 -23.639713
62.163506 17.445961 -28.484154
60.19109 15.232594 -31.371296
57.404408 15.231925 -34.501995
53.583729 26.023129 -16.61376
53.391769 26.215023 -16.270185
59.512344 20.09524 -17.554426
57.434223 20.582357 -31.071215
51.166428 15.233005 -34.889153
62.102871 17.506195 -25.823292
57.695572 15.225615 -30.163548
55.43639 5.8367176 -22.427795
55.438904 13.679504 -29.700981
46.350769 15.224247 -31.748688
60.989204 15.234827 -17.957546
55.500271 8.4572411 -17.325197
52.967834 14.665388 -29.97517
49.545849 24.77997 -24.466202
54.139084 25.11824 -22.438927
61.122398 15.348906 -22.07683
46.128235 19.089859 -33.909958
60.927986 18.680744 -24.326036
61.122398 16.206455 -25.568115
43.804237 12.919281 -29.976814
48.896626 18.042953 -35.647091
48.473328 25.286131 -23.626297
59.487999 15.230628 -30.937105
61.122398 15.318104 -22.15859
50.29324 23.976 -25.80039
45.584549 26.454111 -21.688244
52.878071 19.388426 -33.41367
46.037155 26.133595 -22.220121
54.713821 24.89395 -22.006577
61.122398 16.089846 -23.259211
57.146706 22.460918 -19.378725
60.78495 15.234256 -23.576624
48.619431 15.232175 -34.591385
60.763916 16.504698 -35.402435
50.178406 14.150173 -29.975664
45.742691 12.502701 -29.97681
55.39835 23.33713 -25.863178
57.000168 21.120934 -30.089039
55.777786 16.441322 -36.189655
45.558182 22.838844 -27.688183
51.862118 17.292097 -36.750977
61.185974 16.339088 -20.292408
56.39463 23.075586 -25.554586
46.358238 15.231829 -34.467606
56.270649 23.336582 -17.324299
50.875702 16.516945 -36.523994
47.198853 22.577892 -28.121063
55.436695 8.6889 -23.302448
55.435577 6.5026197 -20.083292
52.830376 4.2550821 -29.975775
56.02552 23.304066 -25.322823
48.835377 4.7103682 -29.977417
55.437981 6.227478 -27.02681
58.714672 15.228464 -28.910337
52.690357 20.58379 -31.42985
54.995754 11.548931 -29.974884
57.230816 22.376917 -20.069866
47.464638 6.3435984 -29.977982
48.010582 21.270554 -30.290642
59.133293 20.474403 -18.53787
61.122402 15.57354 -27.143185
54.80154 24.805531 -17.213842
61.122398 15.579598 -18.383852
56.527943 23.079576 -19.086056
57.188839 22.419395 -23.470995
58.108494 21.500088 -25.203905
48.226906 15.230068 -33.836536
51.226257 15.221203 -30.657104
57.303543 15.224517 -29.932043
51.819111 22.104067 -28.906887
44.545498 7.5869856 -29.821699
57.484928 20.559034 -31.081829
46.377518 15.229427 -33.606182
54.701187 15.227171 -32.797314
52.285709 27.311977 -18.524214
54.31802 19.331388 -33.508156
43.745766 15.224319 -31.774471
47.252953 8.850359 -30.142971
49.907288 24.055529 -25.668449
47.019615 26.944939 -20.873493
55.436005 6.7018833 -21.302681
45.032097 23.184965 -27.113811
46.673126 27.298706 -20.286417
50.528427 22.579733 -28.117619
61.122398 16.051762 -32.120289
55.429642 15.225718 -32.275826
55.436615 10.734818 -23.068352
45.057636 27.780464 -19.487078
58.16338 21.445263 -25.577942
55.513062 5.8105173 -18.028328
54.078491 24.821682 -23.279358
61.122398 15.921921 -31.066971
52.9133 20.520079 -31.535563
53.164005 20.896969 -30.910038
49.68417 10.990953 -29.977066
49.166824 12.946557 -29.976467
49.52108 22.580776 -28.116001
58.815498 18.918016 -34.066414
55.756889 15.22019 -28.061651
60.164734 15.232521 -24.390205
46.02911 18.898588 -34.227409
61.198418 18.41066 -26.482828
55.437225 4.4197755 -24.849794
49.148075 18.227873 -35.340168
54.918213 13.712733 -29.974916
55.437889 7.5586214 -26.761101
52.88546 8.7893581 -29.975752
56.830658 15.233032 -34.898968
46.781837 15.114353 -29.975746
43.668411 24.228767 -25.381666
61.60075 17.885197 -33.99646
49.744484 15.220633 -30.452559
50.477474 26.563917 -21.505436
57.509232 17.095764 -36.750313
52.565826 20.839941 -31.004757
51.402748 27.168526 -19.78414
55.414185 24.193779 -22.826874
48.840363 15.227234 -32.81955
61.574448 18.034403 -24.726084
45.804955 7.1356692 -29.821699
52.146931 20.633904 -31.346745
48.730431 20.686678 -31.259563
50.934422 23.660381 -26.32412
53.435791 26.171034 -16.509558
56.687233 22.627449 -26.440233
44.163921 21.199585 -30.408871
52.332977 12.130569 -29.975979
46.087143 15.220003 -30.228056
55.437939 4.7965565 -26.902237
58.183964 21.423668 -18.744633
43.486641 26.743126 -21.208838
52.040504 9.7282114 -29.976101
61.705395 17.904202 -29.624748
61.318794 16.368317 -17.407801
54.228851 23.88287 -25.597832
49.381592 27.789444 -19.471668
48.261597 23.872334 -25.972673
52.522106 14.972178 -29.975124
49.418919 19.396421 -33.400803
55.047478 13.252437 -29.974863
50.801426 18.907606 -34.211887
55.685581 21.609219 -29.727692
52.293297 15.230524 -33.999592
55.729401 15.220114 -26.88623
60.044487 15.232185 -26.831207
56.127205 16.967796 -36.750473
54.014351 16.501549 -36.455673
57.238537 15.225318 -31.373493
45.851173 24.770594 -24.482193
58.474922 18.35508 -35.12796
53.370235 19.376209 -33.433887
43.682816 5.3910666 -29.821697
59.507626 15.230682 -24.144251
55.436848 11.284348 -23.76392
47.673508 15.811251 -35.676399
50.427334 21.031881 -30.686459
49.988483 19.482641 -33.257645
53.619106 12.218431 -29.975451
59.949432 15.231918 -21.713442
57.241379 22.044003 -27.420277
56.998978 15.223666 -17.464161
50.223587 22.869884 -27.63612
55.436943 13.543526 -22.245689
43.312469 25.882093 -22.637836
52.488945 15.230575 -34.017506
46.172985 26.315702 -21.917877
46.422913 23.459259 -26.658428
48.61272 15.23222 -34.607681
44.875843 15.036003 -29.975994
56.229675 23.377789 -18.950159
46.878323 14.24382 -29.976021
59.861118 17.782757 -36.005997
52.002716 16.547112 -36.657005
47.459629 14.967802 -29.975718
46.19297 22.510283 -28.233387
57.237782 22.370274 -22.259319
47.314743 17.79468 -36.059311
60.662071 18.946825 -25.591591
60.425426 19.182514 -19.33054
55.435833 12.976999 -16.801083
53.426651 23.13311 -27.198893
55.385418 7.4247046 -29.974724
49.423935 6.2708416 -29.977177
52.266903 24.846439 -24.35557
56.634792 22.973015 -21.005953
48.549549 15.223647 -31.533503
50.453007 26.171682 -22.156395
48.068512 13.507473 -29.976124
55.686916 8.0830822 -17.404259
44.0928 15.220573 -30.432228
45.813232 11.248386 -29.977785
54.809986 24.796955 -16.35796
59.907845 18.641953 -33.699738
47.903893 13.006852 -29.976421
47.851276 23.007017 -27.408808
55.066006 15.235041 -35.61911
45.962421 14.105286 -29.976173
55.436661 7.4942126 -23.215101
50.706669 15.224358 -31.788349
61.122398 16.026464 -28.973335
50.169395 4.8001776 -29.976868
55.133892 19.284218 -33.586346
53.294945 4.9867826 -29.975584
60.501446 15.233462 -32.083771
59.863579 19.745651 -28.394434
54.991192 23.032387 -27.071865
44.529221 25.011219 -24.083
55.691505 6.3155994 -17.469862
55.437412 9.6317339 -25.386349
58.546562 15.227995 -19.576174
54.801331 11.50728 -29.974964
62.210808 16.563892 -25.04528
57.763634 21.8451 -26.440926
56.993069 22.614378 -18.321072
62.232529 16.886312 -32.892113
51.211308 24.803885 -24.426315
60.628807 18.218943 -34.091
55.184448 15.227377 -32.871056
55.43494 4.5455537 -18.226738
46.808498 11.326831 -29.977728
51.407188 8.4789648 -29.976358
61.798355 16.473522 -24.308273
46.940578 24.671783 -24.646051
62.230991 16.645247 -22.5215
59.203918 15.229834 -22.828209
55.436684 8.3199139 -23.271282
58.585915 15.228104 -17.319405
50.685249 8.3592367 -29.976656
56.444584 16.46118 -36.277222
43.193504 25.638336 -23.042387
55.373516 12.124055 -29.974728
60.673168 15.233944 -17.514395
60.880409 15.234523 -32.326797
55.438583 15.130117 -27.457338
55.437206 4.1783786 -24.7833
45.206642 19.419632 -33.362774
59.876942 15.231716 -20.904621
58.831814 20.775776 -18.045244
45.01601 15.879084 -35.676399
50.82251 19.956247 -32.471546
48.254955 25.711941 -22.919643
44.125423 10.141635 -29.926872
55.437679 11.491348 -26.149288
59.826466 15.231575 -25.21085
44.341537 15.233351 -35.0135
51.665977 19.502029 -33.225273
46.313602 22.715376 -27.892998
56.089016 15.352188 -35.676403
45.615112 13.164886 -29.976521
54.200279 15.223965 -31.647514
48.37772 23.032444 -27.366547
55.436932 12.911442 -23.987829
62.232079 16.945793 -29.845068
45.471973 27.85717 -19.359726
58.942913 20.666315 -28.98291
44.708145 20.226673 -32.02346
55.438213 10.456268 -27.698509
56.572109 15.222472 -18.424631
53.288418 15.234153 -35.300694
55.583954 15.21971 -20.070887
60.064877 16.465527 -35.636406
59.918694 15.231833 -20.486044
49.470543 18.517876 -34.858841
59.594147 20.0145 -24.669268
54.323746 9.3684883 -29.975159
59.311581 15.231425 -32.543545
53.766731 25.840425 -18.503809
45.39233 15.230972 -34.160721
46.31134 11.71946 -29.977421
58.028725 16.43919 -36.179974
55.691502 7.9515262 -17.67767
44.262779 24.66106 -24.664158
51.610188 9.0500193 -29.976276
56.797058 22.810282 -17.71492
49.967339 15.219859 -30.175581
56.975445 20.695343 -31.232986
45.766575 27.616356 -19.759348
57.607586 15.225367 -24.945131
55.856373 15.220469 -25.831865
55.437973 7.451395 -27.011656
48.895634 25.128061 -23.888584
55.438293 4.8600264 -27.920797
49.06068 11.791709 -29.977325
57.51223 15.2251 -24.475719
61.895981 16.495016 -21.335272
58.934006 20.67424 -22.419437
46.272125 15.227757 -33.007225
55.691502 5.3713546 -17.642736
55.436756 14.718946 -16.47517
48.811375 19.382288 -33.424332
59.702271 19.907215 -30.223673
46.668976 17.682556 -36.245468
50.99453 5.8081598 -29.97653
62.161274 16.553251 -18.480892
46.17234 20.875427 -30.946608
48.912746 17.760689 -36.115543
47.571854 15.228493 -33.271255
56.080139 21.387743 -30.095207
55.55323 8.8412714 -17.98805
49.673466 21.981915 -29.109865
55.438194 6.1494179 -27.649647
55.436211 7.0228601 -21.904732
57.355377 15.224663 -16.685188
60.082306 19.526318 -24.197515
53.376877 20.003656 -32.392574
61.122398 15.995932 -29.025562
62.204998 16.562429 -30.918848
47.310928 11.37406 -29.97769
49.049931 27.948254 -19.208143
55.664818 15.22611 -32.416931
57.139206 15.227961 -32.887356
49.796082 15.230069 -33.836163
50.758141 26.61463 -21.421244
57.914867 15.231119 -33.792038
44.903042 24.505535 -24.922199
46.23793 9.9102497 -29.821699
58.884693 15.228939 -29.648647
43.92606 15.225627 -32.243614
62.201347 16.561546 -33.460407
