# .PCD v0.7 - Point Cloud Data file format
VERSION 0.7
FIELDS x y z
SIZE 4 4 4
TYPE F F F
COUNT 1 1 1
WIDTH 1389
HEIGHT 1
VIEWPOINT 0 0 0 1 0 0 0
POINTS 1389
DATA ascii
-53.875881 -43.323402 21.407478
-51.449902 -41.888187 21.32094
-55.955193 -45.148998 21.827639
-57.581062 -45.148994 8.8962736
-60.652802 -43.918514 22.982738
-57.778717 -45.148994 16.978849
-51.522667 -47.673763 7.3708
-60.726261 -46.137009 7.4053998
-60.17514 -46.985916 23.476349
-54.656601 -43.673962 13.223242
-58.381866 -46.974602 16.133682
-57.033054 -46.484524 23.385498
-45.482899 -46.751343 17.62882
-45.995201 -47.950386 20.740629
-57.070084 -45.148998 22.552
-58.273243 -38.598816 7.6068382
-60.909088 -46.974602 11.593741
-61.349472 -47.283783 19.697495
-60.964073 -47.294319 23.500288
-50.282219 -41.4977 13.375076
-61.204929 -46.988323 15.782543
-57.950222 -46.974602 9.9552088
-54.417557 -43.323399 12.182203
-48.806282 -41.4977 15.989451
-51.677475 -47.370304 23.3855
-48.243195 -41.213245 13.479175
-58.157345 -45.178791 14.695165
-60.939049 -39.976711 23.510799
-46.629776 -39.6721 16.568422
-58.767345 -46.974602 10.545789
-54.641293 -43.323399 7.8455639
-53.156452 -43.323402 13.241887
-53.827473 -43.323395 17.525043
-58.039467 -46.981812 23.447563
-51.449902 -43.140663 8.7421923
-51.128723 -47.284752 23.3855
-56.928902 -45.148998 22.919888
-57.863201 -46.828888 23.295692
-55.797085 -46.296028 23.3855
-54.804729 -43.619026 12.674792
-53.364693 -48.015209 23.3855
-52.333614 -46.495064 23.3855
-51.449902 -42.290276 17.427925
-51.449902 -42.160378 20.757366
-61.283314 -46.996288 12.602898
-58.149796 -45.430679 8.5125637
-56.212692 -45.80751 7.3708
-48.605427 -41.4977 14.044687
-52.642212 -47.175175 23.3855
-53.844761 -48.715527 7.3708
-52.179646 -43.323399 10.057135
-49.086105 -41.4977 17.875046
-58.911964 -46.974602 10.686079
-51.02504 -46.709354 23.385502
-57.863201 -45.88448 8.6747408
-53.863243 -43.323402 18.913223
-55.459522 -47.437241 23.3855
-61.027588 -42.032722 7.9928002
-53.949665 -43.323399 12.234022
-61.069901 -47.45723 8.316926
-51.831223 -43.323399 14.022646
-60.245861 -39.504951 23.083502
-58.158447 -45.291496 14.386385
-54.123344 -47.326511 7.3708
-51.185654 -41.497704 18.233936
-58.388065 -38.673527 23.492771
-61.069901 -48.216164 20.942276
-58.092041 -45.436527 8.5449133
-55.615734 -45.148998 22.806416
-55.617085 -45.148998 16.180439
-60.652802 -43.439972 22.857101
-54.656601 -45.059563 15.648554
-50.659145 -47.546524 23.385502
-45.482899 -46.665901 16.950535
-54.963783 -45.148994 15.72121
-60.82148 -46.974602 17.092663
-51.693474 -47.047291 7.3708
-57.883717 -45.151077 7.5196652
-53.680283 -43.323399 11.053245
-52.003899 -48.48727 23.3855
-61.194496 -41.385914 7.752934
-59.068764 -46.974602 11.247762
-51.745094 -41.541939 11.705774
-45.848282 -47.787209 21.336012
-56.855186 -45.148998 20.512421
-48.739578 -48.616802 23.385498
-53.332031 -43.323399 22.783041
-51.778011 -43.323395 17.116222
-52.118881 -43.323399 10.990694
-53.113239 -45.179226 7.3708
-56.32798 -45.149002 17.835716
-60.64257 -46.974602 14.515636
-45.482899 -44.531044 19.09506
-58.902 -46.974602 8.9542208
-54.462688 -47.293892 23.385498
-54.390903 -46.080265 7.3708
-57.942154 -46.974602 11.729074
-57.863201 -45.4692 8.1027765
-60.825638 -43.212608 23.430901
-52.197922 -47.840012 23.3855
-57.863205 -46.826096 15.761337
-53.990017 -43.323395 7.744235
-50.65134 -41.4977 17.500175
-59.012871 -46.974602 7.7896304
-57.435528 -37.677467 22.7654
-51.449902 -41.852135 10.135876
-57.863201 -45.899597 19.125168
-48.243198 -40.400436 15.164787
-50.129364 -41.4977 11.026989
-55.580433 -45.148998 20.498272
-60.528297 -46.974602 13.804016
-54.656601 -45.047478 10.610513
-55.398666 -36.579304 22.763599
-54.754833 -43.333355 20.776148
-57.555321 -45.148998 15.936019
-61.172646 -46.985039 8.951498
-48.001305 -39.6721 13.935071
-45.482899 -46.862354 12.95665
-61.069901 -48.737309 13.577057
-51.419636 -45.314373 23.3855
-51.921886 -45.264481 7.3708
-55.773914 -36.596977 23.505848
-53.365116 -43.323399 12.255269
-60.839607 -41.635509 7.9928002
-54.656601 -43.935081 22.481064
-60.652802 -41.388103 7.8433838
-54.383224 -43.323395 18.386387
-57.616192 -45.148998 18.385023
-61.069901 -47.508095 22.589985
-57.863556 -46.974602 21.939409
-59.963272 -46.974602 20.139078
-61.069901 -47.918762 12.87603
-57.863201 -46.555439 13.948948
-57.863197 -46.616375 19.715637
-57.009266 -45.148998 21.602137
-61.040649 -45.724075 7.9927998
-53.198357 -43.323399 12.56497
-58.18568 -47.307201 23.427835
-57.863197 -46.071152 7.5433092
-61.069901 -47.999451 14.168724
-57.034782 -45.148998 19.99135
-54.71563 -45.148998 10.352753
-61.230854 -47.295795 12.826951
-54.951431 -43.577911 8.4603815
-49.886726 -41.497704 17.595528
-45.482899 -47.302246 13.991138
-53.526539 -43.323399 18.383524
-55.305988 -47.271816 7.3708
-49.363037 -41.4977 20.517897
-56.139755 -45.453384 23.42872
-48.415668 -41.4977 15.373785
-57.907383 -45.153477 7.8340597
-53.778137 -43.323399 8.5367355
-45.910477 -47.820179 16.934612
-53.109936 -47.360069 23.385502
-61.149555 -47.304031 20.498068
-45.482899 -40.346817 16.21977
-58.090611 -45.436676 16.053936
-54.862389 -45.148998 20.800604
-50.879635 -41.497696 11.750087
-54.656601 -44.765144 11.141973
-60.652802 -46.73896 22.983252
-56.18475 -45.148998 7.5598216
-57.931599 -45.452778 17.044245
-58.128452 -45.175865 14.550186
-54.656601 -43.63562 17.668486
-61.069901 -48.072189 20.233368
-45.482899 -46.941902 12.984905
-52.90337 -48.033821 23.3855
-58.15847 -45.344948 13.459621
-52.715996 -43.323399 13.216516
-45.482899 -42.628769 17.12146
-54.656601 -44.397957 15.133162
-60.497066 -46.974602 18.297581
-47.197403 -39.6721 16.126276
-48.464512 -41.4977 15.353161
-52.308109 -43.323399 15.922873
-59.079239 -46.974602 13.610111
-61.07283 -47.311806 14.660968
-52.793396 -43.323399 20.560516
-58.876328 -38.614384 7.4212103
-58.102947 -46.974602 17.628796
-57.440109 -45.148998 13.520113
-59.46973 -46.974602 16.552271
-61.365097 -47.043999 18.729439
-55.901619 -48.119522 23.385502
-47.426289 -39.6721 17.45031
-51.328468 -41.4977 11.91785
-56.182159 -45.442657 23.521318
-47.030598 -48.790058 23.3855
-53.771248 -43.323399 10.204847
-48.484936 -39.958321 14.826881
-45.482899 -47.086647 13.346537
-48.306103 -39.678493 14.975292
-54.304466 -48.225201 23.3855
-57.863201 -45.628151 10.457209
-60.958794 -46.319908 7.4053993
-61.159328 -40.358864 22.763599
-51.264778 -41.4977 12.595991
-57.863205 -46.80061 9.9560928
-54.656601 -43.700611 20.829166
-58.003979 -46.974602 14.482014
-60.915512 -46.974598 8.149189
-48.271507 -39.979931 18.558907
-61.069901 -48.384472 15.671074
-58.459999 -46.974602 14.585896
-58.427696 -46.974602 21.505594
-60.788074 -41.013611 23.430901
-61.194496 -43.489826 23.353273
-60.976517 -41.799923 7.9928007
-61.069901 -47.371563 10.591701
-53.837093 -43.928936 7.3708
-57.863205 -46.390362 22.419949
-50.273125 -48.214371 23.385498
-55.827705 -37.008614 22.810015
-61.135517 -46.98127 22.697372
-59.81221 -46.974602 10.706092
-57.093502 -46.873627 23.3855
-52.041718 -45.779846 7.3708
-51.449902 -42.514511 23.081364
-58.15847 -45.350449 14.715977
-45.969666 -47.851562 15.097138
-61.17889 -40.38673 8.0726995
-51.24897 -41.4977 15.4562
-58.742233 -46.974602 11.334497
-49.759483 -41.4977 11.241547
-56.339352 -45.148994 18.945297
-54.623352 -45.880852 23.3855
-61.038906 -46.974602 10.770055
-60.652802 -40.335644 7.5663214
-48.976753 -41.4977 20.59746
-60.79126 -46.974602 10.140633
-60.687408 -46.974602 8.2366552
-58.431259 -46.974602 12.538094
-51.449905 -42.474106 17.57465
-59.635635 -48.471516 23.385498
-52.979893 -43.323399 23.004246
-50.232666 -41.4977 21.499916
-52.493179 -43.323402 10.145543
-60.77597 -42.856682 7.4053998
-53.981094 -48.770958 23.3855
-56.472969 -37.428165 7.5016899
-56.520943 -48.697906 23.385502
-52.547928 -46.230907 23.385502
-54.164734 -46.383156 23.385498
-45.482899 -46.551517 13.582015
-57.527531 -45.385227 7.1743455
-54.977837 -45.258026 23.637539
-61.300667 -47.288727 15.063154
-57.649849 -48.660599 7.3708
-57.321426 -37.821098 22.763599
-56.477222 -45.148998 16.834467
-52.38385 -44.636108 7.3708
-48.243198 -40.721256 15.455581
-58.083572 -38.470791 22.763597
-52.03904 -45.276711 23.3855
-48.866982 -48.124557 23.3855
-56.713974 -45.148998 18.641256
-51.855854 -43.323399 15.111212
-62.116077 -41.080772 7.6709175
-50.821987 -47.560028 7.3708
-57.746567 -45.148998 9.8652306
-49.412315 -46.595615 23.3855
-52.966694 -44.209961 23.385498
-61.194504 -43.538246 22.889519
-59.224922 -46.974602 16.333336
-45.995201 -48.356922 13.504611
-57.863197 -45.644798 17.315742
-54.656601 -43.939835 17.721039
-48.394829 -39.687508 16.102888
-58.500809 -46.974602 17.83317
-51.573666 -46.803177 23.3855
-51.449902 -43.214108 13.60322
-58.384857 -46.974598 20.356283
-56.539246 -47.788952 23.385502
-57.524437 -45.148998 14.930932
-54.022327 -47.999748 7.3708
-56.559353 -45.965675 23.3855
-52.869396 -43.343178 23.549564
-56.936424 -45.148998 22.214815
-54.656597 -44.692886 19.479204
-57.863205 -46.78196 16.879457
-58.158413 -45.20816 21.804132
-45.482895 -43.900719 17.243177
-45.482899 -47.327667 15.02234
-60.942638 -46.974602 19.648046
-54.110527 -43.327953 7.331449
-47.908321 -39.672096 15.533642
-58.399826 -46.974602 8.1523514
-52.566429 -47.480934 23.3855
-52.119347 -43.323399 10.876791
-56.403236 -45.148994 12.17582
-51.449902 -42.861607 15.038587
-54.321365 -43.323399 12.615508
-55.58033 -45.148994 20.413467
-51.449902 -42.261978 21.754091
-60.802681 -46.974602 11.562514
-56.600349 -45.148998 18.979206
-54.656601 -43.914059 23.049986
-60.652802 -44.85709 22.971779
-54.656601 -44.820724 11.300422
-45.482895 -46.491695 17.699131
-61.069901 -48.139877 19.996067
-61.706596 -40.45483 7.6335912
-60.96814 -46.974602 16.201677
-54.656601 -44.471058 15.938069
-51.449905 -42.307903 18.538132
-51.449902 -43.226753 21.800785
-48.243198 -41.486065 17.580442
-48.511951 -39.955589 17.259836
-58.707672 -47.705704 23.3855
-58.357155 -47.88155 23.3855
-56.479195 -45.149002 16.923635
-61.069901 -48.020245 21.283298
-58.783867 -46.974602 14.423122
-54.838394 -43.416405 7.1855817
-45.482899 -45.906418 18.084215
-53.776478 -43.608749 7.1744843
-54.704762 -43.328278 16.060806
-49.138145 -41.4977 13.407804
-45.482895 -46.06324 16.547827
-55.841423 -45.148998 22.726036
-57.750042 -47.411331 7.3708
-59.828346 -46.974602 8.0157557
-52.982399 -47.006485 23.3855
-60.652802 -45.145859 23.145657
-52.951714 -43.685799 7.3708
-45.482899 -42.133537 16.712814
-60.904877 -45.274734 7.4053998
-54.169357 -43.323399 17.546705
-52.751755 -43.323399 10.332952
-48.387871 -41.4977 12.671003
-56.22641 -45.148998 9.1793213
-54.704704 -43.629204 16.621527
-56.607769 -37.267395 22.763599
-52.580063 -43.323399 12.566919
-57.636986 -45.148998 20.614859
-54.661255 -43.323872 9.8960371
-54.920361 -43.350121 21.894304
-50.929893 -46.32489 7.3708
-51.449902 -42.232761 15.066151
-49.715176 -48.366795 23.3855
-60.904118 -46.988354 23.430901
-52.503906 -43.323399 14.452579
-54.9515 -43.519199 15.321461
-56.424927 -45.148998 14.120161
-48.243195 -40.114971 17.238638
-57.945427 -45.157326 15.081093
-51.55471 -47.451981 7.3708
-61.194496 -41.862564 7.6079702
-56.358612 -45.36198 23.607414
-61.069901 -48.114052 19.610931
-51.354 -46.3825 7.3708
-61.069901 -47.99984 22.662998
-54.262577 -43.323399 17.60314
-54.656601 -44.948376 15.878149
-48.591698 -41.4977 14.735336
-54.656601 -44.969265 8.7236767
-59.471832 -46.974602 7.9650807
-51.745071 -41.590267 20.168594
-60.392025 -46.974602 8.0322933
-59.322197 -46.974602 22.866199
-51.347343 -41.4977 22.173687
-57.954792 -45.158279 9.5111399
-54.656601 -43.733162 9.5475769
-61.365101 -47.215359 22.476458
-61.307171 -40.571659 7.5928717
-57.863197 -45.983986 21.366444
-57.863205 -46.657768 20.384958
-54.902893 -43.348354 7.4363275
-59.773243 -39.574203 7.6474991
-60.680576 -46.006199 7.9928002
-56.064529 -45.148998 10.111791
-51.449902 -42.091866 9.6146736
-61.011307 -44.83947 23.430901
-60.652802 -41.745991 23.30216
-59.042847 -38.722664 23.46137
-58.158417 -45.222401 11.263599
-60.522861 -46.974602 8.8015575
-52.914745 -43.323399 14.380524
-60.609222 -46.974602 17.692118
-52.872005 -46.756508 7.3708
-58.09063 -46.974602 7.862009
-58.464203 -46.974602 22.664665
-57.978165 -45.160645 7.4872236
-54.052475 -43.323399 18.976122
-54.656601 -44.174732 9.9529495
-58.43264 -46.974602 16.345957
-50.954247 -41.4977 17.008459
-50.222958 -41.4977 18.429764
-48.964588 -41.4977 17.760025
-56.558826 -46.760738 23.3855
-61.1945 -44.503033 23.027103
-54.656601 -44.706436 9.1572227
-55.014191 -45.148998 7.8615918
-51.153072 -41.4977 12.599159
-61.365105 -47.122185 20.065762
-60.930386 -40.326653 7.3779845
-51.449898 -42.228336 17.852528
-59.558304 -47.957409 23.3855
-60.25021 -46.974602 18.989218
-60.943951 -46.974602 21.411119
-57.00074 -45.148998 7.5839887
-54.931793 -45.148998 23.289909
-49.107098 -41.4977 16.112072
-55.951782 -36.775993 22.763599
-49.762421 -41.4977 20.08445
-54.656601 -44.244057 17.458324
-49.666409 -47.564167 23.3855
-48.243198 -40.204609 18.002869
-53.917183 -44.311214 23.385502
-51.449902 -43.271416 17.116726
-51.449905 -42.766094 16.71743
-53.580765 -43.323399 10.178309
-58.502979 -38.371605 7.3508945
-53.195862 -46.359245 23.3855
-45.482895 -43.893074 16.281872
-49.440712 -41.4977 19.435184
-51.938484 -43.323395 17.279451
-56.48468 -37.059162 23.479578
-45.482895 -46.239475 17.157501
-61.116371 -46.979328 20.277651
-45.482895 -43.009544 18.092693
-53.100697 -43.323399 15.933224
-61.069901 -48.676357 17.411242
-57.712639 -47.254082 7.3708
-56.302975 -45.148998 10.718192
-56.094116 -45.148998 11.447721
-52.163589 -43.323399 15.610891
-58.51001 -38.376179 23.063589
-61.194496 -44.996086 7.5068932
-47.359386 -39.6721 16.341995
-61.069901 -47.594059 11.922269
-61.365105 -47.181404 22.668085
-58.136654 -45.432011 19.333035
-45.995201 -48.464466 15.021096
-53.658913 -43.323399 17.203241
-45.482899 -47.52953 17.943493
-54.656601 -44.290413 14.05221
-54.536362 -43.323399 10.371038
-54.407906 -43.323402 14.23189
-54.576302 -43.323395 8.334363
-53.748272 -43.323399 9.6362848
-51.486084 -43.323399 14.804135
-55.402069 -46.9161 23.385502
-52.18018 -46.024963 7.3708
-52.320736 -43.323399 17.966734
-51.535679 -41.799778 19.555017
-61.061581 -46.777256 7.9928002
-60.176636 -39.459942 7.3961897
-60.924629 -46.262878 22.843502
-46.312233 -39.6721 16.861572
-47.029705 -39.6721 16.145214
-54.411736 -43.323399 21.838566
-53.929386 -43.323399 22.886395
-51.604076 -41.513367 19.605408
-61.069901 -48.752041 13.366675
-61.069901 -47.504364 16.866096
-45.482899 -42.571472 16.190645
-54.656601 -43.855751 18.052294
-52.309654 -43.323399 21.515957
-57.863205 -45.998676 12.078669
-60.503273 -46.974602 12.282072
-61.1945 -46.470108 7.4712877
-60.961571 -41.116676 23.430901
-51.745087 -41.566948 23.32505
-45.995201 -48.160782 16.213436
-54.496727 -35.766457 22.767704
-51.00774 -41.4977 14.165048
-58.158413 -45.207642 22.022533
-53.684296 -46.387321 23.385502
-49.984322 -46.407299 23.385498
-51.587822 -43.323402 8.5115528
-61.069897 -48.446365 12.024351
-56.634014 -45.148998 19.503559
-45.482899 -45.178329 14.831361
-50.663914 -41.4977 21.535368
-45.620808 -47.666615 20.323729
-59.314987 -46.974602 14.480156
-56.080933 -46.440212 7.3708
-48.401218 -41.4977 14.65168
-60.796761 -42.636337 7.4053993
-56.529617 -45.148998 17.423193
-45.482895 -47.254192 20.228149
-45.482895 -47.023426 17.993002
-59.289913 -46.974602 19.235493
-54.897835 -36.403954 23.283148
-58.884007 -38.619377 23.46324
-58.144295 -47.354023 23.3855
-48.243198 -40.182552 16.102102
-48.243198 -40.084244 17.483181
-57.863205 -46.684494 14.015511
-54.15675 -43.323399 15.5741
-60.887482 -43.004417 22.843502
-54.866005 -43.612789 11.28334
-56.801804 -45.279541 7.1585259
-59.681488 -46.974602 22.397493
-53.557316 -43.323395 12.750687
-52.774109 -47.895004 23.3855
-45.763458 -47.742241 12.637687
-56.867676 -45.148994 13.617529
-52.399681 -43.754082 23.385498
-57.863197 -45.542473 10.671528
-45.995201 -48.214798 16.801571
-56.672699 -37.181427 7.4242997
-56.680931 -48.539028 7.3708
-51.564934 -43.323399 13.794657
-58.243126 -46.974602 19.691301
-61.069901 -47.625443 14.642204
-52.294411 -43.323395 23.292566
-45.689568 -47.703064 21.423897
-53.190701 -43.323399 20.573513
-60.969688 -46.974602 11.294758
-59.883503 -39.614784 23.510799
-58.652321 -46.974602 14.94346
-59.30024 -46.974602 19.483238
-54.124973 -43.323399 14.612963
-50.888092 -41.4977 11.046635
-59.294823 -46.974602 18.875145
-60.953239 -46.224876 23.430901
-55.451221 -45.148998 15.706461
-56.891838 -37.323929 7.9629683
-61.194504 -41.894783 7.8602853
-57.863201 -46.863476 23.381495
-51.272472 -41.4977 16.545164
-58.447128 -46.974602 14.231796
-54.211311 -44.474979 23.3855
-61.069901 -48.612694 13.96135
-54.110561 -48.596199 7.3708
-58.158401 -45.185051 16.043133
-45.482903 -43.6129 18.476887
-45.482903 -43.705582 16.301353
-56.458946 -45.521515 23.385498
-61.139786 -47.305023 12.545194
-58.054794 -45.4403 8.1742487
-47.858204 -39.6721 15.227271
-51.698833 -41.783195 10.869333
-61.069901 -47.570164 11.094852
-61.069901 -47.762985 7.6495171
-61.069901 -47.726082 15.256203
-45.482899 -44.054214 15.056111
-58.480972 -46.974602 22.664053
-61.069901 -47.84346 12.573528
-50.57206 -44.162075 23.3855
-60.67181 -39.932732 7.3255
-57.863201 -46.245537 18.12491
-50.769855 -44.033707 23.3855
-54.656601 -43.647232 12.526621
-60.059433 -46.974602 19.357132
-57.511112 -47.38245 7.3708
-57.946678 -45.157455 9.3144207
-58.609531 -46.974602 14.566944
-52.359108 -43.323399 14.793961
-60.631363 -39.819187 23.510799
-51.997059 -46.283344 23.385498
-47.638416 -39.6721 16.994801
-51.449902 -42.80164 16.70244
-57.918571 -47.309532 23.407665
-54.716381 -43.329456 16.202997
-58.427967 -46.982277 7.3047094
-59.578156 -46.974602 20.878025
-60.928616 -40.325558 23.065821
-48.082256 -47.837791 23.385498
-50.400955 -41.497696 15.864171
-51.086105 -41.4977 20.83906
-54.830425 -43.616409 11.80489
-51.601692 -45.146023 7.3708
-56.812794 -47.885414 7.3708
-61.012108 -46.447697 22.843498
-61.069901 -47.397404 14.22127
-45.482895 -44.970589 18.572985
-58.901287 -46.974602 21.655996
-58.335224 -47.772125 7.3708
-47.633556 -39.6721 18.185677
-61.069901 -48.777958 17.740738
-60.67144 -40.097984 8.0726995
-50.996037 -48.34351 7.3708
-58.353661 -47.308849 7.3427038
-49.890232 -41.497696 21.128838
-61.069901 -47.326477 13.258524
-56.679573 -47.410942 23.3855
-55.747208 -45.148998 13.418954
-57.720642 -48.300674 7.3708
-60.652802 -45.645016 23.024227
-61.041805 -46.974602 17.335087
-55.431293 -36.374176 23.411383
-45.995201 -48.249496 21.219362
-54.656601 -44.17329 8.9336624
-53.441238 -43.323402 21.98941
-45.482903 -46.556396 17.677029
-55.940971 -45.926598 23.385502
-54.656601 -44.681831 13.181582
-53.165638 -43.323399 20.668879
-54.656601 -44.959686 18.561903
-59.096813 -48.735119 7.3708
-45.995201 -48.063805 15.197018
-51.449902 -43.106369 23.041275
-54.8862 -45.148998 10.972975
-57.470963 -45.148994 22.855841
-54.714863 -45.148998 23.221691
-54.99358 -45.149002 7.8691735
-52.156315 -44.61451 7.3708
-60.768608 -46.974602 13.559066
-57.365471 -45.148998 7.6537013
-51.537537 -41.506607 18.13006
-51.501263 -48.149925 23.385498
-45.888538 -47.808548 18.823008
-53.17585 -43.323399 15.681403
-45.482899 -45.736401 15.480784
-61.069901 -48.145287 11.946713
-56.891808 -45.148994 23.344397
-57.935692 -45.452362 14.71972
-54.951515 -43.508026 12.786876
-61.069901 -48.615246 13.984703
-50.087151 -41.4977 11.494876
-60.652802 -40.391724 7.5199833
-45.482899 -47.102215 12.321732
-57.417545 -47.928505 23.3855
-56.490814 -45.148998 12.912292
-57.863201 -46.949619 7.6178956
-47.933582 -39.6721 16.378988
-57.299923 -37.840824 8.0726995
-54.569946 -46.722607 7.3708
-58.722565 -47.474529 7.3708
-53.16954 -43.323399 18.538239
-54.777905 -47.723152 23.3855
-51.449902 -42.079014 18.285973
-56.686237 -37.379524 23.510799
-46.805695 -39.6721 15.917135
-55.940483 -47.168137 23.3855
-55.253143 -45.148994 8.9952984
-45.525784 -47.616234 19.574707
-61.069901 -47.953819 8.747467
-48.758511 -41.4977 19.188334
-61.069901 -48.10968 8.1433067
-61.044483 -43.246761 23.430901
-59.249809 -47.46283 7.3708
-52.456177 -43.323399 20.456663
-51.745041 -41.673599 16.630915
-59.659698 -46.974602 22.850002
-61.897984 -40.955841 7.6263738
-60.651051 -46.974602 17.427629
-53.790386 -46.383171 7.3708
-60.774258 -41.459728 7.4053998
-45.482895 -44.86647 16.299486
-51.501526 -48.775436 7.3708
-55.728584 -46.912209 7.3708
-51.593315 -41.512276 9.7525043
-57.863197 -46.876099 15.961815
-53.798046 -43.323399 17.683886
-45.482899 -46.382664 17.008858
-60.898762 -46.014374 22.8435
-60.652802 -40.599056 23.230631
-52.464478 -43.323399 15.731016
-57.863197 -45.468353 12.969883
-54.108864 -48.582329 7.3708
-58.314285 -38.456898 22.763599
-54.656601 -44.433563 22.671854
-45.995201 -48.311535 11.481314
-58.158447 -45.282677 7.5968795
-54.458057 -43.323399 7.6054592
-58.109642 -45.434746 22.92201
-48.959854 -41.497696 17.654863
-52.432072 -43.323399 17.724287
-45.482899 -46.575233 18.641151
-51.471462 -43.323399 18.498747
-57.863201 -46.614311 16.715641
-54.842621 -45.148998 22.850431
-53.39444 -43.323399 13.919405
-54.440331 -43.323399 18.461643
-53.276123 -43.323399 17.039383
-52.032478 -43.323395 22.275229
-50.420441 -41.4977 15.27348
-59.103168 -46.974602 16.414616
-45.995201 -48.152603 12.033607
-47.809044 -39.6721 18.094278
-59.59182 -46.974602 17.96126
-57.863201 -45.532082 13.113867
-53.062195 -43.323402 17.649265
-56.572388 -45.148994 11.820093
-55.719883 -45.148998 13.521723
-60.111713 -39.417717 23.052813
-56.614933 -47.937397 7.3708
-58.152908 -45.178345 8.7782955
-54.789825 -43.336899 15.349933
-50.443802 -41.497704 11.903934
-54.706913 -45.148998 20.111492
-54.656601 -44.348892 16.512119
-52.156403 -43.323399 12.942003
-60.862755 -43.468422 22.8435
-56.530972 -45.148998 22.423988
-62.136486 -40.734371 23.114954
-52.173309 -43.323399 22.83288
-54.656601 -44.76041 14.834419
-51.561832 -41.509071 12.788048
-48.243202 -41.189262 18.04147
-56.869522 -45.148998 21.679546
-50.008209 -41.497696 18.639265
-61.194496 -41.996727 7.7360878
-61.069901 -47.458183 12.261633
-45.482903 -42.233242 15.113394
-60.471344 -39.651577 7.7521043
-51.449902 -42.837914 9.5369225
-51.290421 -41.4977 19.566059
-53.948669 -47.065521 23.3855
-45.482899 -44.461876 18.999506
-53.228874 -43.323395 21.822937
-58.998383 -47.730064 7.3708
-58.391907 -46.974602 8.9356003
-56.721489 -46.045063 23.3855
-58.158489 -45.405373 21.465225
-60.876434 -44.409859 22.8435
-51.449898 -42.333279 19.898411
-59.839447 -46.974602 21.193043
-61.313248 -47.287453 10.627182
-57.863201 -45.467709 19.661844
-54.961182 -46.238659 23.3855
-59.100151 -46.974602 21.625431
-48.243198 -40.951965 14.757212
-51.449898 -42.158386 17.488272
-45.482899 -43.978584 18.476639
-58.651821 -46.974602 20.874458
-45.482899 -43.745483 14.922618
-59.832474 -46.974602 23.31636
-45.995201 -47.875637 20.127127
-49.964268 -47.509811 23.385498
-58.882347 -46.974602 13.573713
-48.149879 -39.6721 17.359846
-50.938026 -43.242462 23.3855
-59.909378 -46.974602 10.613087
-56.580982 -45.149002 8.4816113
-61.069901 -48.092148 12.374197
-54.922924 -45.148998 19.725147
-59.791595 -46.974602 16.234921
-52.423786 -46.021542 7.3708
-45.995201 -48.406128 11.45143
-51.464581 -41.807003 19.129566
-51.188 -41.497704 18.686398
-52.330189 -43.323399 15.29251
-61.069901 -47.98864 15.834968
-58.411942 -47.360981 23.3855
-55.918243 -46.497978 7.3708
-45.482895 -42.792747 16.275763
-55.418022 -45.159618 23.477234
-56.316509 -45.149002 8.0208559
-57.863201 -46.557266 23.006435
-45.995201 -48.272984 11.602927
-52.408524 -43.323399 18.697271
-45.482895 -46.716557 12.92969
-60.091122 -46.974602 16.317997
-57.237434 -45.148998 9.0777788
-55.222496 -47.859837 7.3708
-45.995201 -48.441013 18.707172
-60.652802 -43.433983 23.368633
-45.482903 -46.118828 17.494318
-53.429611 -43.636803 23.389236
-52.019028 -45.531967 7.3708
-45.482899 -45.987675 20.063889
-57.457916 -45.962769 7.3708
-52.681087 -46.880886 7.3708
-54.674129 -43.632317 9.1768465
-59.881241 -46.974602 10.632576
-58.581638 -46.974602 21.081203
-45.482895 -46.56974 12.381839
-60.930187 -42.952927 7.9927998
-56.910606 -45.148998 17.591393
-48.394417 -41.4977 15.506235
-54.488998 -43.323395 15.075141
-51.449902 -43.084354 10.768394
-57.863201 -45.890591 21.620481
-60.277664 -39.889462 8.0726995
-51.745007 -41.745064 21.120119
-61.021057 -45.92448 7.4053998
-45.482895 -44.021301 16.645704
-51.239574 -41.497696 18.116686
-45.995201 -48.400982 13.270089
-58.839447 -38.967049 22.895199
-54.656601 -43.791504 8.0221796
-53.786339 -43.323399 14.706533
-57.71315 -45.148998 21.260981
-51.483639 -45.810593 7.3708
-57.863205 -46.891205 16.817837
-55.898762 -45.149002 9.0044079
-61.365101 -47.081749 9.3252697
-57.99192 -47.759384 7.3708
-60.277599 -46.974602 17.18438
-50.648563 -44.903702 23.3855
-51.130096 -41.4977 19.728676
-57.361748 -45.177876 7.1772146
-51.251301 -41.4977 21.0735
-60.737156 -40.630894 23.430901
-61.069901 -47.346413 20.113611
-52.723202 -43.326523 23.412537
-53.88829 -43.323402 13.75633
-59.39703 -48.19186 7.3708
-53.533836 -46.145695 23.385502
-53.500618 -43.323399 15.375886
-61.328308 -47.000858 9.3287973
-45.482903 -42.465763 16.90802
-45.995201 -47.877342 12.288406
-53.821724 -43.323402 19.700672
-54.656601 -44.023518 17.572187
-50.771244 -41.4977 18.078363
-57.982197 -45.161053 9.1188183
-45.482903 -44.721447 14.94824
-51.449905 -42.017017 19.003527
-61.069901 -47.530827 11.844834
-56.359329 -36.977654 22.816555
-57.863197 -45.689838 10.665449
-57.667702 -45.148998 22.258724
-54.656601 -45.052273 7.8133621
-45.721107 -47.719791 18.66342
-60.818214 -44.86504 7.4053993
-54.656601 -43.991039 22.449982
-45.482903 -47.582321 12.459086
-51.548023 -43.323399 14.511872
-52.206291 -45.032791 23.3855
-49.826359 -41.497696 11.724616
-52.265427 -43.323399 13.832055
-52.997807 -48.087334 7.3708
-53.359818 -44.6395 23.3855
-54.656601 -43.711849 11.895464
-60.652802 -42.840431 7.833127
-51.449902 -42.435341 15.95703
-58.867981 -46.974602 20.767441
-61.105526 -47.308491 15.765699
-61.069901 -48.500038 8.4779911
-57.863205 -45.51815 17.262234
-45.482903 -46.41346 15.126686
-51.449898 -42.322674 20.906496
-51.251701 -41.4977 21.583874
-57.863201 -46.229645 19.301949
-61.078594 -47.311218 22.357914
-61.1945 -47.013229 22.867483
-52.576859 -43.323399 9.791357
-60.652798 -45.31707 22.87517
-51.283054 -41.497696 13.769268
-61.365101 -47.24128 10.137962
-60.793076 -46.974602 10.12682
-57.679287 -45.148998 7.5833364
-52.294701 -45.993839 7.3708
-51.228909 -48.366814 7.3708
-52.833084 -46.340591 23.3855
-45.995201 -48.391277 15.207039
-51.684925 -41.521584 10.048523
-61.05085 -42.164696 7.4053998
-61.069901 -48.722679 9.1417418
-54.656601 -44.100391 16.972248
-52.229225 -43.323395 18.513184
-51.553482 -41.508224 14.592035
-50.830795 -41.497696 19.028505
-55.14846 -45.148998 13.845509
-45.482899 -43.572021 14.161501
-57.829041 -47.554619 23.3855
-51.705219 -47.612518 7.3708
-57.624352 -38.097595 7.3255005
-53.644337 -43.323402 8.6183977
-58.056305 -45.440144 20.036694
-54.656597 -43.841324 10.471395
-59.017693 -46.974602 15.970158
-50.967262 -41.4977 15.367128
-61.069901 -47.469231 19.779858
-60.503136 -47.303661 7.3050613
-57.792747 -48.772102 7.3708
-48.624184 -41.4977 12.86047
-59.890701 -46.992607 23.524731
-48.526554 -39.954109 17.549637
-57.863197 -46.021667 15.349529
-54.656601 -43.715855 11.845704
-48.562458 -47.529217 23.3855
-53.274632 -43.323399 13.061927
-49.272827 -46.648167 23.3855
-54.656601 -44.917179 22.822912
-51.575371 -43.323395 15.218669
-54.946388 -45.148998 20.55809
-45.995201 -48.180428 15.443383
-55.525242 -48.231194 23.3855
-48.243198 -40.229839 17.290241
-53.07674 -43.323399 20.975428
-58.780022 -38.723232 22.763599
-45.482899 -45.747757 18.93203
-53.477516 -43.323402 13.643362
-57.863197 -46.075005 15.135925
-54.656601 -43.644855 18.006166
-53.391129 -43.323399 14.265992
-49.345001 -41.4977 12.605307
-56.127766 -45.148998 10.874554
-48.186874 -39.6721 17.174589
-58.072319 -45.438526 15.475858
-61.069901 -48.106281 17.236012
-57.428864 -37.689171 22.763599
-61.1945 -44.654293 7.4958763
-57.804939 -45.149002 18.617859
-61.980587 -41.00956 7.5163336
-47.281799 -39.6721 14.944484
-45.482903 -46.039944 19.475224
-47.72691 -39.6721 15.278978
-52.494755 -43.323399 20.585913
-54.007233 -47.481197 23.3855
-54.656601 -44.394829 14.276886
-57.35836 -45.148998 9.7602739
-57.863201 -46.475521 9.2045088
-54.656601 -44.280846 15.571619
-53.762005 -47.042355 23.3855
-52.187653 -43.323399 20.569538
-52.210064 -43.323399 17.167067
-58.154476 -47.289093 7.1720734
-58.56958 -46.974602 18.650797
-58.158493 -45.410538 7.2215171
-52.885414 -43.323399 17.414656
-57.863197 -45.820564 16.490498
-62.17535 -40.936558 23.432261
-52.304596 -43.323399 17.655436
-54.951454 -43.560974 13.552513
-49.838249 -41.4977 16.936832
-61.1945 -41.490654 7.9725308
-55.479549 -45.149002 19.786808
-51.449898 -42.068733 18.703691
-61.069901 -48.071991 10.559091
-52.568451 -45.0681 7.3708005
-51.449905 -43.201691 9.6105061
-48.243198 -40.256798 18.236607
-49.121258 -41.4977 15.28759
-58.008133 -45.163681 23.093777
-55.068939 -47.040016 7.3708
-60.107067 -46.974602 22.512732
-57.540237 -46.023445 23.3855
-54.210678 -43.323399 21.459204
-45.482903 -46.533684 18.364006
-58.04567 -45.441223 11.121653
-57.863201 -46.782532 10.152173
-46.743637 -39.6721 15.783863
-57.863201 -46.765587 11.983437
-60.244019 -46.974602 8.5146427
-60.056747 -46.974602 11.80397
-57.496513 -37.931175 23.510799
-55.377914 -36.716133 23.249317
-45.482899 -43.783615 17.821682
-45.482899 -43.228477 17.79586
-54.656601 -44.846165 21.030884
-61.153915 -47.303589 20.475597
-55.831745 -47.630703 23.385502
-60.077988 -46.974598 23.037003
-53.01799 -43.323399 16.625092
-51.143303 -43.105957 23.385498
-61.21743 -47.297157 13.252613
-60.795731 -46.974602 21.370337
-57.006702 -45.148998 23.377153
-53.490719 -43.958981 7.3708
-57.863197 -46.854095 16.107552
-45.995201 -48.469086 20.671139
-45.482899 -46.520538 15.051532
-57.90147 -46.974602 14.703711
-58.158493 -45.405186 10.028374
-57.870007 -45.149685 21.33742
-59.950161 -46.974602 22.066921
-61.069901 -47.489769 19.385605
-54.656601 -44.071213 22.370304
-51.997055 -43.323399 19.861151
-54.656601 -45.120235 11.121281
-57.952015 -46.974602 21.63316
-51.449902 -42.037807 20.311024
-52.929108 -43.323399 20.195021
-57.863201 -46.021542 22.283455
-55.550777 -45.148998 15.544531
-57.863205 -46.527328 23.02165
-57.642673 -38.188782 7.7767663
-58.166321 -38.372932 23.510799
-48.445766 -41.4977 18.235615
-61.069901 -47.969933 22.932648
-52.943459 -43.323399 15.151176
-60.872147 -46.974606 11.645101
-50.442219 -43.67897 23.3855
-57.863201 -46.68399 12.639522
-57.539486 -45.148998 10.362116
-54.708858 -45.149002 13.597466
-45.482903 -45.915611 13.794165
-53.283417 -48.782562 7.3708
-53.350273 -43.323399 18.332897
-45.482899 -46.052559 16.882597
-51.687283 -41.521824 23.07131
-61.1945 -46.869987 23.411545
-52.459152 -43.323399 12.149911
-61.194496 -42.286407 23.274939
-52.25161 -43.323399 9.2932873
-53.04377 -43.323399 20.006754
-51.555264 -48.420181 23.385502
-61.069901 -48.283424 18.501297
-54.827438 -46.289368 7.3708
-54.832756 -43.616173 10.4899
-45.871342 -39.680065 16.325012
-58.15847 -45.355453 23.163879
-55.082928 -45.639633 7.3708
-54.719898 -43.329815 19.605085
-54.656601 -44.477657 8.6044874
-57.863205 -45.878494 12.287035
-51.745018 -41.726101 11.103176
-45.482899 -41.569572 15.318279
-60.652802 -42.157681 22.962515
-61.1945 -41.538147 23.209686
-51.88776 -43.323399 21.701351
-48.966873 -41.4977 13.76396
-45.482895 -42.743408 17.043411
-55.697468 -45.148998 18.956064
-58.086563 -45.171623 12.264609
-59.681274 -46.974602 7.4394779
-57.536873 -45.148994 11.032441
-51.449902 -42.189247 11.656904
-57.989956 -46.974602 22.599682
-59.068371 -46.974602 9.7066145
-57.863197 -45.824955 19.237755
-60.987167 -46.974602 17.834343
-57.976543 -45.160477 12.739714
-51.466614 -41.499397 15.368159
-53.443878 -44.772274 23.3855
-45.482903 -44.456718 15.217599
-54.656601 -44.338623 21.269726
-50.207722 -46.042717 23.3855
-51.05603 -45.884552 23.385498
-58.158447 -45.292908 21.258043
-56.000744 -45.148998 13.766142
-50.71608 -41.497704 21.124367
-54.656601 -44.463383 17.738165
-51.449898 -42.124626 21.750851
-54.15414 -43.323402 20.763908
-49.915901 -41.497704 16.344416
-48.243198 -41.264256 17.547352
-61.069901 -48.443874 17.891481
-45.482895 -47.213261 12.565111
-51.449902 -43.196129 8.8988323
-56.845261 -45.148998 19.157438
-56.702209 -45.148998 19.131763
-61.069901 -48.095127 8.319911
-57.229362 -45.149002 13.244186
-50.155998 -41.4977 21.969376
-57.863201 -46.770988 9.6600552
-61.069901 -47.683788 10.385006
-57.863205 -45.755852 17.220123
-52.363365 -43.323399 14.989178
-61.163792 -42.164379 22.843502
-61.357208 -47.283001 22.38974
-55.881958 -45.148998 10.90093
-48.538467 -39.872002 18.511078
-45.482903 -46.803375 19.788261
-48.25695 -39.673492 14.42312
-59.061058 -46.974602 11.54463
-60.729523 -46.974602 16.725615
-55.974991 -45.148998 12.779581
-58.561146 -46.974602 15.439381
-61.365105 -47.250854 19.401497
-57.258152 -48.244377 7.3708
-48.243198 -40.657196 19.290874
-61.076633 -47.311417 20.019011
-56.384674 -37.37075 7.8690023
-51.45005 -41.808479 9.707305
-60.689812 -40.162666 23.430901
-47.618256 -39.6721 16.924259
-53.579132 -43.323399 17.566002
-57.105652 -45.148998 8.0160255
-52.255394 -43.323399 22.54977
-56.66185 -46.493683 7.3708
-59.740025 -39.291759 22.763599
-57.971855 -45.4487 11.995325
-48.195885 -39.6721 18.714838
-61.365101 -47.18911 19.278345
-61.272949 -47.125767 23.570208
-60.652802 -42.809986 7.723361
-60.606186 -46.974602 15.230366
-53.0373 -47.978607 7.3708
-54.656601 -43.658821 20.58412
-59.921364 -46.974602 21.240026
-54.536518 -43.323399 9.59338
-56.651009 -45.148998 9.9677153
-51.528366 -41.800522 14.574305
-52.368904 -43.323399 10.301791
-52.245075 -43.323402 8.4548225
-60.402561 -46.974602 9.9971676
-61.02668 -46.974602 8.980958
-50.968311 -41.4977 11.855178
-58.70261 -47.291458 23.563808
-54.951527 -43.49995 21.187542
-50.491047 -45.323532 23.3855
-60.982201 -40.164185 7.3254995
-54.656601 -44.12722 23.364641
-58.610497 -46.974602 18.10754
-58.634064 -46.974606 22.972549
-58.818909 -46.974602 22.195915
-45.482903 -45.733589 17.008366
-51.449898 -42.310196 12.31635
-56.020493 -48.201439 7.3708
-61.069901 -47.312752 12.251431
-57.963581 -45.159164 16.349775
-58.158409 -45.207489 11.782561
-48.243202 -40.580696 18.587257
-61.194496 -41.23407 7.8871565
-56.012733 -45.148998 16.12224
-59.704174 -46.974602 17.405411
-51.882668 -45.136837 7.3708
-55.431797 -45.148998 13.040684
-54.951572 -43.457909 21.763083
-52.785294 -43.323395 13.85915
-60.485901 -46.974606 23.311531
-52.10865 -43.323399 11.494617
-51.745064 -41.612728 17.306385
-51.449902 -43.009548 20.41785
-51.336357 -43.961128 23.3855
-61.069901 -48.669216 12.408279
-57.102234 -45.148994 15.21379
-60.581032 -39.887424 23.510799
-45.482895 -44.142044 17.057312
-54.742329 -45.148998 15.356623
-58.158455 -45.308624 12.117174
-51.449902 -42.17189 15.612711
-60.652802 -42.615387 22.987392
-48.492199 -41.497704 18.367655
-55.226192 -45.149002 21.331289
-45.482899 -45.459618 17.151104
-56.899162 -46.689857 23.3855
-54.181213 -43.323399 23.346313
-54.656601 -45.038025 16.671865
-51.798504 -43.323399 19.662205
-56.873085 -47.045353 7.3708
-45.482899 -41.885571 17.393684
-54.656601 -44.49741 21.863613
-54.951488 -43.533062 20.128304
-49.030098 -41.497704 13.880911
-50.841705 -47.03019 23.3855
-54.917076 -43.349789 23.281319
-54.182278 -43.323395 17.854431
-61.293633 -40.562862 7.7938628
-57.773731 -45.148998 22.757437
-45.482899 -44.724693 14.004937
-55.854435 -48.78484 23.3855
-59.179153 -48.588463 7.3708
-60.540024 -46.974602 13.801439
-61.069901 -48.135014 17.098244
-61.292774 -46.99725 22.130089
-50.241295 -41.4977 11.135542
-56.555885 -37.186226 22.763599
-60.12645 -46.974602 22.239744
-57.831879 -47.676605 23.3855
-48.505993 -39.698807 17.212879
-57.428276 -45.148998 17.676397
-53.371414 -43.323399 13.709906
-59.572342 -46.974602 19.826239
-61.340515 -47.284691 14.636246
-59.309258 -46.974602 9.9598083
-58.104156 -45.173405 17.472576
-61.096512 -44.975224 22.8435
-55.416336 -36.394928 23.510799
-54.68644 -43.326424 20.933325
-45.482895 -43.933929 15.29622
-57.787895 -45.148998 10.74499
-59.881966 -46.974602 8.919405
-61.139 -47.305103 10.011322
-54.951626 -43.410484 15.949409
-48.243198 -41.078133 18.254066
-56.46199 -45.619164 23.3855
-60.013115 -46.974602 20.457958
-45.482903 -43.857811 17.757347
-61.069901 -48.567516 10.425385
-53.862694 -43.323399 19.671242
-58.149803 -45.430679 18.135887
-54.709671 -43.328773 15.768372
-45.482903 -46.859173 15.675504
-59.575531 -39.069054 7.3492789
-57.738892 -48.317753 23.3855
-45.995205 -48.099216 15.899734
-60.70192 -46.974602 16.13682
-58.032017 -46.974602 15.669635
-50.721458 -45.094269 23.3855
-57.863201 -45.850063 8.3651686
-61.069901 -47.369942 19.327839
-49.679623 -44.855789 23.385498
-51.449898 -42.516315 12.373968
-59.485405 -48.321442 23.3855
-59.656837 -46.974602 14.080053
-59.150429 -46.974602 18.290327
-51.745029 -41.703472 13.700877
-51.449902 -42.619064 11.913468
-56.533249 -45.149002 19.961136
-54.896442 -45.149002 9.2620811
-54.656601 -44.868313 16.048948
-45.995201 -48.536007 21.815224
-58.066086 -45.169548 9.3794479
-45.65593 -47.685234 13.882624
-54.656601 -45.072353 21.696754
-53.777466 -46.921623 7.3708
-58.422699 -46.974602 15.298939
-45.995201 -48.346039 12.010492
-48.288761 -39.978184 18.437328
-55.039497 -46.851738 23.385498
-45.619606 -47.665974 18.094603
-52.41787 -43.323399 19.402754
-60.652802 -46.190208 23.296543
-60.980652 -46.974602 7.6740899
-54.656601 -44.006481 15.604393
-45.482899 -43.967831 14.388887
-51.449902 -43.269249 17.961142
-54.135468 -44.072479 7.3708
-57.863201 -45.66964 9.5037575
-60.515404 -46.974602 22.762054
-54.656601 -44.766418 19.128887
-51.449898 -43.13023 17.700378
-57.439007 -37.679733 8.0532484
-58.534592 -46.974602 17.436012
-56.20557 -47.700874 23.3855
-61.194496 -42.16367 7.8405247
-53.29705 -44.841049 23.3855
-51.745094 -41.534424 10.647941
-52.781105 -48.310623 7.3708
-55.553692 -45.148994 22.619179
-57.131199 -45.148998 7.8301682
-53.252419 -43.323399 14.948493
-57.863205 -45.884476 21.76841
-57.863197 -46.032272 12.971354
-52.129471 -45.053963 7.3708
-59.755615 -48.279804 7.3708
-60.31472 -39.549728 7.9717026
-50.236004 -48.391125 23.385498
-57.291275 -45.148998 23.244644
-53.828007 -43.936642 23.385502
-48.728466 -46.859344 23.3855
-51.213428 -41.4977 15.341682
-52.358437 -43.323399 20.60358
-60.787064 -43.338829 23.430901
-54.785938 -45.724579 23.385502
-51.304607 -44.608223 23.385502
-54.656601 -43.914341 20.96847
-45.482899 -45.000141 14.9454
-51.74509 -41.54855 22.008579
-60.767151 -42.879257 23.430901
-55.013222 -45.148994 19.233282
-55.578339 -45.148998 7.9208064
-61.356922 -47.283028 22.330769
-49.259033 -45.860504 23.3855
-53.012291 -48.304211 7.3708
-61.194496 -45.003296 7.4662657
-50.6717 -41.4977 11.756421
-61.069901 -48.374527 8.5150633
-48.538403 -39.709023 14.120245
-54.656601 -45.108318 12.568266
-54.656601 -43.916252 21.274727
-52.255497 -43.323399 7.8819656
-51.449898 -42.185635 19.3957
-50.042557 -48.49221 23.385498
-57.863201 -46.923485 19.020836
-60.70726 -46.974602 15.288162
-51.745022 -41.723778 9.9260368
-45.995201 -48.035339 19.593777
-60.421478 -46.974602 7.9243622
-45.482903 -42.408066 16.199123
-57.69854 -45.148998 13.303931
-50.637165 -41.4977 19.738379
-45.482899 -44.990097 17.48608
-52.459835 -43.323395 21.308016
-56.37014 -45.148998 21.294872
-57.863205 -45.537113 18.333809
-48.243195 -41.291981 17.647972
-49.130741 -41.4977 14.430544
-51.769695 -46.464104 23.3855
-48.943649 -41.4977 16.619307
-57.863201 -46.542248 22.335642
-57.823135 -45.149002 18.21666
-56.472477 -37.427891 23.382387
-48.243198 -41.150139 17.13945
-60.534683 -46.974602 9.503643
-60.038551 -46.974602 18.383701
-52.519428 -43.323395 15.56637
-53.574509 -43.323399 10.569214
-54.656601 -44.763672 11.34247
-59.55999 -46.974602 23.082237
-48.862938 -47.802536 23.3855
-60.652802 -41.477345 23.005047
-53.426121 -47.785469 23.3855
-58.65152 -46.974602 19.306822
-52.618523 -43.323399 17.288961
-57.541027 -45.148998 9.8553314
-60.652798 -45.638885 7.5089049
-48.823441 -48.651684 23.385498
-45.482899 -46.97797 16.998117
-45.995201 -48.13406 11.280196
-53.84742 -44.188908 23.385502
-51.303612 -46.989052 23.3855
-59.063499 -47.265709 7.1379662
-56.236557 -45.149002 16.167377
-54.926498 -47.295677 23.3855
-50.120358 -44.191658 23.3855
-54.656601 -44.006168 19.509714
-57.790535 -48.550575 7.3708
-56.270889 -45.148998 19.861099
-45.815041 -47.769585 17.613476
-51.215721 -46.125542 7.3708
-57.685574 -46.941288 23.3855
-56.15918 -45.148998 8.2383232
-52.805428 -43.323399 17.231384
-61.187855 -40.815247 7.4053998
-48.243198 -40.66053 17.15885
-58.226128 -46.974602 16.076515
-49.381268 -41.4977 12.250978
-54.258381 -43.323399 7.6718106
-46.753067 -39.6721 16.126854
-45.482903 -40.917053 15.642166
-61.194504 -43.502773 7.5963316
-61.158081 -46.983562 20.039841
-51.963577 -43.323399 20.343494
-52.713501 -43.323399 21.420238
-55.481686 -45.95433 7.3708
-51.449898 -42.56794 19.942101
-58.071571 -46.974602 18.145832
-56.536362 -45.148998 10.097845
-59.933678 -46.974602 11.960985
-50.725254 -42.790604 23.3855
-45.482899 -44.508663 13.59062
-58.158417 -45.213394 7.5352488
-61.069901 -48.245697 10.379675
-51.451172 -43.323402 22.046068
-55.524834 -46.544582 7.3708
-50.800125 -47.758045 7.3708
-51.625725 -41.597534 23.570801
-61.10363 -44.595928 22.843502
-50.80909 -46.96328 7.3708
-46.638252 -39.6721 15.592137
-61.365105 -47.230679 9.9628067
-45.482899 -45.022442 13.349483
-57.549767 -37.751762 7.8221536
-61.174904 -43.881512 23.430901
-45.766678 -47.74395 12.642432
-61.108395 -44.817635 7.4054003
-62.14061 -41.020954 23.429092
-60.889404 -43.244354 7.9928002
-60.992344 -47.118546 7.1799746
-51.521301 -43.323399 10.846497
-54.951683 -43.366135 19.268248
-45.482899 -47.325615 14.521668
-45.995201 -48.293495 18.462852
-60.056995 -47.478504 23.385498
-58.843613 -46.974602 21.328241
-57.337349 -45.148998 23.200788
-51.744972 -41.7785 10.947509
-54.097069 -43.38398 7.169446
-60.178745 -39.65971 8.0726995
-57.863197 -45.827309 18.714905
-60.98027 -44.766151 23.430901
-51.62561 -43.323399 16.261772
-56.533936 -45.148994 22.739946
-45.482895 -43.341595 17.582909
-45.482899 -46.460175 19.678331
-60.916023 -48.073692 23.3855
-55.498707 -45.148998 18.972494
-55.332439 -45.148998 8.4462156
-56.547146 -45.148998 9.0326681
-45.482903 -43.000465 17.313114
-48.538452 -39.829155 15.10319
-51.579735 -43.914791 23.385502
-60.878193 -45.67503 7.9928002
-58.043861 -45.441406 11.077595
-59.944931 -46.974602 19.498934
-57.941658 -45.156948 8.0060654
-61.069901 -48.041451 16.36441
-53.897518 -43.323399 10.633447
-54.730278 -46.679504 7.3708
-61.194504 -44.993927 7.5892887
-57.740887 -37.876038 7.6211209
-49.002926 -45.895752 23.385502
-52.97789 -43.323395 13.241059
-61.21645 -46.989494 16.493155
-51.648388 -43.323399 10.024939
-60.000626 -46.974602 18.847507
-49.484276 -41.4977 14.110643
-61.069901 -48.670219 10.311129
-45.761536 -47.741219 16.411003
-51.424393 -42.988956 23.3855
-53.36668 -47.909042 7.3708
-56.39201 -45.148998 10.165688
-57.863197 -46.482349 14.016539
-52.52816 -46.677055 23.3855
-51.745079 -41.580681 12.216402
-51.152386 -41.4977 22.668716
-58.884766 -47.890457 23.3855
-57.707188 -45.148998 10.09507
-50.149437 -41.497696 17.937302
-57.863205 -46.057796 14.129442
-45.902115 -39.6721 16.44981
-56.816025 -45.148994 9.4941673
-57.863201 -46.926266 9.4759426
-61.194504 -41.198772 23.249868
-45.995201 -47.889519 19.299818
-57.863201 -45.90485 7.763176
