# .PCD v0.7 - Point Cloud Data file format
VERSION 0.7
FIELDS x y z
SIZE 4 4 4
TYPE F F F
COUNT 1 1 1
WIDTH 1510
HEIGHT 1
VIEWPOINT 0 0 0 1 0 0 0
POINTS 1510
DATA ascii
-44.937759 -36.133461 1.8141
-46.250908 -39.6721 14.999022
-44.4814 -34.805244 3.549464
-45.482903 -40.197426 14.023414
-36.420975 -37.887798 14.714212
-46.349457 -39.6721 9.8906822
-45.995201 -39.390366 11.393593
-39.833122 -36.177811 0.081799999
-44.509407 -37.887794 7.3369665
-47.189209 -31.014589 7.6248088
-51.47496 -34.178154 7.7165709
-44.4814 -35.282635 3.9633679
-44.113201 -30.52511 -0.053078979
-45.476406 -32.961632 8.1424999
-45.304768 -31.969727 6.8983998
-45.625374 -39.810467 15.840609
-44.505962 -30.107744 6.7481999
-45.482899 -43.729942 11.307812
-40.667885 -37.887798 5.774056
-45.995201 -44.662086 -0.506464
-44.939846 -45.375439 -0.82800007
-50.197586 -43.068573 7.3708
-45.1036 -36.421947 -0.050887644
-45.482899 -40.062778 2.3755193
-45.623001 -29.181461 1.7505299
-50.120525 -43.894459 7.3708
-44.4814 -36.141823 3.8164034
-41.160992 -38.142483 -1.0176001
-42.565048 -36.626301 -0.15966709
-43.794628 -37.887798 9.8272581
-44.797161 -30.241238 0.1142
-44.4814 -32.876705 6.5094399
-52.001205 -44.263332 7.3708
-44.592201 -31.129194 7.3783813
-38.448952 -37.887798 9.9763594
-42.527248 -40.273388 -0.31571102
-46.5854 -33.833427 7.692842
-51.449902 -42.00346 8.4983215
-45.995201 -44.562885 0.48451769
-45.482895 -41.172157 7.4797893
-45.502495 -32.925587 7.7296009
-45.623001 -37.767403 0.24770802
-45.502502 -36.143768 7.3136897
-48.538406 -39.71888 10.444469
-45.995201 -46.470161 -0.82535625
-45.935814 -37.887798 12.666592
-45.482899 -40.47897 7.4991331
-45.525543 -47.616108 9.5361958
-45.995201 -39.016693 15.760841
-41.790695 -32.234406 0.081799999
-44.481403 -35.745632 5.2191882
-45.830635 -37.887798 7.2220182
-45.918396 -37.887798 4.2439194
-44.735596 -32.875515 6.8983998
-41.430874 -39.886036 -0.315723
-48.29311 -32.109116 7.3383622
-45.622997 -34.544186 1.6345134
-45.482899 -43.710884 8.2393513
-47.594845 -39.6721 11.374888
-39.793869 -37.887798 2.3290582
-45.995415 -47.725098 7.3708
-45.995201 -46.32901 0.33608419
-38.483231 -37.887798 11.33784
-41.675461 -40.170662 -0.31572035
-44.592201 -32.345695 7.4222569
-45.482899 -41.50449 7.8048263
-44.4814 -35.12682 1.7583814
-45.563854 -39.672104 15.773288
-41.883629 -37.887798 5.8347125
-45.995201 -48.481159 6.7432184
-48.434956 -44.41095 7.3708
-44.113205 -35.862732 0.69482481
-45.482903 -41.056427 14.809103
-45.702232 -39.769718 2.6796584
-45.623001 -34.37027 0.87062675
-45.482899 -47.044342 9.4891357
-45.172417 -30.671698 -0.3522
-45.482899 -40.156982 13.122619
-43.359718 -37.887798 10.551202
-45.482895 -44.487808 7.8634501
-53.79628 -35.310974 7.9643464
-44.441299 -29.925255 6.8765821
-45.528835 -37.887798 0.5529803
-44.4814 -30.664028 5.1879091
-45.502499 -34.281723 7.6500483
-44.4814 -32.677372 3.148525
-45.424072 -31.266735 -0.3522
-48.049095 -39.6721 7.7935658
-45.17358 -46.632877 7.3708
-44.4814 -35.046062 3.0269189
-44.591995 -36.626301 6.703702
-45.995201 -39.201233 1.229255
-44.113197 -34.755943 1.3863096
-37.763985 -37.887798 13.458677
-43.679985 -47.821911 -0.74653745
-45.995201 -38.653984 14.350601
-44.823017 -37.865894 6.8983994
-45.623001 -31.905603 -0.31122163
-40.58263 -35.228104 0.081799999
-43.917786 -31.042728 0.081799999
-44.4814 -33.017284 5.9562759
-44.828197 -37.887798 1.5587709
-41.971745 -37.887798 10.552427
-43.489277 -45.460152 -0.31570047
-55.421005 -36.367485 7.9576387
-43.580906 -37.887798 1.2792954
-50.565956 -41.4977 7.4631681
-48.564411 -47.161362 7.3708
-45.995201 -38.970051 6.3491931
-49.904621 -42.402519 7.3708
-37.492542 -37.887798 10.284324
-44.592201 -31.649494 7.9135327
-47.199032 -42.204147 7.3708
-47.14566 -46.755447 7.3708
-51.076706 -42.775982 7.3708
-36.448666 -37.887802 14.108779
-44.161034 -44.17318 -0.82800007
-46.648872 -32.909935 7.4054003
-41.384182 -36.295017 0.077100001
-43.846458 -37.887798 4.5188556
-44.193787 -37.264706 -0.3522
-45.482899 -44.540607 8.7610407
-45.482899 -42.345104 13.330996
-43.46896 -44.681236 -0.31570071
-41.137794 -42.22533 -0.31572622
-46.01004 -43.293709 7.3708
-48.243198 -40.470108 12.559565
-45.502495 -32.548187 7.4580259
-44.113197 -37.713291 0.77355599
-48.239834 -47.584976 7.3708
-49.232323 -42.429604 7.3708
-44.523487 -37.887798 5.1537719
-45.133545 -39.6721 12.630246
-45.683861 -39.779461 7.2318316
-45.289783 -34.393372 6.8983998
-46.901024 -39.6721 8.9267492
-45.482899 -40.894691 11.369869
-39.429268 -37.887798 9.7967749
-44.592201 -35.812229 7.1676245
-44.481102 -37.887798 10.427619
-51.061317 -42.541801 7.3708
-43.585842 -37.887798 0.46249571
-46.863331 -30.802675 7.5448475
-45.482899 -40.924973 13.950527
-47.056545 -36.924595 7.4053993
-45.623001 -37.675167 1.2926801
-44.113201 -37.331936 0.64543593
-44.4814 -33.477764 6.522624
-44.113201 -30.242588 0.52189904
-44.4814 -35.464031 4.637785
-45.995201 -39.52734 0.82493031
-44.713661 -30.240101 5.5801539
-40.816711 -35.893883 0.081799999
-41.173485 -36.53204 0.077100009
-45.995201 -40.7141 -0.63626403
-45.482899 -43.029297 12.132999
-45.854507 -39.688988 15.603595
-51.12619 -41.4977 7.3808298
-46.666412 -35.791618 7.4054003
-44.024288 -30.631695 0.081799999
-48.243195 -40.612251 8.8344755
-45.482899 -45.15831 10.41936
-44.045383 -38.625893 -0.82800007
-44.4814 -35.011425 6.5163407
-45.623001 -34.619171 1.1344174
-45.995201 -39.407394 9.2124681
-47.279419 -39.672096 12.560122
-44.872112 -35.209087 0.081799999
-45.903046 -39.6721 9.600399
-44.02927 -46.627869 -0.82799995
-45.995632 -37.888008 4.903583
-45.482899 -43.226913 5.339026
-42.69854 -44.930618 -0.31570914
-45.118401 -35.288635 6.8983994
-45.4394 -32.788918 1.8141
-46.667542 -39.303329 7.9928002
-50.179256 -33.335602 7.4046602
-44.080402 -37.887798 6.5548549
-44.286907 -37.962814 1.8141
-45.966122 -47.312843 1.0250645
-45.995201 -48.41993 1.1529484
-46.497799 -30.773624 8.0726995
-39.569782 -37.887798 3.0284462
-44.4814 -35.244446 2.4052572
-41.270912 -37.887798 2.0576377
-41.485909 -37.887794 15.330936
-44.349354 -37.887794 4.8071346
-41.654655 -34.419006 0.081799999
-45.995201 -39.807495 0.082665667
-44.4814 -31.547411 4.2523727
-40.379513 -33.849159 0.081799999
-50.024754 -47.415398 7.3708005
-43.291042 -37.887798 2.2608137
-45.482899 -43.068527 4.1508145
-45.502499 -36.711258 7.2604108
-41.606575 -32.779137 0.081799999
-45.482899 -43.475624 12.323831
-45.995201 -39.239849 2.1240222
-45.482895 -44.1707 11.934679
-45.473206 -29.373133 1.8141
-43.261715 -38.698368 -0.82800001
-38.971893 -37.887798 10.709089
-44.113201 -30.10775 1.0767424
-40.380882 -37.887798 10.235819
-45.898201 -39.6721 13.210361
-55.781307 -36.601784 7.7083807
-45.502499 -35.730213 8.0462732
-48.718338 -41.4977 7.3940554
-48.302155 -39.97683 12.685091
-43.355125 -37.887798 3.8149426
-39.950024 -37.887798 14.631298
-45.978771 -43.515152 -0.82800001
-45.995201 -38.789181 -0.55675691
-44.4814 -32.338371 4.613502
-45.995201 -39.026024 -0.41468492
-43.926197 -37.887798 14.925447
-48.181824 -39.6721 9.7537918
-42.364529 -41.513668 -0.31571281
-41.871281 -35.666744 0.081799999
-45.080502 -43.083855 -0.82800001
-44.4814 -32.499264 3.1976418
-43.900223 -37.887798 16.03664
-41.980175 -47.423096 -0.31571698
-41.266899 -37.887798 15.127902
-44.848999 -30.261923 0.027185783
-47.341278 -31.490177 7.7961712
-55.85556 -36.650063 7.731307
-41.376736 -37.887798 14.917986
-42.243126 -37.887798 0.32974222
-42.963654 -37.887798 3.3483388
-38.6436 -37.887798 14.472906
-45.262478 -39.6721 9.0241175
-41.356968 -37.887798 9.5027189
-45.623001 -34.439796 0.67183709
-45.550606 -48.243675 -0.82800001
-44.4814 -30.928486 1.7990916
-39.284752 -37.887794 3.6518807
-42.061363 -40.296387 -0.31571609
-46.154999 -37.964245 14.144381
-46.123104 -38.259014 8.4377022
-41.826668 -36.280006 -0.18079999
-45.049034 -29.548187 6.7481999
-51.449902 -43.231667 8.5064535
-40.705112 -37.887802 3.4748855
-46.916607 -39.607441 7.9928002
-45.044594 -29.872425 1.8140999
-45.121811 -38.320557 -0.82800001
-45.556622 -47.483196 -0.82800001
-45.482899 -45.801907 5.7952394
-42.394066 -37.887794 0.82341951
-45.482899 -42.343914 13.766847
-41.862171 -41.728088 -0.31571829
-45.673676 -39.784859 7.7218328
-44.326904 -31.936718 -0.3522
-44.417221 -36.235004 2.1019974
-45.482903 -42.898968 12.246018
-44.940262 -48.561157 -0.82799995
-45.165714 -37.887798 14.65055
-45.995201 -47.663597 -0.067189395
-45.482895 -45.626629 8.4630089
-45.482899 -41.501007 12.093007
-44.663174 -37.887798 1.0303539
-56.418713 -37.016266 7.3821383
-45.623001 -33.824364 1.3971417
-48.243198 -40.609207 8.2126913
-44.102684 -37.887798 5.0228424
-47.623383 -46.149925 7.3708
-45.995201 -42.976376 0.89995688
-45.623001 -36.508575 0.9312802
-45.482899 -43.326706 9.5372162
-43.684448 -44.012634 -0.50847566
-45.750401 -39.238377 -0.82800007
-41.976315 -37.887798 2.501025
-41.26408 -37.887798 2.3528817
-49.681717 -46.625359 7.3708
-47.417011 -44.513206 7.3708
-42.178783 -37.887798 15.237005
-46.184799 -38.138866 1.0897224
-46.147575 -46.799351 7.3708
-41.541748 -43.333195 -0.31572181
-45.867821 -47.797569 7.2588568
-43.350254 -44.052799 -0.31570199
-45.995201 -38.434044 5.9513259
-44.998878 -38.84478 -0.82800001
-45.482895 -42.613029 2.6006241
-45.623001 -34.773132 1.3476948
-45.623001 -28.821888 1.0306073
-44.598827 -40.893448 -0.82800007
-50.728687 -43.753197 7.3708
-45.25444 -35.44194 6.8983994
-44.320618 -31.472441 1.8141
-44.461983 -46.472588 -0.82800007
-46.03186 -39.6721 9.5754337
-45.263817 -29.4897 6.9400692
-45.482899 -42.415932 4.1069527
-45.214096 -37.550972 -0.35219997
-45.494843 -35.63102 6.8983994
-46.323471 -30.451622 8.0449028
-45.575714 -44.738449 7.3708
-39.317074 -37.887798 13.57128
-45.502499 -35.298069 7.6072235
-45.515598 -39.868668 4.7186852
-48.781342 -32.426598 7.7525754
-47.037819 -45.376686 7.3708
-48.373585 -39.969597 10.813364
-48.53846 -39.858879 10.548243
-45.606594 -30.454855 1.8141
-49.37532 -32.43615 8.0551968
-44.625599 -36.312004 4.6462932
-50.609489 -46.040886 7.3708
-44.625599 -36.47319 5.441453
-48.243198 -41.131111 11.343263
-46.184799 -38.169575 7.5448041
-55.864922 -36.656151 7.341609
-51.541817 -44.917511 7.3708
-47.903374 -46.275272 7.3708
-45.482899 -46.043266 8.5957222
-55.456879 -36.767441 7.3770962
-44.113201 -34.753239 -0.094038099
-46.216011 -41.763737 7.3708
-45.482899 -41.36573 3.4449983
-45.482899 -42.960217 13.905367
-48.600357 -41.4977 9.5147419
-44.441299 -29.993385 6.7953978
-48.2006 -31.67226 7.8654542
-43.847179 -37.887798 -0.50170052
-51.153168 -41.4977 7.7896156
-44.4814 -32.224091 3.9257808
-41.812222 -37.888611 -0.82970345
-45.482903 -43.316528 11.742328
-44.419567 -47.111046 -0.82800001
-45.42775 -34.429352 6.8983998
-45.995201 -48.500839 9.3393183
-45.482899 -44.784149 8.6288204
-46.132595 -44.423714 7.3708
-45.401203 -29.726599 6.7481999
-45.89986 -41.155251 7.3708
-49.919514 -42.975731 7.3708
-45.999104 -38.318336 0.91792941
-43.208191 -40.333744 -0.31570357
-45.623001 -35.192986 -0.10019036
-45.049652 -35.013088 6.8983998
-44.531158 -42.014336 -0.82800001
-41.228546 -36.403587 -0.18080001
-50.676342 -43.23283 7.3708
-39.253605 -37.887798 3.3526909
-44.4814 -33.201569 3.8815689
-49.73344 -45.206467 7.3708
-46.665054 -47.786449 7.3708
-39.95031 -37.887798 2.4326336
-45.876389 -37.887798 6.2842007
-47.378319 -43.136902 7.3708
-44.32682 -33.722775 0.081799999
-45.459278 -43.776333 -0.82800001
-44.605438 -30.240101 5.1538553
-45.482903 -41.59726 7.0696411
-44.4814 -33.71344 6.9976149
-45.502499 -32.342911 7.9813042
-41.849422 -33.264954 0.081799999
-44.915188 -36.235001 0.013382148
-48.243198 -40.282955 12.134119
-39.770576 -37.887798 6.6437898
-44.519836 -30.116858 -0.3522
-45.482899 -45.114792 6.3249831
-45.482895 -40.682037 4.8529234
-46.795216 -38.659401 7.9928002
-45.623005 -34.599968 1.71141
-45.482903 -44.712212 7.7359943
-45.623001 -31.705898 -0.036129817
-44.108932 -33.992901 0.081799999
-44.7579 -30.571491 4.3281918
-43.543442 -37.887798 9.4931955
-39.619129 -37.887798 13.934162
-44.38607 -36.626301 0.018877629
-44.592201 -34.741516 7.3049812
-44.625599 -36.466618 1.9793053
-47.30175 -39.6721 8.7331581
-45.829552 -43.394234 -0.82800001
-45.041584 -37.887798 1.9028352
-48.538475 -39.893848 10.254265
-44.985252 -29.873619 -0.3522
-44.113197 -33.152515 1.6270823
-45.128254 -30.676945 6.8753858
-44.4814 -30.758804 6.8537731
-36.894745 -37.887798 11.830979
-45.311337 -30.069675 1.8141
-41.170792 -37.887794 4.1695962
-44.7579 -30.430687 1.5838923
-45.095798 -30.098648 6.7482004
-45.995201 -48.519833 9.7766228
-44.113201 -36.793457 0.52125716
-44.592201 -32.095203 7.4923205
-48.506008 -41.4977 7.3920588
-46.5854 -39.030933 7.8189797
-44.003746 -41.96143 -0.82800001
-45.482899 -44.561039 8.3400164
-45.274845 -37.887798 12.353046
-41.933041 -43.588825 -0.31571752
-44.113201 -32.570591 -0.28859705
-50.83577 -33.385841 7.4969387
-45.995201 -46.305843 0.7435863
-51.449898 -42.006725 8.7215433
-44.113201 -37.539833 1.1222652
-44.173908 -37.887798 -0.67763329
-45.927605 -37.887798 5.0293932
-44.592201 -35.038853 7.9226966
-45.353539 -39.427391 -0.82800007
-38.500366 -37.887794 12.437468
-48.257088 -41.600349 7.2458048
-45.482899 -40.593449 15.184797
-43.595184 -46.922897 -0.39394215
-50.461246 -43.131573 7.3708
-44.010136 -41.875244 -0.82800001
-42.218235 -43.274017 -0.31571439
-45.082569 -35.444366 8.1424999
-44.113205 -34.366821 1.2498206
-42.112446 -43.919521 -0.31571555
-48.964622 -41.497696 10.523155
-45.482895 -46.077763 7.8850241
-45.995201 -46.524807 -0.51548499
-45.796165 -40.832394 1.1575353
-50.414673 -42.072754 7.3708
-45.892273 -45.817997 7.3708
-47.117439 -39.6721 13.676003
-49.153145 -41.4977 10.745564
-44.592201 -34.858963 7.4936957
-43.675354 -46.725479 -0.49680105
-44.909363 -32.337166 1.8141
-43.251083 -37.887798 0.31960711
-45.482899 -44.763702 1.5888386
-38.157047 -37.887802 13.041697
-43.10704 -47.615376 -0.35697055
-46.5854 -32.414207 7.9309535
-50.459595 -33.141224 7.6246433
-45.482903 -46.028252 11.743089
-44.4814 -32.078239 3.1903753
-45.482899 -40.140877 8.774044
-45.482899 -42.1987 13.5406
-40.432175 -37.887798 6.9562182
-43.482105 -37.887798 3.4289486
-45.502499 -36.801762 7.0554905
-45.502499 -30.783995 7.6292782
-45.197357 -30.026684 8.2925997
-43.761841 -37.887798 7.5051804
-44.008751 -46.359325 -0.82800001
-51.366665 -41.4977 8.18081
-45.482899 -43.434296 7.2838407
-44.625599 -36.441666 4.5632272
-47.801975 -42.705444 7.3708005
-45.482899 -44.014458 9.7696009
-40.161064 -37.887798 0.46904108
-44.288502 -37.887798 0.76929307
-48.243195 -40.946587 11.145691
-45.727379 -39.75639 6.1760821
-44.513798 -30.854708 0.081799999
-44.997452 -37.887798 0.68013912
-41.744713 -41.59972 -0.31571957
-45.482899 -42.502777 1.9025252
-45.482899 -45.303455 10.688393
-49.514393 -47.257282 7.3708
-45.482903 -41.937771 2.0966322
-46.184795 -38.212463 2.6415107
-43.414974 -37.887798 14.391988
-45.482899 -47.585114 4.2738557
-39.002609 -37.887798 7.8025217
-45.623001 -28.544565 1.7628517
-42.060173 -43.40765 -0.31571612
-44.113197 -31.733414 0.22936136
-48.887589 -43.966724 7.3708
-44.4814 -31.393835 3.4998384
-45.995201 -41.7882 -0.78930295
-45.34877 -30.512753 8.2924042
-43.740486 -37.887798 7.6673069
-49.739449 -32.672935 7.4282165
-44.46349 -35.028599 0.081799999
-37.458076 -37.887798 15.604666
-49.945221 -43.014725 7.3708
-47.858807 -46.838619 7.3708
-44.625603 -36.286682 2.3592677
-45.995201 -39.288849 11.28536
-43.653366 -37.887798 10.050948
-44.503731 -30.240101 4.2341337
-46.683468 -46.934551 7.3708
-43.495617 -37.887798 4.4200549
-46.184799 -38.152485 12.779451
-45.456112 -37.887798 4.7713995
-45.623001 -34.304657 0.11829543
-45.546562 -30.323143 7.8148851
-45.482903 -45.58844 3.1356997
-40.744034 -37.887798 14.602152
-45.482899 -42.711525 14.285973
-42.977921 -37.887798 15.669098
-40.013245 -37.887798 4.1594486
-45.482899 -40.667828 11.989997
-48.243198 -40.871788 12.272901
-43.872665 -37.887798 14.371056
-44.441299 -30.109581 7.3763037
-43.26181 -37.887798 12.157353
-44.289177 -36.235001 -0.088028848
-44.689049 -37.887798 -0.79635686
-41.903286 -37.887798 5.3838148
-43.434658 -37.887798 11.579015
-44.29406 -30.088005 -0.3522
-44.592201 -36.427094 7.2597442
-42.486256 -43.952267 -0.31571147
-40.248787 -37.887798 2.1690693
-45.995201 -39.5172 4.8502026
-45.482903 -44.707542 8.8558826
-45.268425 -45.64167 7.3708
-45.165764 -36.699261 1.8141
-45.624241 -47.668434 5.9489985
-43.740044 -37.887798 6.3434987
-45.623001 -35.865311 0.2511107
-45.595833 -39.826126 10.323929
-44.821648 -37.887798 -0.68694383
-36.327625 -37.887798 14.093616
-51.416695 -45.075424 7.3708
-45.306065 -47.953094 7.3708
-44.500099 -30.624424 6.0998583
-45.179543 -37.887798 2.8785343
-38.350258 -37.887798 7.415534
-45.482899 -41.044312 12.500048
-44.62104 -29.081474 1.8141
-44.113205 -34.057587 0.89630902
-41.528759 -37.887798 7.9268961
-42.998573 -37.887798 9.8491068
-48.243202 -40.148998 11.695642
-45.995201 -46.334084 0.51926017
-44.891029 -32.508953 1.8140999
-44.637413 -30.240101 5.5487967
-46.167969 -38.237549 1.7222792
-45.995201 -47.998936 0.34257305
-45.035149 -37.887798 3.2522404
-45.623001 -31.828848 0.68350166
-46.176556 -47.66925 7.3708
-45.946716 -39.640106 10.316139
-41.44175 -37.887798 7.0421071
-45.995201 -48.162746 9.8623018
-45.995201 -42.445454 -0.00012519956
-44.887264 -37.203915 -0.3522
-45.482899 -42.010372 3.942677
-45.995201 -48.161415 3.1859496
-44.834362 -34.798183 6.8983998
-44.57375 -30.240101 2.8595731
-45.623001 -31.844025 0.86369187
-43.428535 -40.2533 -0.31570116
-46.06572 -39.672096 10.23979
-44.592201 -37.82539 7.0729599
-45.482899 -41.205082 13.280787
-44.641884 -37.887802 2.7216492
-42.5364 -35.448376 0.081799999
-44.46389 -29.4897 7.5775127
-41.795971 -36.626301 -0.072978839
-46.585403 -31.134443 7.5432262
-50.742706 -44.879124 7.3708
-41.107616 -42.7318 -0.31572655
-42.054344 -48.039642 -0.82800001
-47.862846 -31.829332 7.6860723
-45.11182 -37.887798 9.5978899
-45.995201 -38.429775 14.389579
-45.064888 -43.158859 -0.82800001
-45.995201 -42.724251 0.94344908
-44.60453 -37.904396 1.8141
-48.243198 -40.200459 7.9649405
-41.161777 -37.887798 10.245514
-43.699932 -37.887802 -0.71315849
-44.681652 -32.403084 1.8141
-45.17382 -29.739393 7.9359694
-45.823929 -30.434258 8.0726995
-46.151367 -39.6721 13.970882
-44.299179 -37.887802 3.5680802
-47.177582 -31.007027 7.8825002
-44.592201 -31.098186 7.5419865
-45.131226 -29.842905 7.8735776
-45.502499 -30.982822 7.1314139
-44.4814 -30.864351 4.8542871
-45.653488 -29.791904 6.8848829
-45.623001 -34.077049 0.80674028
-47.27906 -46.895061 7.3708
-44.441299 -29.489977 8.0685539
-48.870026 -47.26313 7.3708
-37.486481 -37.887798 13.668499
-45.361183 -37.887798 10.39061
-46.184216 -38.229778 8.5746965
-44.4814 -31.767925 2.271481
-42.470901 -37.887798 0.31639171
-45.623001 -31.506552 1.8079518
-47.101757 -32.724281 7.9928002
-45.165848 -39.6721 15.385599
-44.409798 -37.887798 8.5283298
-44.481403 -34.846779 6.7046208
-44.4814 -34.625732 2.4210122
-44.4814 -32.973495 5.286993
-45.995201 -39.019993 3.6137259
-45.995201 -38.580948 -0.2093173
-44.4814 -34.258476 3.5604372
-44.794201 -30.568338 -0.3522
-44.21014 -34.64867 1.8141
-44.592201 -37.281864 7.7071204
-45.482899 -41.334412 14.907292
-48.578041 -45.027016 7.3708
-44.4814 -31.659889 4.6091433
-46.369736 -39.6721 10.683782
-45.623001 -34.03804 1.2835491
-43.004234 -37.887798 7.6646028
-45.247719 -30.062468 -0.3522
-49.519737 -42.559814 7.3708
-45.482899 -45.754318 2.1309745
-41.129047 -37.887798 9.6033516
-45.482899 -40.190422 6.9845986
-45.80368 -39.715939 6.8679304
-38.019684 -37.887794 14.287868
-45.604382 -45.812851 1.3070138
-44.113201 -30.126488 1.185443
-44.4814 -35.220638 7.1780696
-45.995201 -38.672081 11.680042
-50.208679 -44.561493 7.3708
-44.749863 -37.887798 -0.11204541
-44.592201 -33.663269 7.9032202
-45.316677 -39.672096 9.5701523
-44.113205 -33.353104 1.2577153
-45.482899 -41.287643 11.929976
-45.536884 -39.85738 5.0357141
-44.758308 -37.887798 7.283721
-42.785336 -35.949474 0.081799999
-40.777565 -36.235001 0.064236641
-45.623001 -37.886112 1.3651825
-45.995201 -39.142014 9.650198
-45.482899 -42.573311 14.573124
-43.943386 -36.237984 -0.18080001
-45.770252 -39.6721 12.912001
-44.323158 -32.46439 0.081799999
-44.113197 -34.870178 1.0170591
-46.031963 -38.302616 0.51479065
-45.995201 -47.100166 0.73391229
-42.036915 -39.030579 -0.82800001
-40.090057 -37.887798 14.782412
-43.484932 -45.439865 -0.31570053
-40.485538 -39.062328 -0.82800007
-50.249863 -44.01865 7.3707995
-46.153442 -38.244499 2.8202839
-45.482899 -45.897285 2.1905251
-45.482899 -42.188736 11.570028
-38.896957 -37.887798 12.159655
-45.482895 -47.067814 2.9743962
-42.625252 -37.887798 -0.105591
-48.243198 -41.364933 11.204232
-45.594173 -39.6721 13.979544
-44.990532 -33.105171 0.081799999
-45.547428 -37.887794 10.114837
-44.882652 -29.891911 8.2925997
-39.732826 -35.442921 0.081799999
-42.810349 -37.887798 4.4844627
-51.449902 -43.039238 7.9983907
-45.995201 -38.419662 7.6463442
-45.623001 -30.189552 1.7239238
-45.482899 -40.44445 13.112391
-43.473976 -36.235001 -0.15709953
-45.592743 -45.422405 7.3708
-45.482899 -40.532955 15.646291
-45.588524 -47.649498 7.5815029
-45.482899 -47.576077 1.8504846
-45.623001 -30.265709 0.71538055
-45.529804 -39.861134 9.494359
-45.920223 -42.990467 1.0608388
-50.90884 -43.528294 7.3708005
-44.4814 -36.186443 1.6951388
-45.65242 -39.796131 7.1441383
-46.457962 -45.045479 7.3708
-43.12558 -38.153095 -1.0176001
-43.043877 -34.911125 0.081799999
-40.822655 -36.18766 0.081799999
-45.482899 -41.795845 4.1115298
-37.457691 -37.887798 12.322971
-44.113201 -29.595352 1.5890934
-45.765175 -39.736351 5.099699
-45.353519 -37.887798 2.8984213
-55.017014 -36.481415 7.634582
-45.653477 -30.421654 7.0664392
-40.397758 -36.626301 -0.15232486
-41.338505 -37.887798 -0.8207435
-45.995201 -47.585602 -0.033433884
-45.623001 -35.709797 1.5402629
-45.899746 -39.6721 8.1198235
-48.024803 -42.4408 7.3708
-44.749798 -29.4897 7.3619261
-45.482895 -42.7948 2.9613872
-46.5854 -36.4842 7.6585178
-46.000904 -38.317474 7.8043714
-45.652874 -37.887798 15.468934
-46.585396 -32.733227 7.5639186
-47.127098 -39.828041 7.665658
-36.631584 -37.887802 15.289152
-45.995201 -44.350128 -0.32589141
-44.22723 -37.887798 12.492638
-46.863518 -41.228096 7.3708
-44.113205 -35.622063 0.067350894
-45.995201 -38.88121 9.6193075
-45.482899 -45.299767 7.6836381
-44.525826 -30.358046 -0.1437
-44.479771 -29.937269 -0.35219997
-46.840096 -32.750751 7.4053998
-45.995201 -38.926102 4.2102227
-49.455009 -45.686443 7.3708
-45.482899 -42.909256 13.51538
-44.592201 -36.560726 7.1991467
-39.141514 -37.887798 6.937633
-45.634708 -45.078785 -0.82800001
-45.482899 -40.279694 3.3921366
-45.482899 -40.936195 6.2384148
-45.482899 -40.111294 3.8473454
-48.538433 -39.787544 11.656958
-46.144627 -39.718056 7.1359129
-46.303528 -42.920029 7.3708
-45.995201 -47.918106 -0.33234727
-43.796169 -37.887798 14.297133
-45.482903 -44.922745 2.7871652
-55.079651 -36.461075 7.3255005
-42.853035 -37.887798 4.6692176
-45.995201 -47.890518 10.61515
-44.931248 -37.887794 10.343167
-41.7043 -32.179184 0.081799999
-46.592434 -39.672104 8.1265945
-45.482903 -40.361313 3.9491739
-44.418652 -36.626301 2.495564
-45.995201 -38.756931 6.0187788
-45.234734 -29.743645 7.7229414
-45.263508 -46.082382 7.3708
-45.995201 -39.456028 4.7357273
-44.4814 -34.413132 4.1764026
-45.482903 -45.480587 7.9185581
-45.518688 -37.887798 13.672004
-44.4814 -30.787376 2.6643033
-43.577156 -46.620934 -0.37081754
-48.243195 -41.368034 10.393977
-45.482899 -47.462059 5.3264046
-45.917477 -30.564335 7.4804029
-42.161327 -39.744446 -0.58272278
-44.4814 -31.947033 3.8006656
-44.441299 -30.303263 7.0010619
-45.482899 -46.731056 11.612279
-45.96032 -42.923428 1.0295869
-48.243195 -40.343872 9.1573706
-41.531082 -34.280823 0.081799999
-45.482903 -43.53231 1.9841691
-46.263142 -30.412388 7.6033554
-47.127102 -38.706692 7.9311714
-44.4814 -32.216454 1.8658659
-45.585339 -30.757198 1.8141
-45.57275 -32.242741 -0.3522
-44.9133 -33.163857 -0.35220003
-45.482899 -43.753265 13.110752
-45.482899 -43.910072 1.5514586
-40.439209 -37.887798 -0.066104084
-46.633163 -34.579979 7.9928002
-45.482899 -41.227413 12.301917
-41.423893 -37.887798 3.528357
-45.482899 -44.91132 10.848297
-45.502499 -31.521336 7.6642742
-42.863415 -37.887798 4.7453971
-43.988853 -37.887798 1.0075008
-45.288738 -39.6721 11.565042
-41.644562 -37.887798 12.363599
-40.411949 -37.887798 8.8234167
-45.482899 -41.500027 14.060843
-51.101997 -41.497704 7.8728929
-43.262203 -37.887798 14.579021
-49.287811 -32.379246 7.520792
-42.064754 -37.887798 0.40667289
-48.243195 -40.396828 11.224586
-45.482899 -42.634674 13.919595
-40.42041 -34.490623 0.081799999
-45.502499 -34.278099 7.9431734
-45.600166 -39.823833 9.0908775
-50.719452 -33.531662 7.3255
-47.127102 -34.773613 7.7886243
-47.154472 -40.314476 7.3708
-44.84269 -35.660107 -0.35220003
-43.308922 -37.887794 0.73924094
-40.690475 -37.887802 14.199914
-45.623001 -28.936522 -0.32284683
-46.635719 -42.076576 7.3708
-44.500099 -30.372082 3.8573227
-44.627243 -35.851929 1.8141
-44.116623 -47.326637 -0.82800007
-41.300861 -42.620129 -0.31572443
-45.623001 -34.308197 0.40704805
-46.5854 -38.650223 7.8359151
-55.508163 -36.42416 7.4136229
-46.817104 -32.277657 7.9928002
-45.271584 -47.504349 -0.82800001
-45.828835 -39.6721 7.4431882
-45.482895 -42.315659 5.6254802
-44.596428 -37.887798 9.1063509
-39.541679 -37.887798 8.0647726
-45.623001 -31.026375 -0.091547668
-38.002335 -37.887798 12.252136
-45.702225 -43.327007 1.2307531
-45.995201 -39.532349 0.35896295
-47.594517 -39.6721 11.266382
-44.113201 -31.936821 0.85774153
-43.831638 -37.887798 13.905143
-45.482899 -41.89801 9.4938221
-45.623001 -32.066879 0.55746734
-48.461823 -39.932453 7.1865187
-44.241478 -37.887798 13.532214
-40.307831 -37.887798 1.1178163
-45.482899 -44.253418 12.551631
-44.961643 -35.36095 0.081799999
-45.482899 -42.886047 2.3439596
-45.995201 -38.949104 6.4266839
-45.482899 -42.801758 5.0223923
-46.79681 -37.794247 7.4053998
-46.039558 -38.298981 12.116077
-44.015266 -37.887798 4.8069692
-45.623001 -29.471615 0.10892256
-42.602798 -37.887798 0.23846778
-45.482903 -43.183994 11.850055
-43.539169 -37.887798 15.99038
-42.13213 -37.887798 14.707969
-39.577332 -37.887798 6.0999699
-39.089149 -37.887794 8.8709021
-50.948677 -45.489262 7.3708
-45.482899 -42.323204 13.722634
-45.56823 -39.840759 14.01821
-45.482903 -40.218826 7.6388874
-49.592068 -47.546764 7.3708
-41.365467 -36.626301 -0.037932411
-42.445831 -37.887802 2.1823983
-44.4814 -34.999855 3.4886675
-45.995201 -38.698662 9.5673285
-48.008896 -48.634392 7.3708
-40.14418 -34.309101 0.081799999
-48.243198 -40.742615 12.735944
-49.945213 -41.497704 10.717731
-43.324955 -37.887798 12.34129
-44.4814 -35.382259 6.6761651
-45.277428 -39.6721 14.034116
-38.741287 -37.887798 14.597239
-45.623001 -36.722359 1.7830777
-45.482899 -44.183319 10.73551
-44.328945 -30.863104 1.8141
-44.515976 -30.240101 5.0907345
-46.919735 -30.839355 8.0441875
-45.360573 -46.470325 7.3708
-45.482899 -40.907177 5.3321862
-45.422535 -37.470139 1.8141
-43.560974 -46.172253 -0.35005456
-45.502502 -31.54376 6.979897
-44.207413 -34.409836 1.8141
-45.482899 -42.207394 13.536236
-44.042526 -46.84486 -0.82800001
-45.482899 -46.807983 5.0524306
-53.480042 -35.38269 7.3254995
-45.651726 -39.796497 6.5335584
-44.193069 -37.887798 8.5097723
-45.482895 -40.999535 11.847023
-45.913845 -39.657528 15.015003
-45.005646 -37.887798 11.407659
-48.300911 -32.00465 8.0726995
-44.701744 -37.887798 3.8026838
-45.482899 -46.051998 4.0194111
-46.93153 -39.6721 9.9595842
-44.4814 -33.353378 5.1073637
-46.463028 -41.557518 7.3708
-54.950035 -36.06123 7.880322
-45.623001 -35.751801 0.58061022
-41.542835 -37.887798 -0.28556269
-44.976425 -32.328316 6.8983998
-37.986938 -37.887798 14.428543
-45.482899 -40.17646 15.47451
-37.8466 -37.887798 14.664087
-37.915077 -37.887798 12.173074
-45.995197 -39.59021 -0.75258738
-45.995201 -39.153805 -0.41318995
-45.318264 -48.374798 7.3708
-45.122723 -37.887802 5.0198064
-44.113201 -30.84021 1.1940742
-45.482899 -47.269886 2.2912896
-45.482899 -44.445629 11.696278
-45.568356 -39.6721 15.914988
-44.424332 -36.626301 2.4317338
-44.4814 -35.47224 5.3226347
-46.133499 -39.672096 10.697247
-46.150803 -37.962238 14.009827
-45.482895 -42.400002 4.1764503
-49.358509 -47.826462 7.3708005
-46.091476 -38.274143 4.0406971
-47.884453 -42.660446 7.3707995
-42.94949 -37.887798 11.662315
-45.482903 -40.770412 10.649038
-51.78854 -34.008064 8.0726995
-43.001114 -37.887798 1.2014881
-39.928505 -37.887798 6.0887718
-41.462143 -37.887798 4.046895
-43.882069 -37.887802 3.3974662
-43.575581 -37.887794 2.9042542
-48.538399 -39.703495 7.815825
-45.623001 -29.98148 0.78727067
-45.995201 -43.871422 0.62827826
-45.065685 -30.573105 -0.3522
-45.482899 -46.14978 7.8966289
-45.336475 -41.556957 -0.82800001
-45.995201 -39.046623 0.99870431
-44.113201 -29.652855 1.7510844
-47.576797 -39.967701 7.2652006
-37.98315 -37.887798 7.6927652
-45.623001 -31.796715 0.82512879
-44.500099 -30.303938 2.2533448
-37.740341 -37.887798 14.008392
-44.533436 -36.626301 5.5843296
-42.235153 -37.887798 10.857048
-41.488106 -37.887794 13.964647
-45.255428 -29.878128 6.7482004
-45.534386 -29.289843 1.8141
-44.592201 -33.78376 7.3333721
-46.585403 -35.959618 7.726531
-42.681248 -37.887798 14.062179
-41.615784 -39.293037 -0.82800007
-45.677856 -41.35685 7.3708
-49.006031 -45.592682 7.3708
-44.363506 -30.617304 -0.3522
-45.482903 -40.083862 14.871125
-45.502499 -33.956322 7.5689635
-45.482899 -40.331673 5.5306668
-45.653465 -30.465923 7.3390374
-45.482899 -44.674416 10.422095
-47.127102 -34.867695 7.939992
-48.248367 -39.9529 7.1834483
-45.482899 -42.418633 4.2227573
-45.482899 -47.275734 2.7250874
-39.982506 -37.887802 11.536886
-45.623001 -35.418533 0.040533364
-47.127102 -38.578499 7.7582016
-45.482899 -43.878361 4.8111057
-45.502499 -30.864161 7.1185369
-40.930904 -35.22374 0.081799999
-46.100357 -37.938103 1.4858696
-45.37056 -34.637711 -0.3522
-49.12149 -42.971066 7.3708
-44.4814 -33.279858 5.9175291
-43.597141 -37.887798 0.70152777
-49.381836 -32.440392 7.5244746
-40.497005 -37.887798 2.1112483
-38.297096 -37.887798 14.839406
-46.021435 -37.900345 7.5518637
-48.334332 -47.985725 7.3708
-44.4814 -30.733219 5.8236804
-44.4814 -35.709454 3.5757134
-40.952591 -37.887798 7.7175241
-43.715179 -35.974442 0.081799999
-44.168674 -31.762817 1.8141
-45.482903 -42.145969 9.1553049
-37.881081 -37.887798 9.5925913
-45.623001 -29.187962 -0.1853786
-45.995201 -44.29184 0.96086466
-44.592201 -36.519577 7.2920513
-45.995201 -38.743267 0.82194209
-51.150452 -33.967136 7.3942556
-40.523621 -37.887798 5.6426411
-45.851151 -43.269798 -0.82800001
-47.048229 -45.713356 7.3708
-45.251305 -37.887798 0.41968474
-40.809616 -37.887798 5.8413081
-49.784206 -32.702038 7.8500137
-42.788792 -43.909786 -0.31570813
-45.482899 -43.893131 10.308041
-46.817253 -39.6721 14.707127
-45.482899 -41.387249 14.322284
-44.563347 -38.968391 -0.82799995
-39.313957 -37.887798 8.7959909
-45.482899 -46.486694 9.3416538
-49.213993 -46.167847 7.3708
-45.060963 -34.516445 0.081799999
-55.317879 -36.677059 7.8616958
-45.995201 -48.103973 4.7451162
-45.995201 -43.42701 0.10627723
-48.966625 -42.604683 7.3708
-45.482899 -40.156662 13.554442
-49.008591 -44.508369 7.3708
-42.250954 -37.887798 11.935131
-43.522259 -39.715675 -0.63697094
-45.881626 -39.674614 10.145763
-41.42807 -37.887798 7.6228237
-38.232136 -37.887798 10.755024
-45.532181 -42.724018 1.3632913
-45.278202 -28.616337 1.8141001
-45.995201 -38.503334 6.1098537
-45.482895 -40.866798 12.559771
-44.592201 -31.97253 7.2044916
-54.603039 -36.212219 7.4739885
-44.328156 -33.947094 1.8141
-45.482899 -45.021629 8.2682037
-44.7579 -30.333925 5.0519357
-45.482899 -40.474251 9.5521765
-42.155983 -37.887798 3.0804362
-45.491161 -48.718376 7.3708
-45.482899 -41.751205 9.8620701
-44.367699 -36.531292 2.7425733
-44.964294 -35.347527 8.1424999
-42.807037 -37.887798 4.9627519
-48.243198 -40.937252 12.509623
-41.619118 -36.626301 -0.11996829
-46.062538 -39.672104 8.7543602
-44.400204 -41.105473 -0.82800001
-40.098644 -37.887798 11.739698
-44.4814 -34.218307 5.1338391
-44.250965 -47.025249 -0.82800001
-44.4814 -34.584305 5.2859721
-39.074745 -37.887798 7.781641
-48.538429 -39.779316 12.424342
-45.614277 -47.663151 4.0641675
-45.237812 -46.193417 7.3708
-42.682014 -44.174831 -0.31570932
-45.46814 -34.761059 8.1424999
-47.41925 -48.527679 7.3708
-45.336861 -37.512325 -0.3522
-44.571129 -43.416306 -0.82800001
-44.113201 -38.136864 -0.34180611
-49.302967 -32.650139 8.0726995
-45.482899 -45.724014 7.4814825
-48.289993 -41.4977 10.469584
-42.909672 -46.676006 -0.31570682
-44.592201 -33.34177 8.0503302
-45.482899 -46.206749 12.038721
-45.984406 -45.099392 7.3708
-45.995201 -39.184685 -0.12618607
-44.4814 -35.321129 2.2944193
-43.365814 -47.688519 -0.49492949
-44.4814 -34.794708 3.1669123
-49.294113 -32.456417 7.3255
-41.071518 -37.887798 4.3544545
-43.495544 -36.160156 0.081799999
-45.069237 -37.887798 1.6545269
-45.482903 -44.288151 4.9614925
-55.653633 -36.895386 7.5450201
-44.159626 -44.088722 -0.82800001
-44.4814 -33.729969 3.2038391
-45.995201 -44.217583 0.10224396
-45.995201 -39.013283 11.435401
-46.780228 -39.6721 13.442228
-45.995201 -39.37204 0.18933463
-45.336811 -46.115654 -0.82799995
-45.623001 -31.701946 -0.19518949
-50.01141 -41.4977 9.1706247
-42.828434 -37.887802 6.5850701
-45.653496 -30.056911 6.8421307
-36.478115 -37.887798 14.254686
-45.896698 -37.887798 9.5375395
-45.482899 -47.287766 5.2464437
-45.524601 -39.863895 10.750423
-40.337738 -37.887798 4.330421
-49.553791 -42.69426 7.3708
-42.143154 -37.887798 2.9329059
-43.289207 -38.478764 -0.82800001
-45.482895 -41.216583 12.813869
-43.868176 -34.608505 0.081799999
-51.653435 -44.883125 7.3708
-45.482899 -42.526196 12.150936
-41.919716 -37.887798 13.455136
-52.142254 -43.405128 7.1268225
-48.243195 -40.437943 11.244905
-45.68317 -37.887798 3.4242389
-45.995201 -39.115402 2.1415672
-42.65469 -45.393009 -0.31570962
-48.938568 -41.4977 10.956032
-45.482899 -43.854095 2.4180903
-46.429951 -30.520861 7.7151814
-41.4883 -37.887798 10.200105
-44.113205 -34.221954 1.3706889
-44.264015 -37.887798 3.749687
-48.919708 -41.4977 11.349077
-45.588898 -39.829803 9.8634348
-44.7579 -30.244629 4.4577498
-43.903542 -47.806656 -0.78956145
-41.429832 -36.46476 0.077100001
-45.779461 -39.728779 5.123064
-42.945919 -37.887798 14.51162
-38.502804 -37.887798 15.436232
-46.763351 -33.850044 7.4054003
-45.008923 -30.466114 8.2925997
-49.1348 -41.4977 11.68349
-45.377937 -33.433117 6.8984003
-45.995201 -43.596943 -0.1737092
-44.4814 -32.276592 5.4665217
-45.482899 -47.190224 10.963036
-42.300327 -37.887798 -0.55459988
-44.592201 -33.376568 7.4206123
-45.995201 -39.126812 1.3472928
-44.158756 -38.146942 1.8141001
-43.830151 -37.887798 12.62035
-44.4814 -33.652588 3.5124941
-45.366753 -35.768295 6.8983998
-44.231125 -37.887802 1.8763177
-45.643799 -47.678799 11.098549
-45.482903 -40.865665 2.2345831
-44.44175 -37.887798 9.3070831
-45.995197 -46.380348 -0.42138809
-45.995201 -48.353096 2.2970872
-44.655735 -34.069954 -0.3522
-40.995186 -37.887798 3.4291964
-43.104694 -37.887798 15.697564
-39.734589 -36.369835 0.077100001
-45.152187 -46.949162 7.3708
-45.995201 -44.613674 -0.62299913
-45.420174 -33.915466 8.1424999
-44.113201 -33.248348 -0.31029117
-42.672741 -37.887798 13.430881
-40.454765 -37.887798 5.8362088
-44.654343 -31.176056 -0.35220003
-48.997684 -41.4977 10.376392
-44.113201 -34.967113 1.7199907
-46.149384 -37.961555 15.438487
-45.482899 -42.75021 14.332907
-44.441299 -30.11821 7.4562387
-45.995201 -39.160606 10.306425
-46.126732 -38.257278 15.174799
-44.483135 -33.592838 1.8141
-47.79488 -31.785137 7.601737
-45.482899 -40.821411 2.7513256
-44.546272 -33.119156 -0.3522
-42.334694 -41.205231 -0.31571314
-43.903538 -37.887798 8.2869692
-43.915127 -37.887798 11.482129
-45.995201 -47.901596 8.6776886
-45.995205 -48.50399 9.2011623
-45.482899 -45.191223 10.622798
-45.865334 -47.796249 2.6904345
-44.204449 -32.401829 0.081799999
-45.736717 -37.887798 8.1903868
-45.060055 -39.6721 14.296525
-45.50647 -45.899212 -0.82800001
-40.288975 -37.887802 2.1539254
-39.505058 -37.887798 15.839097
-45.482899 -45.942291 3.8295631
-45.623001 -29.998253 1.3918507
-45.995201 -38.878056 15.725744
-44.4814 -33.961784 5.0312524
-45.995201 -38.899826 5.0012097
-45.995201 -43.664352 -0.31540444
-50.820564 -33.375954 7.7002859
-41.17643 -37.887802 5.5030136
-44.113201 -29.513767 1.2657572
-45.451351 -43.040665 7.3708
-45.995201 -48.112339 4.8467865
-42.161808 -37.887798 9.4944019
-50.527561 -41.4977 7.4428229
-45.191593 -45.141891 7.3708
-45.910461 -39.6721 15.860297
-45.482895 -42.232269 10.496597
-45.520798 -37.887798 9.8986359
-45.482903 -46.570793 10.117246
-44.113197 -36.851204 0.78575671
-36.74678 -37.887798 13.833719
-45.482895 -41.071095 6.1261792
-45.995201 -45.998325 0.096606702
-45.482895 -41.231403 14.712319
-45.482899 -43.651928 8.9025011
-45.482903 -46.393784 6.7069092
-45.170368 -29.889147 -0.3522
-45.273888 -30.644653 -0.35219997
-44.113201 -29.661274 0.771218
-40.850811 -37.887798 10.698531
-46.5854 -39.263844 7.930315
-41.447422 -35.736858 0.081799999
-46.880489 -36.866714 7.9928002
-44.113201 -35.076042 1.7607045
-44.4814 -35.576962 3.4720831
-48.243195 -40.30946 10.501991
-38.90094 -37.887798 5.9871807
-45.340485 -37.887798 8.3485079
-44.970043 -33.606461 1.8141001
-40.939793 -37.887798 6.3278556
-44.07415 -38.21603 -1.014045
-42.056801 -38.20174 -1.0176001
-45.502499 -32.137226 7.4287591
-45.747932 -42.557331 1.1951261
-44.820526 -33.486511 6.8983998
-37.732315 -37.887802 11.478016
-37.990807 -37.887798 11.010803
-45.173054 -37.887798 7.8148403
-42.19994 -39.504333 -0.82800001
-40.802261 -37.887798 6.6663256
-41.498711 -37.887798 13.316519
-44.4814 -31.905516 6.6928864
-38.716583 -37.887798 7.4647498
-40.680244 -37.887798 0.14470953
-42.087448 -41.714962 -0.31571582
-44.113201 -31.447231 0.30686906
-45.995201 -44.90926 -0.71215332
-45.089947 -30.026222 7.3946395
-41.96743 -44.652336 -0.31571713
-44.228313 -37.887798 -0.6066696
-44.4814 -33.627663 2.39517
-46.704559 -42.40456 7.3708
-44.441299 -30.138008 7.5406899
-44.035252 -34.739151 0.081799999
-43.443871 -37.887798 -0.72945052
-45.482903 -44.185913 7.6882272
-45.12376 -35.238552 -0.3522
-45.843834 -39.694645 6.7439938
-45.712284 -37.887798 3.5285676
-45.735668 -40.151291 -0.82800007
-45.304771 -29.366745 1.8141
-45.384754 -44.704178 7.3708
-40.085728 -37.887798 4.134922
-42.729504 -39.838013 -0.4062272
-40.70446 -37.887798 4.8289247
-47.106926 -36.249504 7.4053998
-45.502499 -32.027531 6.9657364
-49.984669 -32.961845 8.0726995
-45.786915 -47.754677 3.075351
-46.166222 -38.053978 0.34480721
-42.940132 -43.732952 -0.31570649
-45.482899 -44.402657 7.024508
-45.502499 -38.083275 7.8874288
-49.699501 -32.646957 8.0443745
-45.482899 -42.423923 2.2956719
-48.725616 -42.978687 7.3707995
-41.125 -38.159706 -1.0176001
-44.757896 -30.607023 2.6272383
-43.10284 -37.887798 2.7511566
-45.482895 -47.353127 7.6347046
-45.692413 -40.854858 1.2383993
-45.880306 -47.432602 1.0919503
-42.004265 -43.880394 -0.31571674
-47.166851 -39.6721 14.355273
-41.346405 -37.887798 9.9371099
-41.129589 -37.887798 -0.094499797
-45.653492 -30.064434 6.8753614
-43.049824 -45.67075 -0.3157053
-45.703281 -44.765133 -0.82799995
-44.060001 -39.464832 -0.82800001
-44.546837 -32.495529 1.8141
-47.81118 -40.992374 7.3708
-51.423927 -43.625683 7.3708
-44.522682 -33.484432 0.081799999
-44.835957 -37.887798 4.8290191
-45.472069 -48.442883 -0.82800001
-45.482903 -47.502747 3.9927897
-42.612343 -37.887798 12.296432
-49.5396 -41.4977 8.2527142
-49.388763 -41.745911 7.1368194
-45.482899 -46.677635 9.2934685
-43.867489 -37.887802 6.1470089
-44.592201 -31.762468 6.9065104
-44.138931 -46.405373 -0.82800001
-43.49044 -47.273216 -0.31570047
-45.482903 -41.82378 5.7918873
-45.623001 -36.385891 0.92176974
-39.333683 -37.887798 6.5639858
-45.995201 -38.903561 3.6424761
-44.4814 -31.546406 5.1814704
-45.995201 -47.885254 7.1125083
-46.097008 -37.936501 4.2166271
-45.623001 -34.277699 1.6121637
-44.4814 -34.36451 1.8050232
-46.233967 -30.393417 7.6014881
-40.029297 -37.887798 9.3307533
-44.4814 -35.008141 3.1358023
-47.634846 -40.300858 7.3708
-45.813477 -39.710739 11.753002
-47.655506 -48.40855 7.3708
-44.14677 -38.041821 1.8140999
-40.49828 -36.240406 -0.18080002
-44.989845 -42.980137 -0.82800001
-47.275261 -43.934723 7.3708
-44.481403 -35.453369 5.6498342
-44.592201 -31.912567 7.578393
-48.243195 -41.052567 7.4381857
-45.0783 -37.887798 7.6674066
-45.482895 -41.099739 12.974998
-49.01075 -41.4977 8.7656937
-45.482903 -42.046547 1.4028465
-44.4814 -31.986258 7.0310469
-45.326172 -33.430378 6.8983994
-44.795135 -37.887798 8.6838417
-45.482899 -40.7509 15.128342
-49.928513 -33.115425 7.3255005
-46.063995 -30.322975 8.0726995
-45.995201 -43.157341 0.52165514
-45.237267 -37.887802 5.6345425
-44.744247 -35.716892 6.8983998
-45.623001 -29.029482 1.6562511
-44.7579 -30.339777 3.7327707
-46.5854 -39.705212 7.9170957
-54.848907 -35.995468 7.8168154
-48.243198 -40.250282 10.125518
-45.413181 -48.301579 7.3708
-45.482899 -41.426674 2.5677848
-45.482899 -47.473457 9.3158636
-46.669914 -36.451221 7.9928007
-44.500099 -30.373936 3.5294819
-46.1185 -37.946785 9.7483864
-40.548306 -33.870056 0.081799999
-45.688602 -30.343847 7.3255
-45.482899 -42.871517 8.113658
-45.623001 -37.573193 0.076980382
-49.662514 -41.661804 7.1427274
-42.900536 -37.887798 11.592533
-49.620632 -47.780762 7.3708
-42.771362 -31.817959 0.081799999
-45.995201 -38.527454 15.598618
-44.592201 -33.981285 7.105051
-39.213394 -37.887802 12.100712
-45.94775 -46.516354 -0.82799995
-48.538498 -39.940628 9.7612648
-45.482903 -42.55352 12.455813
-46.618492 -39.6721 10.785772
-45.73653 -45.571533 7.3708
-44.365936 -38.997574 -0.82800001
-46.277573 -30.798492 8.0059328
-43.356148 -38.288395 -0.89447999
-44.4814 -31.92218 3.3217902
-45.502499 -37.230209 7.8276792
-42.005798 -37.887798 3.1674812
-43.301743 -47.658684 -0.43865782
-43.644279 -37.887798 12.717226
-43.059109 -37.887798 4.304585
-43.277855 -47.693321 -0.50399137
-44.481403 -36.071438 6.4063945
-45.623001 -33.342068 1.4898331
-45.482899 -42.489155 11.84529
-40.899788 -37.887798 1.2836646
-42.989429 -37.887798 -0.54579169
-41.205299 -37.887798 2.1687713
-47.002289 -35.745415 7.9928002
-45.623001 -34.129219 -0.35136297
-45.482895 -43.984882 6.4168205
-43.332302 -39.628109 -0.80214518
-45.482903 -41.279991 5.3883591
-42.944691 -47.03936 -0.31570643
-46.148216 -39.6721 8.0007381
-45.482899 -41.84737 13.774596
-47.127102 -37.764809 7.7937574
-45.995201 -48.423172 2.0607593
-44.4814 -33.413574 2.3520842
-41.564945 -37.887798 0.80977798
-43.491417 -37.887798 8.5571318
-45.545033 -46.582058 7.3708
-44.113201 -32.90633 1.070604
-45.482903 -46.62347 5.9588022
-41.260284 -37.887798 8.6676359
-45.995201 -44.563942 0.27449125
-44.871254 -41.120228 -0.82799995
-55.756039 -36.790398 8.0726995
-46.165531 -39.6721 13.937043
-45.995201 -48.446068 6.8553572
-44.4814 -34.892296 1.8632874
-46.062504 -38.288002 10.888058
-45.482899 -46.668751 3.7640018
-45.623001 -35.546238 1.0587386
-41.892399 -43.936813 -0.31571797
-43.470982 -46.444561 -0.31570068
-44.90403 -47.58493 -0.82800001
-45.482899 -40.462345 15.38914
-45.482899 -41.064186 4.4484649
-44.235085 -41.714413 -0.82800001
-45.622997 -30.971334 0.0050356686
-36.828903 -37.887798 13.565856
-41.832047 -37.887798 13.034866
-39.958008 -37.887798 15.394004
-45.366047 -30.287613 8.2925997
-45.995201 -38.448792 -0.073414922
-48.804264 -32.064808 7.5545211
-48.058773 -31.956738 7.7718172
-42.074661 -38.681587 -0.82800001
-45.623001 -37.748722 1.3960285
-48.575958 -46.955376 7.3708
-45.595352 -44.94907 7.3708
-49.988529 -44.034096 7.3708
-45.995201 -38.518192 15.882763
-40.048309 -37.887794 4.7951083
-41.141121 -39.724678 -0.6200223
-45.482895 -42.061672 13.755041
-45.623001 -37.043667 0.45454448
-38.031761 -37.887798 14.16509
-49.00988 -45.516777 7.3708
-44.623966 -35.125053 0.081799999
-45.995201 -48.304581 9.3597631
-45.623001 -28.997309 -0.18801193
-44.076782 -47.00721 -0.82800001
-43.087646 -37.887798 11.854832
-46.147678 -37.960743 2.151037
-44.7579 -30.614716 7.0155907
-45.107498 -31.051603 8.1424999
-45.482903 -45.769123 2.4928789
-45.482899 -45.105915 10.746082
-45.482899 -43.092377 10.821033
-46.022869 -37.901035 1.1901565
-48.11264 -31.991762 7.4580817
-43.189476 -48.443863 -0.82800001
-44.640778 -44.61462 -0.82800007
-41.907665 -37.887798 12.436012
-36.435879 -37.887802 15.532412
-51.449902 -42.047459 8.0795527
-45.482899 -44.04068 4.2806082
-46.83482 -39.681545 7.9928002
-45.481674 -39.288376 -0.82800007
-45.482899 -40.482899 12.627314
-45.502499 -36.151535 7.5728502
-45.532009 -44.455734 1.3634206
-46.289391 -39.692284 7.2009664
-45.18642 -37.887802 5.5895977
-40.755184 -37.887798 5.3564324
-41.084862 -37.887802 1.6531405
-45.995201 -39.319134 4.2714429
-45.00116 -37.677483 8.1424999
-45.995201 -39.261574 8.3192987
-47.906708 -46.734886 7.3708
-44.05809 -37.887798 6.2611713
-45.014038 -35.719719 1.8141
-37.15509 -37.887798 12.792044
-45.995201 -39.077415 13.16582
-48.177837 -48.733109 7.3708
-45.488861 -39.6721 12.840575
-46.856689 -48.654884 7.3708005
-42.877068 -37.887798 7.6899681
-51.083561 -41.4977 8.5925417
-45.216431 -30.108471 7.8183641
-51.449898 -42.571907 8.468833
-45.482899 -41.592743 8.4046564
-44.4814 -34.813644 2.0648451
-45.623001 -32.217545 0.77662009
-43.193562 -46.152332 -0.31570372
-46.778374 -43.481606 7.3708
-48.506813 -47.254513 7.3708
-48.166615 -39.6721 9.5479097
-45.482899 -44.922298 11.532967
-48.662575 -43.613655 7.3708
-45.815174 -47.769661 9.6127205
-44.92429 -35.559219 6.8983994
-45.482899 -44.365196 6.2342896
-45.94722 -39.639839 11.582561
-44.4814 -33.133156 3.8441048
-44.592201 -32.300484 7.6909771
-47.637272 -39.6721 12.905041
-50.088737 -41.4977 8.9554005
-45.889664 -37.887798 8.0963764
-44.113201 -35.333569 1.3756267
-38.496758 -37.887798 14.252586
-44.4814 -33.611446 3.4609704
-45.995201 -38.642483 7.3391113
-46.498432 -45.473282 7.3708
-45.482899 -45.433987 1.7524908
-39.597557 -37.887798 8.0920534
-45.0914 -35.23 1.8141
-47.681519 -39.6721 11.967459
-43.087288 -41.477699 -0.31570488
-44.4814 -32.380985 2.0397062
-45.482903 -41.275902 1.954742
-42.797634 -37.887798 3.6974721
-44.637794 -37.887798 10.821562
-45.995201 -48.517838 -0.15781504
-44.4814 -35.891129 4.7280507
-45.995201 -38.968956 14.830393
-39.576569 -37.887794 12.825796
-47.054756 -39.6721 14.678223
-49.035202 -46.693024 7.3708
-44.77314 -29.73024 6.7481995
-43.303131 -37.887798 15.180718
-45.995201 -48.332245 7.2071533
-46.052105 -38.29298 14.222179
-43.927971 -37.887798 14.265852
-44.4814 -31.90933 4.0308027
-45.584656 -30.34791 7.8553534
-45.623001 -31.206264 1.1020638
-39.053173 -37.887798 14.065224
-45.671619 -47.69355 5.2568994
-50.070469 -33.261227 8.0726995
-43.557613 -37.887798 2.6902695
-46.728001 -32.27401 7.9928007
-47.644291 -44.546021 7.3708
-38.16283 -37.887798 8.3869419
-48.243198 -41.244526 8.0887394
-45.482895 -44.799297 5.1202254
-44.117504 -37.887798 15.707859
-45.318344 -42.834362 7.3708
-44.592205 -31.247719 8.0936375
-38.688046 -37.887798 6.1908069
-42.703503 -37.887794 1.8696743
-45.482899 -40.752319 9.9382582
-49.743645 -32.675659 8.0198288
-47.127098 -33.168457 7.6787605
-44.113201 -34.446033 0.49078012
-45.784042 -37.887798 9.0127821
-45.482899 -41.148178 8.2987156
-43.674809 -42.819351 -0.49610388
-43.498203 -37.887798 12.799774
-44.42868 -36.235001 4.9295244
-45.482903 -46.458591 9.8463049
-45.482899 -43.051739 2.0631855
-40.964752 -38.689396 -0.82800001
-45.950455 -37.887798 15.169413
-44.4814 -35.535763 7.2418242
-41.470558 -43.470314 -0.31572258
-53.997299 -35.441692 7.5089426
-47.127098 -35.441868 7.8805552
-46.892166 -43.706818 7.3708
-45.482899 -44.503681 9.6666393
-45.482899 -46.955406 10.370732
-44.078896 -40.056339 -0.82800001
-46.695606 -35.459206 7.9928007
-45.995201 -38.602573 -0.55411619
-48.861099 -41.4977 8.1453381
-45.789894 -37.887798 -0.3496832
-46.862614 -43.255714 7.3708
-44.4814 -33.017315 6.822022
-44.490257 -30.575504 7.4418001
-45.482899 -40.009712 6.1136904
