# .PCD v0.7 - Point Cloud Data file format
VERSION 0.7
FIELDS x y z
SIZE 4 4 4
TYPE F F F
COUNT 1 1 1
WIDTH 1606
HEIGHT 1
VIEWPOINT 0 0 0 1 0 0 0
POINTS 1606
DATA ascii
-0.14449573 15.225384 41.877602
1.5198519 23.702393 35.972771
0.3028571 7.8327398 39.596298
6.4796333 24.540176 34.591331
3.7838464 17.329523 46.536354
3.4031968 12.764608 39.740105
16.205273 22.490341 38.028893
6.5621386 19.271868 43.384277
1.1894922 22.45364 38.055786
7.8871069 24.520174 34.629478
18.707479 26.017891 32.138489
14.008324 7.6007557 39.752499
4.3692169 15.22936 43.312199
10.484393 20.865788 40.73735
9.655983 21.930843 38.956997
0.92104149 18.026207 45.444153
4.8918858 24.678009 34.355919
22.154224 20.359432 41.587147
3.4871356 15.233349 44.755039
8.8717566 15.745616 45.42704
22.570017 18.444202 44.785252
6.2311835 14.565068 39.732651
21.734337 7.6837683 39.752499
10.613485 25.22847 33.456585
15.352709 18.196548 45.198795
9.0673676 21.121912 40.305084
5.9860215 15.227202 42.547539
17.675524 5.4417338 39.752499
5.7514505 16.45697 46.044529
11.138069 19.70677 42.673931
7.4462218 20.417542 41.47517
20.806871 23.169493 36.894825
18.360098 14.841478 39.752499
13.670393 22.745564 37.602718
9.4480553 8.7487392 39.752499
2.9393198 15.232328 44.385246
1.5332365 22.183117 38.508446
10.870298 4.5951729 39.752499
18.54809 24.998112 33.841343
4.2462902 22.971189 37.202362
14.974819 9.0308561 39.752499
14.063831 19.014229 43.833412
10.963793 6.1649904 39.752495
3.3001649 12.930053 39.73819
8.7502699 15.229293 43.30304
21.816353 12.64894 39.752499
0.64288855 14.488056 39.714466
23.219526 17.473074 46.406872
3.4183855 16.390186 45.731812
14.31123 16.861233 46.566299
20.021553 13.4995 39.752499
4.3526917 15.221781 40.605774
21.188711 15.229861 43.521408
7.4768639 15.231818 44.200432
21.304871 16.08153 45.427086
1.9972551 12.349616 39.739269
22.245876 23.530514 36.291924
19.298424 20.96299 40.579308
11.373723 19.34754 43.274281
19.396549 6.4214106 39.752499
21.727324 23.295361 36.684639
20.686453 22.945484 37.268883
17.894899 16.486752 46.18396
14.062349 25.518879 32.971752
22.174873 19.54776 42.942501
1.7081208 16.334131 45.46933
1.1496944 20.123528 41.94455
21.292675 5.2921419 39.752499
-0.087809563 22.29705 38.312805
18.869518 16.426609 45.902336
1.6065421 13.901257 39.723274
22.920231 7.0542173 39.752499
12.842411 20.003458 42.181564
10.169414 15.726949 45.427044
18.973885 15.221729 40.619568
18.584013 21.078094 40.387104
20.348164 22.31488 38.321877
3.4468772 15.222258 40.773323
18.016941 14.508392 39.752499
14.992908 10.090868 39.752495
15.981988 21.826086 39.138084
6.0932484 15.229992 43.544189
11.458807 24.760366 34.238338
19.165121 15.224604 41.645367
11.37921 15.755265 45.427044
15.397822 11.99197 39.752499
18.355667 25.29398 33.34729
13.948174 15.230505 43.751595
17.951395 3.5277309 39.752499
12.548259 6.2280064 39.752499
13.196506 20.83375 40.795116
4.9421587 21.494774 39.668816
3.6001978 17.468227 46.384476
11.304888 15.296151 45.427094
4.3337169 12.223411 39.748371
18.651562 25.925404 32.292923
4.8544722 14.711149 39.726608
19.632116 20.361126 41.58432
17.296705 15.231586 44.137417
12.172632 13.271364 39.752495
10.190987 12.220737 39.752499
15.456874 22.948017 37.264648
-0.57653236 19.056904 43.718864
1.8840227 20.456223 41.391777
4.6183639 17.365646 46.539177
16.750391 2.3338952 39.752499
20.905407 6.373148 39.752499
14.466976 11.758476 39.752502
18.078981 15.229298 43.320404
17.751507 26.117458 31.972225
5.4684381 9.8025694 39.752499
22.97961 19.123089 43.651627
11.168235 19.76133 42.582977
3.5307636 20.409147 41.475922
22.954687 19.400284 43.188759
6.9302325 23.587669 36.182564
10.147166 23.577705 36.210087
22.784264 21.38903 39.867893
11.854313 15.220426 40.147385
1.2332134 15.309937 45.427055
20.194639 22.671761 37.725948
2.0579624 11.780902 39.74485
5.8506274 24.629784 34.43964
2.9976282 17.729235 45.946819
15.304733 19.266676 43.411865
12.278822 19.120306 43.656277
20.330925 8.3197346 39.752499
8.1947479 19.396799 43.181301
7.1597962 19.397581 43.176491
23.193279 18.02466 45.485821
11.958148 3.5600154 39.752499
9.5489388 15.234005 44.993225
18.833128 15.219755 39.914909
12.340538 6.4753127 39.752499
18.223854 15.220545 40.196507
1.0912619 16.458054 46.049625
8.2577543 22.853556 37.412273
5.328104 17.916594 45.642014
20.011559 16.791077 46.566299
11.323666 23.766958 35.897156
6.2631907 25.049292 33.740898
6.531023 21.354855 39.907722
8.6663761 15.631344 45.427048
15.93744 22.10154 38.678123
1.6760368 14.076681 39.721851
7.572998 13.040324 39.75161
12.258746 15.235141 45.405697
1.0683354 16.498148 46.227394
10.948374 21.286903 40.036095
4.6965632 17.768257 45.887444
20.483282 4.4563417 39.752499
13.202024 18.424906 44.817478
3.4311557 14.203524 39.726593
2.043622 13.98509 39.723961
16.269545 21.992472 38.860252
6.3379154 20.738998 40.934914
7.2197523 7.7688069 39.752499
19.416235 18.824339 44.15049
6.1335883 17.579567 46.207233
10.156844 16.568356 46.557743
12.077863 24.449867 34.756821
14.538254 13.092913 39.752499
7.717823 16.474527 46.12674
15.856988 22.331402 38.294296
16.792831 4.581727 39.752499
20.465246 16.39949 45.775375
17.960543 15.233099 44.677349
19.837778 10.716147 39.752499
17.276306 5.3022866 39.752499
20.468845 21.757805 39.252102
7.5363145 22.06279 38.729607
19.470274 10.222939 39.752499
11.142151 11.672531 39.752499
12.925375 18.423193 44.820335
12.997591 25.846884 32.424038
12.942104 22.04015 38.780632
21.146828 14.452467 39.752499
3.278863 23.544827 36.241707
14.975992 3.4957099 39.752499
3.1249511 15.22485 41.69775
10.682156 24.923199 33.966305
21.597721 26.562405 31.229073
10.434406 8.4255953 39.752495
5.189846 16.103676 45.427002
2.6226454 24.820345 34.110672
9.5349522 4.7716236 39.752499
1.771565 20.734085 40.927654
2.32687 18.722921 44.28611
17.73658 21.58989 39.53249
15.80185 20.890877 40.699726
2.7452047 15.231286 44.007107
21.161934 21.426487 39.805347
16.811617 18.812386 44.170452
18.34293 20.107349 42.008083
10.391249 17.731144 45.96867
16.101692 15.221039 40.373241
14.75652 15.225161 41.843925
1.4030237 23.292446 36.656567
21.583055 8.7640448 39.752499
4.9665103 6.2878351 39.752499
8.7934389 22.728252 37.623222
0.00083971024 15.429937 45.42704
0.88403082 15.2303 43.648956
17.876629 8.7760859 39.752499
9.1956558 17.566725 46.239037
16.549841 15.232093 44.31794
10.632182 22.944706 37.268185
2.0561004 15.2271 42.497543
11.18611 6.987431 39.752499
14.021515 25.802181 32.498684
16.730326 23.737368 35.946571
6.2490659 7.2466121 39.752499
1.705919 10.028851 40.009102
18.670132 7.0256114 39.752495
18.122681 20.246637 41.775497
6.3311367 24.706959 34.312469
12.135145 15.229803 43.496605
5.1841769 16.32679 45.434933
2.2331076 20.733051 40.930939
21.297606 12.658545 39.752495
15.96361 23.605747 36.166348
12.734667 5.54883 39.752499
15.882008 20.902691 40.679996
10.343815 17.708616 46.006107
20.295376 14.810559 39.752499
0.69184923 15.23366 44.868095
0.80454683 16.563383 46.504852
19.600519 17.359047 46.566299
11.359753 9.1244545 39.752502
8.318161 22.65027 37.751759
20.542391 18.869318 44.075386
4.7599196 15.456909 45.427055
15.397795 12.593693 39.752502
6.9123983 15.221468 40.503086
3.6976018 16.699642 46.536057
11.33759 20.93474 40.62516
17.742409 15.221874 40.670872
13.823101 19.844036 42.447769
3.2203822 20.027523 42.11179
6.3090601 21.572508 39.543716
7.2486238 6.9640498 39.752499
6.8777361 21.798004 39.169289
8.2367878 11.534793 39.752499
20.68074 10.330389 39.752499
5.0863738 6.3397059 39.752499
1.9299829 10.267698 39.881165
17.805958 23.020767 37.143169
6.9177556 10.728655 39.752499
13.463702 16.491558 46.206463
4.8987217 15.223705 41.294777
11.545609 20.584393 41.210583
19.554346 22.383545 38.207226
11.688457 5.6174641 39.752499
19.402855 3.8804116 39.752499
19.71344 24.958229 33.90794
16.293005 22.035353 38.788643
21.310658 15.229829 43.510296
16.011198 24.725285 34.296921
12.073823 15.226889 42.455864
14.386488 7.8740892 39.752499
17.236771 21.143408 40.278038
1.4990783 17.42404 46.451111
0.94224209 6.7430472 39.596298
8.5450907 15.796265 45.427036
8.8559093 14.063189 39.746277
15.847753 15.232395 44.425972
12.20722 20.923126 40.645874
17.379589 15.233027 44.651016
16.233454 21.01018 40.500511
10.986493 15.233884 44.949764
2.8182633 15.224223 41.47261
11.713016 15.221874 40.664268
13.127305 18.03389 45.470406
20.308847 21.034365 40.460125
8.1814871 23.314131 36.643326
14.747894 15.225418 41.936146
-0.37542582 18.219864 45.116547
15.488894 3.8606868 39.752495
21.386913 6.7417479 39.752499
20.296913 23.885786 35.698738
0.14006126 15.225285 41.842667
17.663347 7.9495687 39.752499
7.2728868 10.521108 39.752499
15.515964 17.08573 46.566299
15.820271 19.580362 42.888058
17.258471 5.7513456 39.752499
23.29118 10.126245 39.752499
16.126333 18.576141 44.564941
22.809607 18.221596 45.156971
14.717525 25.508518 32.989052
1.4426847 15.229195 43.247528
20.682898 11.250011 39.752499
10.148985 15.223967 41.405842
2.6478615 18.575832 44.532684
5.079978 6.5901036 39.752499
15.896404 16.208673 45.427032
19.103113 8.9452114 39.752499
0.80848646 14.231164 39.717457
9.380106 21.90559 38.998207
8.5876732 19.146896 43.599709
7.0786915 13.771576 39.743019
6.4992251 6.3237686 39.752499
16.48259 15.230415 43.719486
10.223993 19.806271 42.504776
0.94865942 14.202041 39.718204
16.384943 20.207756 41.84042
22.644897 19.126999 43.645103
5.6808677 23.986662 35.512428
2.4591253 12.711969 39.737404
2.4965968 21.046448 40.408779
11.119774 8.7440929 39.752499
10.022429 6.2772965 39.752499
14.314128 20.284794 41.711781
2.303813 16.428078 45.909248
22.787285 13.002885 39.752499
3.9427822 6.4054422 39.752499
10.548706 10.754521 39.752499
4.680531 15.230055 43.561199
14.384435 15.221176 40.421936
15.477981 15.070694 39.752495
21.526028 21.757513 39.25259
0.043947756 10.205783 39.852962
13.318901 15.229342 43.335854
21.358795 13.195845 39.752502
13.798938 23.713459 35.986496
20.497883 7.4337492 39.752499
16.461876 4.8035746 39.752499
6.0119333 15.221129 40.378757
15.352465 15.224606 41.645874
5.0410213 9.3628263 39.752499
5.1248016 21.198559 40.163807
18.132099 6.9749031 39.752495
22.781271 21.305067 40.008099
11.165099 17.550436 46.272888
8.6091518 18.893797 44.022198
22.894732 15.220928 40.333702
18.515121 13.296885 39.752499
20.017525 15.226449 42.304115
19.768173 9.6042709 39.752499
3.7934449 24.58143 34.513382
5.2655034 23.798573 35.824936
6.3865547 9.40769 39.752499
4.5840445 15.511681 45.427044
5.6716375 16.380077 45.684464
21.109421 3.8093648 39.752499
15.075323 24.988419 33.857529
22.099285 13.769463 39.752495
18.846088 18.658159 44.427982
4.5185533 15.223125 41.086018
4.3072057 17.717443 45.970936
6.2482128 11.020992 39.752499
8.6760607 15.231054 43.931477
15.573931 15.386279 45.427105
11.407863 14.242502 39.752499
5.9392004 22.100933 38.66053
10.866682 24.130835 35.289368
0.29270411 18.544643 44.576767
16.0898 10.205952 39.752499
1.0304828 19.48904 43.00309
10.71911 15.225325 41.892776
10.064037 24.072548 35.383926
7.8135591 9.4022312 39.752499
11.739076 20.287338 41.70702
19.903395 13.235233 39.752499
6.9818316 12.231197 39.752499
17.116982 23.431383 36.457516
11.13094 21.710167 39.330292
20.053696 21.987938 38.867817
3.6828284 15.227535 42.658142
3.2526484 21.945061 38.911579
9.6395531 12.661729 39.752502
3.1225114 19.986752 42.179508
12.750749 4.7789297 39.752502
6.3979445 22.626024 37.785725
21.067705 15.230522 43.757568
10.461504 24.059219 35.407516
13.337988 6.24365 39.752495
10.848793 16.436409 45.948238
7.287981 20.906647 40.658333
9.7956495 5.7992148 39.752499
11.13343 15.74299 45.427044
17.125656 24.941374 33.936085
1.8754683 16.125889 45.427017
10.590819 22.46632 38.066463
19.722784 4.0944748 39.752499
14.669963 22.313877 38.323555
19.682364 24.838596 34.107708
19.117887 24.219627 35.141281
22.230091 19.16008 43.589859
22.933655 15.223729 41.333267
21.981121 23.454517 36.418858
3.5585771 7.3313413 39.752502
18.874697 16.018961 45.427071
10.683039 8.2248068 39.752499
10.837936 15.230648 43.793922
14.014705 20.331169 41.634342
16.71093 14.718925 39.752499
0.95969391 15.233252 44.720284
16.723948 21.546822 39.604404
3.4300771 18.754311 44.237461
1.0895061 17.310175 46.527229
20.077944 19.533749 42.9659
21.540087 24.371464 34.887688
16.063721 7.7173982 39.752495
22.616188 18.56123 44.58984
14.956808 16.747021 46.566299
5.3378811 17.4669 46.392578
0.97261095 13.90992 39.721046
4.6458998 5.3138247 39.752502
18.751431 15.233946 44.979668
8.2786217 10.294056 39.752499
20.453653 19.938606 42.289852
13.18334 21.464458 39.74194
18.660328 16.528326 46.378643
19.592596 22.273064 38.391705
6.6516714 6.4839511 39.752499
6.2583561 15.22008 40.005196
18.867393 17.540304 46.294613
3.2623522 22.573593 37.86261
1.8678315 15.221824 40.612732
16.235184 10.418884 39.752495
12.397219 15.223953 41.408661
22.080074 5.1927991 39.752499
10.5379 16.402481 45.78936
13.545839 17.191526 46.566299
9.5418062 16.475813 46.132755
4.8556733 22.833042 37.434998
16.613297 15.227858 42.8064
20.378033 14.421968 39.752499
6.4239244 14.3714 39.735134
2.773963 22.221382 38.448788
5.41009 11.305089 39.752499
21.839968 19.564289 42.914902
5.8558593 14.663206 39.73045
17.295868 8.5214691 39.752495
6.6629558 18.16729 45.22813
7.5492401 25.085484 33.684849
13.698776 22.930584 37.293758
0.18081999 23.041647 37.071007
7.9423332 13.981477 39.743958
0.6731782 21.158504 40.215588
23.036701 20.380699 41.551632
10.567465 15.232639 44.504021
15.154706 24.589619 34.523453
-0.27325106 20.736584 40.916557
22.268023 14.467879 39.752499
18.931717 3.7408586 39.752499
8.0660839 6.530118 39.752499
0.79200935 15.232018 44.272511
7.2518053 14.65645 39.735241
17.975285 12.324399 39.752499
9.0452147 19.164698 43.571548
14.525994 15.55059 45.427082
18.104576 19.429356 43.140221
6.3889203 17.66329 46.068367
19.589533 15.228397 42.999092
1.5732589 23.404209 36.470619
3.2158082 15.233352 44.756733
10.114097 9.5476313 39.752502
20.181892 7.8609219 39.752499
17.922157 5.0178814 39.752499
4.2390504 15.225924 42.084511
10.30196 3.9243033 39.752499
13.130504 15.313373 45.427094
16.438301 23.75835 35.911533
20.281073 12.945628 39.752499
18.240669 10.126126 39.752499
18.029301 17.970257 45.57666
10.464602 3.7857704 39.752495
8.2318525 20.563553 41.234146
5.8881259 9.459178 39.752499
19.873528 14.062313 39.752499
12.216805 18.560181 44.591213
3.8176513 6.8229947 39.752495
0.64117938 10.724763 39.999466
16.074938 23.512978 36.321262
4.8567271 10.371925 39.752499
2.1448135 6.8962221 39.752499
12.818431 17.495932 46.368706
20.162191 13.347064 39.752499
17.567368 1.600909 39.752499
2.8495839 22.406307 38.140411
17.032547 11.271298 39.752499
17.322653 19.297749 43.359978
15.076591 13.515677 39.752499
12.161745 15.22136 40.481785
9.4315453 21.011091 40.49128
2.7014928 21.944279 38.911018
13.74299 25.856867 32.407368
22.669834 12.336028 39.752499
13.26182 4.4117208 39.752502
14.664177 16.78997 46.566299
20.145489 17.823179 45.822258
4.232718 25.069103 33.700954
22.240894 5.8449244 39.752499
13.691681 15.22406 41.451332
11.321414 19.978514 42.22102
20.242214 16.349047 45.539177
0.51479006 8.8521633 39.596298
23.216789 15.234974 45.346451
18.415998 5.8623371 39.752499
12.273627 18.187931 45.212685
-0.21591139 18.51005 44.632774
10.34481 16.416451 45.854778
10.863825 9.7574663 39.752495
13.016417 15.225188 41.851715
9.2518969 15.232617 44.491844
10.763777 20.657181 41.086456
14.064036 20.02371 42.147747
-0.24002028 15.233767 44.907326
6.3657112 15.234619 45.216038
12.111254 15.221004 40.354897
5.4556112 18.330908 44.950966
1.0272824 6.5862365 39.596298
2.3071637 18.724415 44.28355
19.267311 22.594896 37.854301
3.0246363 8.3863573 39.752502
2.1129224 23.619148 36.113716
13.681564 14.753978 39.752499
20.074453 4.7954965 39.752499
23.083521 15.234603 45.213795
9.3710747 23.698734 36.00547
18.684977 18.69343 44.369087
7.9391856 15.222727 40.955643
3.3387675 6.4724283 39.752499
3.1079187 7.1376686 39.752499
2.8652639 16.346939 45.529297
0.027483728 10.981128 39.7523
14.833723 9.9948921 39.752502
11.168996 5.7127671 39.752499
20.752743 15.230389 43.709984
23.106825 15.223705 41.324669
19.379137 22.431593 38.126991
3.4207802 6.4393601 39.752502
19.462078 23.344681 36.602291
19.373974 18.864157 44.084003
17.39768 15.233076 44.668869
19.729162 15.823589 45.427097
14.051579 11.379126 39.752499
7.3885403 18.326784 44.964394
16.518757 12.97458 39.752499
20.742136 20.07217 42.066822
0.44706202 15.234463 45.159637
20.612995 9.679245 39.752499
7.9437594 19.292595 43.354362
22.218071 5.1756773 39.752499
20.706121 23.681435 36.039967
17.08091 1.5894525 39.752499
20.970089 15.222282 40.816833
3.8556652 19.875462 42.367722
9.7270308 21.826263 39.131779
4.3657775 15.836306 45.427013
2.1678829 20.209015 41.805321
6.0211935 9.3954449 39.752499
22.559246 24.559822 34.573093
20.040209 22.814114 37.488247
10.623722 20.198044 41.852268
3.3439243 15.228683 43.067184
11.058872 9.5577908 39.752499
12.018091 21.788303 39.201176
18.665489 5.093502 39.752499
18.214718 22.748219 37.598282
12.658798 15.222742 40.97718
12.653593 18.111563 45.340706
9.6312037 15.221867 40.653809
11.964509 15.224669 41.663006
10.43184 20.864624 40.739113
10.818549 18.601162 44.518082
10.862494 25.443295 33.097965
19.656366 16.991394 46.566299
3.21525 12.5871 39.74115
17.333416 15.228259 42.950005
11.715028 3.9484897 39.752499
21.788988 8.5399561 39.752499
2.51965 18.897406 43.995552
6.2226381 22.421848 38.125896
13.93244 10.1136 39.752499
13.484629 11.839168 39.752495
21.80871 20.037956 42.123959
16.257891 15.219617 39.865288
22.010271 15.234597 45.21188
15.286128 23.728977 35.960579
15.963835 22.125193 38.638626
21.05295 26.586868 31.188251
0.68883896 18.049366 45.404709
7.5077791 23.771374 35.877918
12.156556 25.006458 33.827404
4.0974736 12.801547 39.742104
8.9512529 15.224004 41.415165
7.8963008 23.211735 36.813259
15.169895 16.161217 45.427029
6.3131285 18.741032 44.269382
9.7270851 12.65312 39.752499
15.416894 18.174946 45.234871
11.487653 15.820557 45.427036
9.964304 9.4798079 39.752499
7.6212969 19.151276 43.589127
16.758196 15.219625 39.868599
22.90626 18.064104 45.419952
16.66975 9.8078613 39.752495
15.624925 16.356934 45.576073
19.47085 21.46069 39.748234
15.106522 22.636492 37.784843
12.547598 6.873044 39.752502
1.6968312 15.233536 44.822971
12.261451 24.173046 35.219059
19.169729 11.186238 39.752499
14.633955 14.092574 39.752499
9.2501822 17.664711 46.075684
8.7027264 14.635735 39.740349
3.4156771 17.52949 46.281605
6.7899227 22.441151 38.0956
17.095173 12.306289 39.752502
5.8775578 19.618521 42.803406
2.1279843 11.506177 39.747684
12.293381 24.845318 34.096481
12.726461 23.039669 37.111607
21.59882 25.27763 33.374496
4.3194704 21.559181 39.559219
7.0357618 15.226005 42.122952
11.846019 21.302574 40.01226
16.485727 22.184021 38.540398
23.187786 15.578856 45.427101
4.0038295 20.518147 41.295609
3.4922285 7.513834 39.752499
16.373005 20.79678 40.856853
-0.15018225 21.43828 39.745861
12.801621 16.35421 45.563313
3.6046844 18.725903 44.285461
19.110008 6.9316301 39.752495
14.188446 25.833302 32.446716
3.8677089 13.837894 39.731525
12.357965 22.533749 37.956406
15.038926 21.986641 38.869987
16.454367 21.75329 39.25964
9.8710461 17.862347 45.747936
7.6039352 9.666069 39.752499
20.754389 10.331923 39.752499
18.516911 2.0147583 39.752499
13.167843 16.390219 45.731934
20.324699 5.3009267 39.752499
16.362162 19.125626 43.647396
16.266623 18.777672 44.22842
17.716993 5.1487813 39.752499
12.837803 17.714508 46.003719
5.5048094 6.3548541 39.752499
18.982937 25.127359 33.625519
2.2009428 15.232144 44.318085
6.3473754 7.4740252 39.752499
4.4536333 18.265823 45.05619
5.8414688 14.706568 39.729992
6.3421431 18.949026 43.922348
16.196741 5.5423226 39.752499
9.0544672 20.113262 41.988453
2.1721599 23.217819 36.783722
21.147591 15.219891 39.962921
21.539452 11.909431 39.752499
15.173231 9.5952797 39.752499
6.7327261 15.598398 45.427044
17.161287 18.210711 45.175144
4.4067883 21.228323 40.111706
6.263134 22.563286 37.889977
18.399702 13.649186 39.752499
21.991936 23.345882 36.600258
9.9665537 21.644888 39.435299
15.409204 25.448349 33.089523
18.4921 17.447563 46.449471
19.355896 6.5557494 39.752502
10.732816 21.787518 39.199844
-0.13758993 21.420368 39.775799
18.001812 24.795019 34.180473
16.441053 24.151659 35.254776
4.3722463 9.1498585 39.752499
15.157829 10.366673 39.752499
14.286304 22.934971 37.286438
19.017359 20.710159 41.001495
7.3532109 12.258923 39.752499
14.832163 15.919313 45.427048
0.35415506 16.57527 46.524742
3.5177088 17.789593 45.847843
4.1088657 18.751383 44.244644
18.165951 13.397587 39.752499
0.35455513 17.436148 46.427025
3.6506407 23.680916 36.015831
12.611973 5.558557 39.752495
16.48291 18.734091 44.301189
19.399899 4.3947997 39.752499
20.038113 5.2665596 39.752499
8.5657225 15.2304 43.697716
22.563549 9.3176918 39.752499
11.992194 3.0335584 39.752502
19.161304 19.347576 43.276772
12.493562 23.882832 35.703671
11.351802 25.580372 32.869064
10.5378 5.9618998 39.752499
5.6374784 15.23135 44.029945
6.5670238 15.810284 45.427025
1.8803797 20.473446 41.363022
6.4644408 23.846363 35.749237
5.1273451 22.236874 38.430904
21.339375 6.893415 39.752499
20.09585 22.217438 38.484596
15.608922 13.243124 39.752499
19.368301 4.127296 39.752499
7.8154855 14.062375 39.742764
-0.075711727 12.801411 39.727982
16.551382 15.222422 40.866531
3.1740127 22.63595 37.75824
3.7623234 11.529621 39.752499
23.207865 16.552956 46.49398
22.088037 18.3153 45.000504
19.163103 14.003515 39.752499
19.83778 5.6187391 39.752499
2.210536 17.441345 46.424637
21.032021 19.712923 42.666706
12.605994 23.306936 36.665318
5.5498171 18.91625 43.974365
8.8008537 17.905838 45.671722
14.309476 9.8453569 39.752499
12.202253 15.229206 43.283363
7.3603659 14.538027 39.736729
13.825047 7.2282968 39.752499
-0.1901021 13.823633 39.71793
14.291206 3.9536476 39.752499
5.1633663 8.2906418 39.752499
19.376871 20.475933 41.392612
1.3241262 7.6947002 39.927971
15.630056 20.366253 41.57576
14.403241 13.171824 39.752499
1.3892126 8.2564955 40.009098
13.055115 4.4743471 39.752499
10.750966 21.127071 40.302174
9.9831963 23.818714 35.807297
6.9265776 8.9015169 39.752499
3.8296719 15.230418 43.692043
4.0757065 16.490492 46.201511
-0.84178722 15.993553 45.427017
22.326221 21.70977 39.332314
5.5493412 22.657799 37.72982
-0.43828857 15.225639 41.967545
16.882635 20.686293 41.041348
18.028955 16.549458 46.477592
19.72456 18.443676 44.786129
13.415283 3.0835085 39.752495
13.790998 4.5915651 39.752502
22.448292 11.771339 39.752499
10.635742 16.862467 46.559555
20.978552 8.6155157 39.752499
12.457837 21.770058 39.23164
17.804768 17.603487 46.189106
7.240963 24.753325 34.238167
5.3084888 9.4544096 39.752499
20.238913 6.0329599 39.752502
20.797049 15.228621 43.079216
11.466801 15.219338 39.757553
13.957558 17.114063 46.566299
11.380178 17.889093 45.708412
15.526649 18.9814 43.888226
15.133649 20.062654 42.082714
16.820011 22.027477 38.801796
9.6915751 19.85778 42.417004
20.866674 22.549046 37.930866
13.789289 2.979352 39.752499
23.142441 6.6688666 39.752499
7.5789695 12.246124 39.752499
4.448638 17.342113 46.538605
18.672152 15.221889 40.676506
17.463507 13.679439 39.752499
19.585014 22.759401 37.579609
20.705479 15.220127 40.047569
2.9279289 14.415056 39.722889
17.918224 18.654377 44.434299
9.6779823 5.6430206 39.752499
13.972689 15.228436 43.013027
4.2015591 7.1116762 39.752499
12.17318 8.5910587 39.752502
14.362193 23.768589 35.89444
11.485734 3.9766581 39.752499
15.365595 23.748066 35.928707
16.841497 16.67458 46.566299
21.200691 21.927532 38.968685
21.780241 18.628231 44.477959
8.1311359 17.539684 46.280563
11.023957 18.763563 44.247734
8.0113163 10.72947 39.752499
7.9997468 21.958366 38.905453
8.1777153 18.105177 45.336922
18.171906 22.550091 37.929123
21.964237 15.224137 41.47876
16.48204 7.1196518 39.752499
7.5537028 16.442183 45.975285
6.9184403 13.366362 39.746311
14.478659 19.672472 42.734249
1.2310576 15.228684 43.062595
12.627502 4.7215514 39.752495
3.9562485 13.455665 39.735443
9.495657 7.8402386 39.752499
7.4811254 15.223762 41.323631
22.121698 18.250776 45.108242
15.102634 23.169544 36.894737
-0.10841084 19.407433 43.135429
11.607731 19.821409 42.484192
3.7142406 7.7770867 39.752499
13.537424 10.080462 39.752499
9.0263119 14.833748 39.739567
5.2663965 10.073268 39.752499
16.032879 9.8471994 39.752495
15.171921 18.159058 45.261402
5.4190483 7.066947 39.752499
19.823391 18.375336 44.900249
11.734613 22.916065 37.318005
3.5244987 15.233099 44.664452
0.38618565 19.320122 43.282829
20.505138 21.224792 40.142143
9.9388189 17.923071 45.64682
22.246313 20.232872 41.798477
18.624575 22.098522 38.683163
10.535713 8.2168064 39.752495
18.366489 20.187967 41.873466
2.019351 20.069906 42.036991
7.5128722 5.3441534 39.752499
15.59606 19.885307 42.378857
15.745881 8.0096178 39.752499
18.239414 11.78846 39.752499
18.50596 2.745605 39.752499
17.184797 5.5660887 39.752499
12.480608 6.5042744 39.752499
3.5539699 19.068804 43.713001
4.7716036 10.995074 39.752499
-0.76484919 16.836779 46.52095
9.4157562 16.65254 46.55542
13.452284 25.395233 33.178215
15.418139 15.231693 44.175873
6.669466 24.96743 33.878899
19.323772 12.691888 39.752499
11.134187 25.468073 33.056583
15.340006 11.407866 39.752499
22.202559 17.305943 46.566299
13.529776 5.128335 39.752499
20.262133 16.286144 45.427055
16.769793 9.0263634 39.752499
10.286388 17.984123 45.546104
11.131336 22.715443 37.652519
13.248766 24.244152 35.100327
18.36891 19.93425 42.297131
13.059733 20.458935 41.420994
15.878727 15.777494 45.427071
19.71722 7.4212103 39.752499
16.452015 19.00762 43.844444
13.980685 16.562101 46.5368
4.342679 20.620312 41.126244
10.447833 15.225643 42.00573
9.775342 5.5625954 39.752499
8.5539064 19.712975 42.654827
22.162794 9.7373991 39.752499
9.8049183 15.227842 42.788811
14.601246 20.523581 41.313049
13.347575 4.759737 39.752499
-0.58874142 15.229072 43.203007
11.526772 20.085415 42.043297
20.704063 8.5544004 39.752499
13.243557 20.15056 41.935932
-0.55392098 15.230644 43.774166
20.311226 8.4021549 39.752499
4.9490747 17.163942 46.540298
18.7616 19.345243 43.28067
1.9542203 23.690174 35.994637
16.874538 15.228412 43.004509
8.9919977 20.233526 41.787529
17.943506 24.928169 33.958134
12.717178 12.345203 39.752499
16.279602 9.0427303 39.752499
10.235682 19.836107 42.455013
18.893173 5.6699557 39.752499
0.92317104 17.434044 46.432465
14.402119 21.779644 39.215633
5.3433437 15.22555 41.954773
22.878178 16.794489 46.566299
7.3027005 22.103519 38.660828
22.051491 15.228127 42.902809
5.3522329 22.098091 38.663284
15.935669 20.450153 41.435658
0.24975395 17.634024 46.096416
3.2743454 7.3138356 39.752495
16.589191 16.086666 45.427048
12.742886 23.618567 36.144947
20.037613 24.862396 34.067966
6.0832462 20.103434 41.994797
0.9978894 15.228261 42.908852
2.852911 7.4691777 39.752499
14.940903 3.5741651 39.752499
16.923969 12.602747 39.752499
22.822872 22.370068 38.229706
18.569443 18.764038 44.251183
21.619959 16.194098 45.427078
15.813987 11.9184 39.752499
7.0488892 23.973022 35.539822
3.1826572 19.780525 42.523895
3.4111233 19.23494 43.435234
11.040867 22.065918 38.736252
2.1060557 17.465279 46.384335
17.269888 15.233445 44.800735
11.495798 13.423183 39.752499
3.0049481 15.233544 44.82621
20.671024 19.484507 43.048122
5.6853428 20.684483 41.023689
2.6438503 15.23485 45.300087
20.95302 21.121937 40.313896
9.5047264 20.880329 40.709766
6.1870356 15.863214 45.427017
0.65017986 14.200405 39.717209
5.4135222 16.341677 45.504646
12.269217 19.608047 42.841835
18.841063 16.451694 46.019814
2.3390374 14.113685 39.723747
11.392598 21.015768 40.490112
22.827831 19.414253 43.165436
3.4409287 15.222672 40.921188
9.0235548 9.4689045 39.752499
19.993702 13.91227 39.752499
15.094938 16.55669 46.511475
1.6547036 19.341591 43.251297
11.189995 9.5790062 39.752499
13.144833 21.271057 40.064884
18.958223 10.554184 39.752499
8.5955124 15.222898 41.018791
19.115444 19.445723 43.112888
19.388287 7.2511101 39.752499
10.357777 6.6209869 39.752499
0.3217783 21.362225 39.874397
16.375242 17.548401 46.28109
10.190846 15.228352 42.971836
14.954817 19.358458 43.258602
8.6019068 21.620197 39.471878
17.976179 24.050064 35.424423
21.269905 22.045597 38.771534
11.927308 8.374485 39.752499
17.597084 3.7542839 39.752495
17.536123 9.6536541 39.752499
10.174427 15.234144 45.044212
18.73727 12.814431 39.752499
0.69717598 15.234282 45.093647
14.060729 15.226456 42.306087
15.604744 22.891741 37.358624
6.875886 15.219347 39.744991
5.424861 15.227136 42.521309
20.466045 15.22438 41.565517
21.815123 17.852629 45.773083
1.7858416 9.7551336 40.009102
9.9071064 11.184484 39.752499
17.408468 18.941177 43.955391
12.030869 23.689653 36.026245
1.6256995 14.919783 39.713707
18.85014 17.214397 46.566299
18.554688 18.088993 45.378391
10.54159 13.754563 39.752499
11.095446 8.3502531 39.752499
20.242088 25.425652 33.127399
19.950674 18.467506 44.746346
16.392126 15.059407 39.752499
9.5720949 12.016344 39.752499
18.94347 14.922749 39.752499
14.161472 7.4032683 39.752495
2.4931521 14.097536 39.724419
14.602705 7.180263 39.752495
17.332541 26.136227 31.940884
21.88904 22.157249 38.585098
22.153851 9.0651283 39.752499
4.8758736 8.6011696 39.752499
19.503431 12.619528 39.752499
21.992071 15.227492 42.676128
4.8498993 21.183249 40.188431
5.9756899 21.286625 40.019718
8.72509 10.129556 39.752499
18.593998 3.2643929 39.752499
15.433592 3.9727798 39.752499
10.028811 24.015755 35.478596
14.485396 15.221992 40.713257
9.6508675 19.716902 42.651985
7.4836235 25.32958 33.277233
6.0433249 7.0962572 39.752499
6.3041306 8.2511015 39.752499
16.173862 14.636006 39.752499
12.134378 24.625809 34.46302
18.368477 24.885994 34.028557
-0.032552719 18.335926 44.924004
2.4917545 15.189846 39.714088
0.07451725 17.253475 46.523788
6.3673081 18.111427 45.320362
20.621864 15.22963 43.438747
21.375477 23.703453 36.003201
13.500799 20.201836 41.850307
19.453642 3.3848953 39.752499
1.409934 14.83746 39.71376
22.534519 8.1609697 39.752499
21.087835 24.491245 34.687691
1.0295986 10.666673 40.009102
18.436453 15.230335 43.690735
11.801231 18.016621 45.496994
16.958084 5.3380308 39.752499
10.237662 13.934088 39.752174
8.1376247 20.22982 41.790817
0.14653641 15.226565 42.299717
2.8329043 20.207726 41.809723
19.467678 8.9597445 39.752499
4.780303 23.362181 36.55162
1.5918385 15.227552 42.657089
16.860182 19.217514 43.493954
16.275156 8.9537334 39.752499
10.118641 9.8255558 39.752499
20.758938 24.21571 35.14782
15.120867 15.231905 44.251102
22.026501 17.510044 46.345139
3.9021986 15.225694 42.001572
6.6724439 16.611212 46.546135
11.961354 17.334158 46.564045
21.692108 19.750843 42.603386
6.6617155 22.689381 37.68087
9.1229496 20.123974 41.970806
17.657219 13.090908 39.752499
23.149384 9.7214985 39.752499
4.6169415 8.8338518 39.752499
14.594784 6.1827612 39.752499
3.110836 9.4073114 39.752499
15.446173 16.36762 45.626114
18.907389 4.9891791 39.752499
18.928715 2.3295105 39.752499
20.057049 22.754017 37.588596
9.6829491 15.228806 43.132038
21.465433 5.5650139 39.752499
12.200664 13.234934 39.752499
20.249777 20.126902 41.975433
13.231423 8.0448132 39.752499
20.926619 12.13824 39.752502
13.996449 19.820202 42.487572
2.165472 9.5347376 39.752495
13.342571 21.910822 38.996593
11.36615 18.711651 44.335537
15.106946 26.005669 32.158894
16.595854 16.432541 45.930119
4.4834814 15.220432 40.124897
2.1664853 22.027702 38.769974
22.802727 21.959873 38.91468
15.511168 15.227625 42.723873
1.5793376 18.286947 45.011208
14.502243 24.227779 35.127666
16.328732 16.170424 45.42704
10.561724 22.487019 38.031818
19.660456 19.663948 42.748486
13.040548 15.222216 40.790337
2.6811748 19.272974 43.369293
21.383251 22.188316 38.533218
9.2609091 15.234204 45.065701
21.830938 5.2343993 39.752499
6.9337997 20.199039 41.838112
16.431189 10.446347 39.752499
5.0670323 16.055071 45.426998
9.0485401 23.125675 36.960793
17.638998 25.285959 33.360683
19.08547 22.150673 38.596081
3.845727 9.4059591 39.752499
0.24541867 15.940237 45.427006
14.687611 25.971313 32.216259
1.623384 15.220869 40.271042
18.858519 7.2625809 39.752502
20.550968 20.626282 41.141552
5.4797249 17.31234 46.542091
2.0143619 15.124922 39.713085
16.468508 21.469433 39.733639
22.270826 21.88954 39.032127
14.847453 15.478207 45.427094
10.673865 18.920265 43.985016
4.1538963 23.969524 35.535858
13.239757 24.68502 34.364151
8.4684429 17.291101 46.552216
1.8257318 23.819786 35.777882
13.398383 6.5350962 39.752499
14.393049 15.706287 45.427067
7.8521528 12.043047 39.752499
1.8189728 24.143393 35.23777
21.518269 15.223459 41.237
21.72373 15.230428 43.723602
10.897557 21.696171 39.352863
19.881678 6.3877325 39.752499
19.194073 20.220673 41.818851
13.0403 16.406141 45.806492
18.506956 3.0946891 39.752499
16.780344 6.8399682 39.752499
16.602749 10.753468 39.752499
10.229855 16.995581 46.558182
14.388848 21.025238 40.475365
0.44074488 22.549362 37.893494
20.073879 15.224784 41.709312
2.133522 6.3343768 39.752499
17.426842 7.0935497 39.752499
21.202356 16.408007 45.815254
5.1372395 18.79023 44.183292
19.389999 15.229136 43.263054
18.797359 25.09433 33.680672
7.0668006 23.678391 36.031616
19.565798 26.085594 32.025417
3.7816873 17.734621 45.940487
-0.16652662 15.228456 42.97937
20.871523 23.895252 35.68293
5.4869995 21.951427 38.908524
-0.21346092 15.145234 39.705353
19.771551 6.8872433 39.752499
18.308296 4.1294012 39.752499
22.023684 15.231407 44.073128
14.972587 20.542833 41.280899
20.671663 18.747276 44.279175
15.187847 23.39143 36.524227
1.8836484 17.648193 46.0783
19.819969 24.677664 34.376438
5.2286119 19.369968 43.216038
13.722265 15.220578 40.208076
23.203714 15.783159 45.427101
10.347064 21.141232 40.27718
22.835848 10.926269 39.752499
11.641373 21.185333 40.207954
-0.083032608 18.466305 44.706238
9.9141779 4.2827907 39.752499
5.8192344 15.222706 40.940819
12.190137 18.212933 45.17067
11.008924 19.052128 43.766075
10.683304 15.221567 40.550892
12.472994 15.937525 45.427032
4.3221235 15.078751 39.721333
2.5937927 7.4083948 39.752499
6.4654655 15.225653 41.995701
8.9480457 24.907211 33.987118
19.115665 4.1656208 39.752499
7.8485641 15.219831 39.921577
3.8546281 15.435112 45.427052
13.041712 19.459091 43.090561
13.421217 15.223171 41.132652
12.825703 24.729271 34.29026
13.763232 19.514679 42.997742
19.045536 18.511063 44.673611
1.3339202 24.387861 34.82811
0.092355728 18.941231 43.914196
9.363699 16.232155 45.427002
14.510632 20.770937 40.899994
19.795492 2.8859098 39.752499
21.185114 23.720331 35.975018
19.605482 9.0771599 39.752499
20.892035 7.1896367 39.752499
14.151495 21.275986 40.056664
9.2935047 11.359132 39.752502
0.60116577 22.701797 37.639626
19.971701 17.427929 46.482254
12.195466 25.744255 32.595409
13.436882 6.3112087 39.752499
0.47274685 19.183701 43.510803
16.853706 12.673056 39.752499
4.5027008 12.756092 39.743904
4.7242908 18.121283 45.298347
1.5906258 16.36607 45.618889
11.880074 13.55583 39.752499
14.99983 6.3761353 39.752499
9.5924807 7.695365 39.752499
-0.038021088 18.650393 44.399155
12.579645 8.9674797 39.752499
15.074497 14.916794 39.752499
10.465994 15.221882 40.662979
12.268398 5.5010233 39.752499
21.651304 4.3320913 39.752499
10.04292 10.276912 39.752499
3.4606357 6.9021797 39.752502
12.681394 12.72857 39.752499
22.293154 24.838903 34.107071
13.677893 15.223048 41.090096
0.3603158 13.148784 39.726173
7.1204901 20.324726 41.628979
1.3544583 10.258725 39.999561
4.2810397 19.52961 42.946388
6.3098927 13.789614 39.74025
19.42234 19.675236 42.729637
11.58944 14.395676 39.752388
4.7107692 15.224494 41.575531
17.251457 26.175396 31.875479
9.8041735 11.511299 39.752495
11.826674 19.946108 42.276817
14.201068 15.22373 41.333336
1.7689337 11.09585 39.750351
16.124615 11.108735 39.752499
2.3171372 21.097702 40.322632
10.32461 7.3880539 39.752502
14.296472 21.907194 39.002647
16.6318 19.254921 43.431492
0.033319876 10.096323 39.596298
1.1582744 12.809223 39.732082
1.4467517 11.872875 39.741913
22.351336 15.228166 42.916061
11.730144 15.23516 45.412506
5.2294831 22.157227 38.564171
20.381668 5.6407518 39.752495
22.787598 15.18504 39.752495
1.501616 17.324493 46.528625
18.275276 19.224232 43.482735
15.708042 15.23122 44.007023
11.617966 23.929056 35.626484
8.4170637 23.789425 35.850872
19.409157 16.405725 45.804558
0.65675157 8.645668 39.596298
0.87480879 23.212589 36.788059
15.15051 15.929399 45.427052
6.170413 18.923771 43.963921
14.713988 22.72209 37.641911
8.4678288 19.542206 42.939541
4.8695192 20.012135 42.143059
14.955473 15.232824 44.57962
16.669254 25.905018 32.326962
16.312096 14.560803 39.752499
22.11318 23.706203 35.998558
16.552635 15.229366 43.345234
10.758954 24.751926 34.252419
12.837198 15.221804 40.642738
7.6564856 17.943577 45.604866
18.305908 9.8508167 39.752499
1.7946632 15.222677 40.917542
14.051368 15.229197 43.284271
3.3767719 20.377895 41.527565
5.8963914 20.36248 41.561817
15.994287 19.448458 43.108318
13.735316 15.222673 40.956188
12.111237 17.549587 46.277508
18.556465 15.823208 45.427086
4.7544584 16.171896 45.427013
18.757013 12.017366 39.752499
2.7626541 13.795087 39.728191
19.777416 24.687927 34.359295
12.036665 14.944125 39.748714
14.76623 25.158798 33.573025
20.954187 18.724699 44.316872
8.1759806 24.251148 35.079453
20.443838 24.81963 34.139374
10.591909 3.7680075 39.752499
7.7368116 20.540625 41.270729
22.729506 15.219513 39.828518
1.7185798 19.01355 43.798996
7.3644934 16.419151 45.867424
6.9161119 22.72645 37.619869
16.155518 15.23104 43.942333
13.849108 4.2552743 39.752499
20.902046 7.568872 39.752499
9.0827379 21.753189 39.251556
20.158672 4.5602713 39.752499
22.042412 18.604637 44.517357
23.036839 8.4162502 39.752499
2.1973715 15.004496 39.714844
6.0569634 25.28709 33.343319
13.551574 20.370724 41.568295
17.848064 11.206298 39.752502
14.91199 15.672695 45.427074
21.301426 7.1349516 39.752499
6.9855528 19.610167 42.821098
11.756958 15.223083 41.095875
6.686944 21.8447 39.090714
18.798904 7.8148241 39.752499
14.283635 21.919287 38.982456
17.940102 10.109895 39.752499
12.995646 19.769081 42.572933
2.0444229 10.030574 39.767036
15.749797 12.670892 39.752499
20.750092 5.6201906 39.752499
11.803922 23.135571 36.951473
17.311098 18.264677 45.085033
13.782361 15.227374 42.634064
6.3877983 21.57365 39.542076
12.417791 4.4225707 39.752499
19.108318 23.413439 36.487476
7.0413518 15.224691 41.654362
11.511793 15.222307 40.81797
22.778255 7.6711864 39.752499
17.896767 18.634991 44.466671
20.946342 4.0641165 39.752499
14.653584 7.5894341 39.752502
1.909481 21.088354 40.336853
3.8818264 22.60718 37.808647
20.980438 20.264732 41.745281
22.184679 15.230862 43.878498
21.904499 15.226223 42.223236
21.352386 7.1536345 39.752499
11.41216 7.1405115 39.752495
14.218202 21.09441 40.359859
19.357521 25.146608 33.59338
14.75643 13.432513 39.752502
13.599978 24.224621 35.132938
20.531334 17.136139 46.566299
22.332237 7.4079471 39.752499
13.136486 18.610102 44.508232
16.590305 15.543492 45.427101
19.98571 24.475697 34.713688
4.7162743 21.482706 39.688194
13.074388 15.229691 43.459473
13.562806 16.525723 46.366459
13.417089 20.879765 40.718281
20.807276 25.542238 32.932674
19.621052 25.660957 32.734505
5.0305948 21.251301 40.07547
7.1398287 15.229714 43.448105
8.0832634 24.393456 34.841633
4.3566961 7.0315313 39.752499
20.085308 15.225286 41.888935
3.8952081 15.221043 40.340767
18.295683 7.7990961 39.752502
22.574087 15.224248 41.518196
-0.72695112 15.235015 45.35989
8.2557755 22.455841 38.076046
8.1643162 12.355225 39.752499
18.401901 6.2960844 39.752499
9.1562033 22.150921 38.587997
4.6445818 23.552746 36.233109
21.649511 9.525527 39.752499
20.515736 9.3897276 39.752499
18.58135 19.235319 43.464226
20.49633 15.226448 42.303627
20.766922 15.22186 40.666084
5.0104256 9.469491 39.752499
8.0382099 24.64995 34.413399
20.134489 16.720394 46.566299
-0.58702374 15.761334 45.427002
12.741161 17.325506 46.566299
22.14323 25.867401 32.38961
0.94569016 19.303682 43.312164
13.720692 20.059486 42.088005
3.877496 20.907631 40.645142
4.0984964 20.167473 41.881195
2.2543502 17.308407 46.531174
15.952924 25.651302 32.750626
16.08884 22.452652 38.091824
10.59677 15.22945 43.365238
2.3799152 20.050716 42.070236
10.961254 22.037853 38.782818
8.5617561 20.74802 40.927391
20.396177 15.415699 45.427101
1.9225044 19.727133 42.608738
0.92444724 15.228371 42.948994
11.258363 18.035469 45.463699
8.8035727 22.264519 38.397209
6.8183527 12.643921 39.752499
13.841224 6.0281744 39.752502
4.3910637 22.070629 38.705864
16.868767 19.748611 42.607117
19.021538 4.3720155 39.752499
7.1799822 8.02143 39.752499
10.450511 23.891996 35.686573
0.59540033 17.477894 46.358162
12.578959 19.711456 42.669155
3.1081362 15.079191 39.71722
2.1096354 17.639009 46.094398
1.967412 19.838333 42.423294
11.339914 6.6082354 39.752499
20.424948 15.23135 44.052887
10.380331 15.227898 42.810665
16.615229 18.498007 44.695408
4.7541256 17.806892 45.823158
15.262823 15.234362 45.127659
2.3255596 23.488194 36.332993
21.653002 25.760752 32.567734
9.6161232 22.016888 38.813248
7.4070873 7.5685086 39.752499
15.264524 17.927425 45.648182
9.4187469 16.431503 45.925266
10.687689 18.916355 43.991585
18.227219 20.607645 41.172672
18.551558 17.92128 45.658443
10.28945 23.970642 35.554771
2.9914284 6.6505542 39.752499
8.4637222 6.1203499 39.752499
14.90413 24.417664 34.810593
19.908585 26.392197 31.513409
17.44511 15.225488 41.960602
7.3189039 19.801023 42.503696
14.690142 11.135123 39.752499
6.8168106 10.83271 39.752499
10.749334 17.328138 46.559944
11.15763 12.801718 39.752499
17.954145 24.886171 34.028263
20.441662 3.4436953 39.752499
-0.015059948 13.061487 39.725727
23.18219 15.23262 44.506363
22.675297 25.126644 33.626556
11.653124 23.281307 36.708115
10.03537 23.58687 36.194416
12.775963 7.2530107 39.752502
3.1300013 21.565918 39.543945
17.179611 20.401112 41.517548
18.130171 21.819355 39.149326
8.9857302 22.340893 38.270363
15.512557 19.91349 42.331795
8.6502447 20.571232 41.222748
13.492037 15.221255 40.44915
3.6002567 15.22965 43.412945
4.711535 15.21952 39.799889
2.1381955 22.215603 38.456276
9.6014881 15.231587 44.12524
7.5254316 21.569813 39.552334
17.209169 11.552877 39.752499
2.6623912 10.443378 39.752499
16.435488 15.891085 45.427067
-0.35935831 18.720835 44.280499
3.9874818 21.361776 39.887558
6.1644497 22.195398 38.503632
20.463577 15.232243 44.37151
17.58165 20.938349 40.620457
21.890402 23.139917 36.944202
18.586872 16.440695 45.9683
1.2165784 10.988765 39.752132
13.675613 15.230185 43.637299
4.0417523 15.220369 40.100792
20.422806 7.9396186 39.752499
5.4419508 22.358688 38.228661
7.9143028 10.7698 39.752499
6.7760148 23.959625 35.56126
5.002542 12.236827 39.750504
16.967554 19.73595 42.628254
20.039984 11.937969 39.752499
13.390594 9.6991825 39.752502
10.39134 18.186567 45.208584
13.466414 15.232455 44.447441
5.7876701 23.148846 36.911079
7.792788 16.980572 46.549931
19.93515 15.224624 41.652222
17.990335 17.953733 45.604256
20.743872 18.202757 45.188427
22.19433 11.921825 39.752495
17.971033 15.231947 44.266014
3.3165145 19.738651 42.594234
15.203461 17.650139 46.111202
9.2470121 15.230274 43.655518
1.4182643 8.8346434 40.009102
15.762468 16.519691 46.338215
2.9949582 8.0031033 39.752495
9.4439325 21.980162 38.873962
2.9784021 8.1930046 39.752499
4.6570702 22.681202 37.687737
10.588284 16.469212 46.101841
22.218548 23.942432 35.604073
2.9370518 15.224829 41.689278
11.577804 13.281178 39.752499
0.12319279 16.92738 46.523956
10.979351 20.847162 40.770111
5.2322631 7.0473418 39.752499
1.0758386 23.145996 36.899879
4.9466848 24.466434 34.709213
5.2427816 10.872967 39.752499
12.580175 15.234939 45.33223
0.32603312 23.377434 36.511078
16.392267 26.086174 32.024464
20.22839 25.859856 32.402328
8.2843094 24.901777 33.993942
0.43173122 15.224946 41.722385
13.543489 18.916883 43.99596
0.60730743 23.912571 35.618896
20.456217 22.055168 38.755558
16.120071 15.220097 40.037041
3.6277392 8.9302883 39.752499
15.159744 9.7142191 39.752499
14.394315 15.224174 41.491898
7.4957156 15.224382 41.545326
-0.30193615 15.776356 45.427006
17.980854 21.363461 39.910591
2.3665187 16.018517 45.427006
9.2870331 22.50198 38.002537
12.839435 21.157614 40.254318
6.8810959 15.203858 39.728809
10.816005 23.909702 35.65826
2.9963903 19.722061 42.620842
9.2503395 24.315208 34.976173
4.6597314 13.307127 39.739227
12.244835 9.4323196 39.752499
2.9507952 16.430695 45.921497
5.5712738 15.226765 42.38961
6.2353635 16.497478 46.234222
18.310354 5.812099 39.752499
16.997452 1.6905546 39.752499
13.729062 4.3575096 39.752499
18.526649 13.692158 39.752499
20.605379 10.97203 39.752499
18.533669 21.511684 39.663082
5.0373898 23.437828 36.426231
9.367713 24.996746 33.839111
13.607107 20.082172 42.050125
12.960376 14.175926 39.752499
16.814274 26.201967 31.83111
5.9342337 13.190732 39.74464
18.426031 12.904258 39.752499
3.0266094 16.387463 45.719063
18.776951 8.7836256 39.752499
18.896742 22.777185 37.549911
4.6926603 24.183586 35.180416
19.838255 24.435129 34.781425
16.758427 7.0994768 39.752499
14.455587 8.1978779 39.752499
6.0985231 15.043379 39.72768
3.5090852 15.234922 45.326473
7.2409782 22.916683 37.303478
9.7501106 15.325709 45.427086
16.986576 2.8357258 39.752499
17.430191 9.3128901 39.752499
13.123432 15.286173 45.427097
20.4457 13.1036 39.752499
4.6917315 20.272644 41.707672
12.912502 8.148797 39.752502
6.3945627 24.828581 34.109699
15.793614 21.010313 40.500286
17.076263 16.391623 45.738506
13.742306 22.053883 38.757706
22.056692 21.665062 39.406967
20.17815 14.466569 39.752502
5.7356114 15.225729 42.020481
23.064444 10.725657 39.752499
0.90702009 24.102921 35.302231
0.42441368 12.462318 39.73288
2.6082613 8.3839169 39.752499
4.9775972 23.360039 36.555862
22.656586 5.5806599 39.752502
9.8610229 15.232915 44.599964
2.2472281 17.526932 46.281914
16.862545 18.78018 44.224232
19.716948 21.763575 39.242466
22.933243 5.4564662 39.752499
16.501915 24.828033 34.12534
22.482616 22.744951 37.60371
12.917248 16.123386 45.427013
6.6904926 19.633135 42.781769
21.100101 21.392021 39.8629
21.433399 20.110609 42.00264
0.91889763 22.554079 37.887241
22.813213 17.781788 45.891373
0.067131042 14.153336 39.715683
17.445923 23.306889 36.665394
3.8520303 22.837437 37.424255
2.7108345 15.233341 44.752548
14.669826 25.212414 33.483494
0.10885757 10.207177 39.856255
5.4106331 15.599489 45.427044
21.919788 21.172329 40.229748
20.736141 15.346096 45.427101
2.7308021 11.390085 39.750824
0.77584219 19.948151 42.235981
8.7973318 14.821785 39.738907
23.328194 5.3965263 39.752495
2.1362886 21.593403 39.494705
22.805656 15.696383 45.427101
23.114792 15.229404 43.358707
11.740311 5.9700232 39.752499
18.207188 16.334038 45.468891
9.374424 8.857851 39.752499
22.338303 22.275133 38.388252
12.83503 15.223577 41.275486
13.054233 14.221944 39.752499
19.649464 17.231079 46.566299
7.0996723 16.679077 46.547581
14.689374 5.7049713 39.752499
11.657482 20.94754 40.604881
5.3228545 16.409737 45.823353
16.825098 12.789427 39.752499
4.7046938 16.511557 46.296925
3.6620007 17.188017 46.535938
0.42413712 18.182892 45.180962
19.075962 2.7775168 39.752499
22.65539 17.689949 46.044731
21.995293 22.303833 38.340328
9.3588963 5.6942201 39.752499
5.4845834 15.234145 45.044182
18.412474 16.438164 45.956451
21.524664 19.371618 43.236626
14.529594 11.127551 39.752499
21.150084 15.227634 42.726952
4.1343527 6.0437298 39.752499
3.4501109 24.867453 34.034859
2.9711223 24.509605 34.63047
10.680285 7.2819428 39.752499
12.557055 21.51247 39.66177
14.862629 16.56142 46.533615
18.958546 15.22099 40.35582
20.990177 10.910975 39.752499
23.016685 15.224739 41.693535
21.405107 19.632151 42.801582
20.616282 15.224319 41.543709
-0.18920469 14.318976 39.713249
11.349732 9.404233 39.752499
3.5133471 15.234318 45.107342
5.5577621 19.905643 42.32312
6.6913972 4.8743873 39.752499
10.936571 16.00046 45.427025
13.111059 7.3602347 39.752502
14.669842 21.132797 40.295761
6.5809469 19.652424 42.749203
3.503726 20.190804 41.84024
20.600077 15.220211 40.077579
-0.78791428 15.233123 44.67347
12.835444 3.3951454 39.752499
17.697809 21.041416 40.448349
18.028902 20.578939 41.220604
13.327368 17.276407 46.566299
6.9628196 8.8907728 39.752499
14.359408 19.668369 42.741108
17.559526 15.229845 43.515842
0.89244604 22.545794 37.900982
16.019613 18.20141 45.190674
7.7454448 9.6999369 39.752499
2.2625604 19.947962 42.241333
