# .PCD v0.7 - Point Cloud Data file format
VERSION 0.7
FIELDS x y z
SIZE 4 4 4
TYPE F F F
COUNT 1 1 1
WIDTH 1511
HEIGHT 1
VIEWPOINT 0 0 0 1 0 0 0
POINTS 1511
DATA ascii
21.723761 -16.246475 -38.529762
32.835377 -12.025201 -29.978001
23.017113 -11.148793 -32.555103
28.006075 -19.035194 -29.978001
21.932779 -11.083357 -32.444515
31.361288 -14.973934 -30.699837
17.855013 -14.225644 -35.9454
16.209002 -3.0309169 -29.978001
23.977581 -12.633017 -33.654373
30.391666 -16.982063 -29.978001
21.286554 -10.792839 -30.974672
11.228354 -16.151094 -33.442669
17.267344 -5.42805 -29.978001
16.605171 -19.441334 -30.110371
18.173546 -10.398619 -31.325102
25.359758 -0.49953699 -29.978001
24.640585 -10.814257 -32.014984
31.768799 -14.656571 -35.407909
15.894732 -10.990866 -29.978001
22.71838 -22.92626 -29.996498
18.965004 -14.8915 -29.978001
18.045061 -24.960808 -29.9965
11.530168 -19.829325 -29.978001
24.290453 -11.91221 -29.978001
14.469484 -16.157545 -38.127113
26.6723 -2.7353654 -29.977999
23.453793 -24.111156 -29.996502
14.432373 -23.61483 -29.978001
21.55019 -6.2724791 -29.978001
30.862106 -18.447571 -29.978001
19.288847 -11.636363 -33.337494
28.786068 -16.623997 -29.978001
21.480101 -20.570297 -29.9965
22.674021 -11.600775 -33.291355
15.92417 -12.598299 -33.583359
12.27221 -13.456419 -29.978001
22.260399 -9.7919874 -30.339556
14.822373 -12.296074 -31.890697
22.832651 -8.776268 -29.978001
32.344559 -5.7833791 -29.978001
16.179605 -4.7464142 -29.978001
27.816317 -26.589464 -29.978001
15.339972 -20.89591 -29.978001
14.345554 -16.508974 -38.504173
21.091711 -1.3788613 -29.978001
28.460569 -24.3188 -29.978001
15.286448 -7.71348 -29.978001
14.218399 -16.651899 -38.405388
14.619205 -14.074003 -35.715286
28.110178 -15.146365 -29.978001
15.157325 -12.352632 -32.942348
12.793915 -16.651899 -38.128685
20.821699 -12.060118 -32.811913
31.769491 -14.652162 -31.092644
19.389139 -16.598269 -38.521667
22.551325 -16.651899 -38.178513
34.056828 -14.140666 -29.978001
21.935059 -14.467825 -29.978001
26.852461 -15.144211 -37.309658
27.187813 -24.367693 -30.022717
20.983337 -6.1591954 -29.978001
11.020061 -15.041829 -34.166203
14.663817 -23.049799 -29.978001
21.257547 -9.7971039 -29.978001
17.377796 -11.804268 -33.608742
30.691109 -11.058654 -29.978001
15.343542 -15.793344 -29.978001
29.790627 -13.284332 -30.946911
31.807251 -14.683492 -35.711178
21.99847 -5.9080477 -29.978001
24.911915 -12.037742 -32.793427
27.73362 -25.668034 -29.978001
29.231203 -14.302675 -37.722927
19.562754 -3.6068552 -29.978001
27.846886 -24.647766 -29.978001
17.504004 -12.485526 -33.420292
18.875784 -5.2154946 -29.978001
22.924809 -16.10437 -38.155952
11.033338 -15.352571 -37.200226
16.238674 -14.163817 -37.450592
27.051657 -13.881767 -35.47768
23.009081 -11.972178 -33.898521
11.613275 -14.51964 -32.61087
24.389536 -14.465232 -37.9711
31.820194 -15.846952 -36.912563
12.779363 -16.166254 -29.978001
14.785072 -12.338416 -31.384262
36.738281 -13.332709 -29.978001
15.536618 -25.507095 -29.978001
32.10006 -18.572304 -29.978001
23.988892 -2.7718523 -29.978001
23.226025 -21.225201 -29.996502
14.922788 -23.744715 -29.978001
33.544643 -16.483028 -29.978001
14.890259 -15.406399 -38.779224
21.817406 -18.831802 -29.996498
16.648294 -10.151464 -30.365023
13.061014 -13.900265 -30.40646
35.059895 -15.541189 -29.978001
36.10688 -15.677614 -29.978001
21.549948 -12.013247 -33.960392
30.680588 -9.8551226 -29.978001
24.798025 -13.06274 -35.684212
29.923672 -11.760303 -29.978001
28.10128 -13.050045 -34.071449
15.191563 -24.176855 -29.978001
13.156332 -13.188159 -34.105331
31.808147 -15.146786 -29.978001
23.336769 -12.935946 -35.472179
22.96273 -14.008742 -37.221256
16.178497 -9.6241989 -29.978001
12.388985 -13.850475 -33.400105
14.002378 -13.554951 -36.452938
17.104507 -21.238369 -29.9965
17.200048 -13.735076 -36.754436
15.278229 -22.610531 -29.978001
11.614392 -14.521324 -33.158855
15.637682 -18.652008 -30.029768
36.927094 -13.11924 -29.978001
13.505439 -13.501788 -30.423885
27.178997 -7.0405083 -29.978001
19.88439 -23.879173 -29.9965
18.211454 -10.111653 -29.978001
30.847729 -23.001541 -29.978001
11.702139 -14.453249 -34.821556
24.503283 -13.162329 -29.977999
23.359348 -14.840541 -38.579834
13.394408 -11.441017 -29.978001
23.448687 -26.386652 -29.996502
17.838631 -8.1036224 -29.978001
27.287106 -7.4710665 -29.978001
33.125774 -8.7562618 -29.978001
31.394897 -8.5124617 -29.978001
15.734533 -13.797729 -35.316948
20.927723 -17.60235 -30.157372
11.249653 -15.879869 -30.201088
23.897764 -15.420047 -29.978001
31.61285 -25.758795 -29.978001
19.085533 -11.594391 -32.132805
20.118771 -15.282885 -29.978001
31.181335 -7.4535394 -29.978001
38.596359 -21.891491 -29.978001
25.560484 -14.721589 -38.393501
18.972719 -11.31954 -29.978001
24.198385 -2.3400774 -29.978001
27.265444 -4.2438126 -29.978001
31.924658 -16.577061 -34.034134
19.998632 -2.2991335 -29.978001
31.115273 -16.651899 -38.063969
32.573524 -24.615191 -29.978001
35.608528 -23.972527 -29.978001
14.652975 -12.90683 -35.399986
30.653652 -14.925326 -29.978001
19.388376 -10.153271 -30.050943
28.622715 -13.044791 -29.978001
23.204943 -10.27615 -31.131941
37.233124 -19.142376 -29.978001
25.056305 -7.8738575 -29.978001
20.947903 -5.9064603 -29.978001
14.104971 -24.063334 -29.978001
15.296011 -14.118929 -37.374027
14.182086 -22.278339 -29.978001
32.190567 -15.406399 -35.228439
27.363443 -12.516834 -33.274113
24.052269 -8.8218794 -29.978001
19.404631 -15.132661 -37.267399
14.238735 -12.830164 -31.255219
16.314617 -6.3137865 -29.978001
21.012146 -22.413107 -29.996498
21.563946 -21.079599 -29.996498
17.442238 -17.71385 -30.205084
21.062099 -15.880122 -38.52747
16.625671 -12.510145 -29.978001
27.183777 -20.163319 -30.026953
19.428551 -10.604793 -30.703205
14.451455 -13.542938 -34.922802
31.8822 -16.242039 -32.301277
31.964062 -15.590467 -35.642349
29.060991 -16.651897 -38.442516
14.152832 -12.956301 -33.220348
25.176582 -13.401002 -29.978001
31.796928 -11.648238 -29.978001
20.885891 -10.865534 -32.085419
11.650928 -19.067699 -29.978001
26.962467 -16.651899 -38.37925
36.425304 -21.065744 -29.978001
31.243687 -14.529619 -37.169598
22.359375 -21.542702 -29.996498
26.654251 -10.483264 -29.978001
27.917917 -12.762618 -33.39571
26.23444 -11.634638 -31.920404
12.486734 -13.85137 -29.978001
29.781509 -17.994457 -29.978001
30.947372 -24.347042 -29.978001
29.990824 -15.244889 -38.936794
22.644655 -10.890683 -32.132652
26.039827 -15.114614 -29.978001
14.178106 -12.285391 -30.73815
22.061325 -14.587123 -36.484547
13.264605 -14.836535 -29.978001
27.918211 -23.59581 -29.978001
30.582842 -13.83566 -34.299606
29.433634 -13.948554 -35.174126
29.310371 -13.955923 -37.15744
18.908335 -15.290443 -38.897781
14.427468 -7.6637306 -29.978001
30.687565 -1.6024566 -29.978001
25.863834 -6.0198431 -29.978001
35.269741 -4.8939528 -29.978001
16.992283 -6.4712992 -29.978001
17.764498 -13.284208 -34.57843
18.37505 -6.1156373 -29.978001
21.91188 -4.919075 -29.978001
23.840372 -10.949271 -29.978001
15.252987 -18.950537 -29.978001
22.339535 -10.92392 -29.978001
15.574105 -26.049171 -29.978001
19.082247 -24.799446 -29.9965
24.288692 -22.674763 -29.996498
17.808664 -7.167613 -29.978001
24.237759 -9.5189285 -29.978001
27.168289 -9.4371042 -29.978001
21.019014 -7.4338818 -29.978001
18.407955 -15.406401 -38.72155
11.401415 -15.452868 -35.344837
17.196108 -16.651899 -38.4459
25.29887 -9.5006418 -29.978001
27.719906 -26.538626 -29.978001
23.881189 -10.512899 -30.544451
22.576471 -7.6317596 -29.978001
27.809963 -12.453799 -32.015076
21.393637 -11.485016 -31.979008
24.827709 -11.056679 -31.284563
21.033478 -13.14712 -34.390614
19.764559 -11.943332 -29.978001
35.600037 -10.959217 -29.978001
15.976102 -20.896519 -30.205101
22.946945 -7.267673 -29.978001
31.227831 -10.493496 -29.978001
15.140854 -15.663849 -38.506935
30.533512 -22.758841 -29.978001
27.393566 -12.898468 -29.978001
18.295044 -12.172831 -32.968494
34.067123 -23.127304 -29.978001
20.417574 -16.088524 -38.525234
12.08298 -14.11422 -33.041294
24.242031 -14.690121 -36.641533
11.518028 -16.656021 -29.978001
22.74408 -11.121613 -31.456085
31.363628 -13.058125 -29.978001
17.190163 -14.943493 -36.985207
23.703148 -11.670373 -33.408539
17.933458 -4.8646574 -29.978001
31.562452 -20.316477 -29.978001
28.606186 -3.9086046 -29.978001
26.452408 -12.84129 -35.328716
21.682163 -16.015331 -29.978001
15.241233 -13.596648 -36.521671
10.076528 -23.900942 -29.978001
31.273008 -14.502868 -37.03384
27.875072 -10.524683 -29.978001
31.682463 -14.594663 -33.432491
28.240938 -14.371043 -37.83099
15.544867 -15.4064 -38.568581
23.300486 -23.740685 -29.996498
26.64769 -12.670907 -29.978001
23.188929 -11.75736 -33.548656
32.451218 -9.7245235 -29.978001
32.791325 -2.213547 -29.978001
27.25712 -24.599327 -29.978001
23.307442 1.6604748 -29.978001
20.265726 -3.5043249 -29.978001
25.749054 -15.262744 -29.978001
15.771553 -23.901878 -30.170389
19.569553 -5.784936 -29.978001
24.369047 -11.022459 -31.317707
12.050053 -21.56699 -29.977999
21.691862 -16.128361 -38.151749
22.96394 -11.761539 -32.385807
15.561366 -12.760736 -35.162643
28.145885 -13.329685 -34.618431
29.135948 -25.72102 -29.978001
21.006523 -13.96497 -35.577774
15.103515 -13.586216 -36.504166
27.902563 -13.74452 -36.807552
23.475487 -12.980441 -34.157005
22.239208 -10.689124 -30.826525
16.496178 -16.043779 -38.511635
20.921967 -15.010012 -37.094543
11.773943 -16.358208 -37.805779
12.810989 -19.894888 -29.978001
23.266815 -16.130911 -38.157124
33.991592 -3.8140545 -29.978001
26.732777 -12.194582 -34.274517
15.628518 -11.598222 -31.441963
15.97349 -19.544106 -30.205101
28.422245 -12.396891 -33.714741
23.239166 -12.699287 -33.748051
10.616659 -17.42597 -29.978003
29.293276 -13.523294 -30.523428
18.969772 -15.14653 -37.286041
21.30131 -5.4390259 -29.978001
26.569128 -22.851635 -30.205
13.227981 -22.164408 -29.978001
38.167171 -18.051214 -29.977999
20.452911 -8.0551367 -29.978001
26.51318 -11.56716 -30.620491
18.438778 -13.16906 -35.835278
10.860293 -22.805862 -29.978001
28.735867 -25.216637 -29.978001
19.971651 -11.057365 -32.395313
29.572834 -10.530976 -29.978001
12.66453 -13.614143 -33.962582
14.448977 -13.035585 -33.886288
32.113548 -16.22229 -32.879169
37.597523 -15.69704 -29.978001
17.32885 -0.83604276 -29.978001
25.360964 -14.218765 -35.961105
17.707111 -1.0249656 -29.978001
30.600338 -21.602613 -29.978001
13.509967 -15.990808 -29.978001
11.840824 -14.311754 -30.448463
28.094286 -2.9389327 -29.978003
17.452137 -10.687265 -31.794041
20.841383 -13.944736 -29.978001
29.574064 -14.306636 -37.730602
16.092701 -11.186428 -30.275198
17.036791 -12.876376 -35.352791
16.921932 -10.16658 -30.562565
22.264099 -9.8848095 -29.978001
34.62236 -17.457008 -29.978001
27.054577 -22.9681 -30.162607
25.457611 -13.582383 -35.037617
32.820652 -6.3682842 -29.978001
31.9091 -16.098734 -33.399117
27.875916 -15.406399 -38.70121
25.350111 -14.995708 -38.840015
19.698502 -16.328182 -29.978001
32.229424 -14.971455 -32.345863
33.160416 -7.8862562 -29.978001
32.060295 -16.651899 -32.217258
29.470058 -16.651899 -38.326595
10.51165 -22.020393 -29.978001
26.817869 -21.892614 -30.205
16.883505 -14.773336 -29.978001
24.205843 -27.583815 -29.996502
11.208031 -15.773165 -36.54406
14.055619 -25.083294 -29.978001
17.57905 -3.7670178 -29.978001
32.728081 -14.680694 -29.978001
30.894331 -14.640147 -31.007792
19.199858 -10.932965 -32.193211
26.934891 -24.00025 -30.204998
27.39036 -25.3859 -29.978001
31.875662 -3.2725937 -29.978001
24.500128 -4.7758417 -29.977999
26.074133 -15.247344 -37.456707
30.552462 -13.810867 -30.949774
15.74403 -18.732798 -30.141476
20.961447 -1.9954052 -29.978001
20.972643 -4.3052583 -29.978001
15.969147 -13.180096 -35.844582
26.57136 -6.1072235 -29.978001
31.332844 -15.535023 -38.235157
29.54475 -13.115009 -31.486057
26.375662 -13.097193 -29.978001
13.758492 -16.580938 -29.978001
28.816193 -25.49309 -29.978001
16.43272 -12.611088 -34.919518
18.010574 -21.7402 -29.9965
25.954916 -15.363382 -38.922592
19.08255 -14.468691 -37.958046
27.863865 -0.65571153 -29.978001
30.37356 -14.225317 -33.726711
35.779179 -7.3895249 -29.978001
15.435623 -16.12532 -29.978001
21.253736 -6.488296 -29.978001
21.57065 -24.680126 -29.996498
37.683804 -22.818331 -29.978001
15.141684 -25.655972 -29.978001
11.026007 -15.055996 -35.886757
28.591349 -13.701652 -29.978001
32.861977 -19.066063 -29.978001
18.910301 -13.340124 -36.116051
26.209463 -16.630909 -29.978001
30.804516 -9.9776793 -29.978001
21.489017 -13.221049 -35.930847
13.589088 -9.5285854 -29.978001
23.707262 -2.2496274 -29.977999
33.40567 -17.085472 -29.978001
24.741673 -20.942991 -29.996502
27.195444 -11.915968 -33.591667
13.865007 -24.430387 -29.978001
11.453201 -16.474833 -32.762142
18.878181 -14.99587 -37.067017
24.462658 -20.945295 -29.9965
14.422176 -15.979775 -29.978001
15.124762 -14.450191 -29.978001
24.418789 -16.651899 -38.234776
18.713984 -15.4064 -38.698097
24.506126 -15.337906 -37.582809
30.405109 -14.654249 -36.131676
26.056438 -13.883607 -35.476944
12.474769 -14.967253 -36.599194
25.05337 -14.982205 -38.816944
31.990723 -14.809999 -35.44949
15.857807 -21.836861 -30.205099
27.375589 -26.633091 -29.978001
15.009819 -11.297375 -29.978001
19.0868 -11.798944 -33.602058
16.49839 -25.018433 -30.205097
31.498386 -20.714729 -29.978001
31.84807 -10.034866 -29.978001
31.743088 -17.792698 -29.978001
15.062933 -12.199211 -32.357533
16.316502 -17.993258 -30.205099
35.106392 -22.259449 -29.978001
14.028683 -13.147781 -33.594479
24.636452 -14.164154 -35.879349
14.727829 -15.828674 -29.978001
23.405418 -15.042095 -37.14962
27.51545 -9.0389948 -29.978001
17.821238 -25.532988 -29.9965
29.641464 -13.503166 -35.855759
24.003544 -14.593653 -29.978001
19.175457 -7.682663 -29.978001
14.48015 -15.406399 -38.757637
25.537613 -3.4856815 -29.978001
20.183342 -27.63133 -29.996502
13.159671 -21.375458 -29.978001
17.685516 -14.148362 -37.430473
25.55686 -10.671768 -29.978001
12.632192 -13.635892 -32.659824
14.933971 -15.143188 -38.883759
32.503925 -18.009483 -29.978001
26.389708 1.4597504 -29.978001
16.426678 -11.213477 -31.277462
17.402157 -7.0601478 -29.978001
27.092701 -12.86386 -34.000149
29.164459 -8.2646046 -29.978001
11.395294 -16.356035 -35.65007
21.898903 -15.399711 -38.092285
12.122433 -14.089977 -35.103645
16.410997 -25.071314 -30.205101
27.025797 -11.373064 -30.595263
34.088718 -13.630899 -29.978001
20.650188 -26.002796 -29.9965
11.595116 -15.166077 -33.103161
12.306152 -15.640127 -29.978001
16.079903 -12.052534 -34.012081
13.63672 -16.533344 -38.124271
27.703087 -12.987041 -34.094265
19.304272 -20.575729 -29.9965
21.594635 -3.5043747 -29.978001
25.146318 -16.545967 -38.541637
21.704941 -15.513115 -29.978001
12.071922 -15.4064 -38.58754
20.814629 -22.530508 -29.9965
28.799932 -12.599536 -30.862059
30.629154 -23.860241 -29.978001
24.973946 -15.4064 -38.901394
21.082891 -8.5120859 -29.978001
28.757622 -11.067398 -29.978001
16.372725 -5.6993375 -29.978001
18.216217 -16.599846 -38.139893
36.077972 -24.644629 -29.978001
13.787615 -24.421082 -29.978001
9.6861439 -20.872124 -29.978001
20.629572 -12.822727 -33.918316
35.428764 -8.7262802 -29.978001
28.848322 -22.067165 -29.978001
20.037735 -2.3717129 -29.978001
23.753908 -14.702392 -36.657669
25.014565 -12.45628 -34.695457
30.68425 -1.892877 -29.978001
27.592274 -15.406399 -38.717567
17.17202 -0.5255022 -29.978001
20.29377 -25.868782 -29.9965
32.123867 -16.01494 -33.840763
18.795507 -15.543312 -38.141869
20.01836 -12.50812 -33.459515
20.180073 1.4329419 -29.978001
21.665783 -0.03065443 -29.978001
16.391478 -8.0149345 -29.978001
23.745598 -1.9488878 -29.978001
22.463667 -27.692068 -29.9965
25.8253 -15.441238 -29.978001
29.960365 0.23606634 -29.978001
11.219687 -16.370144 -34.765488
29.092886 -6.824419 -29.978001
31.418699 -7.2061977 -29.978001
13.023141 -19.813564 -29.978001
22.369329 -10.558129 -29.978001
18.412275 -15.501499 -38.140564
33.054951 -0.85523558 -29.978001
27.374626 -14.553428 -29.978001
25.910751 -18.390884 -30.154602
27.606783 -25.449272 -29.978001
31.927177 -14.764443 -34.005367
19.747746 -13.657164 -35.126625
20.567112 -13.102419 -34.324123
13.600006 -13.222914 -35.441624
23.675852 -13.180778 -29.978001
29.752426 -15.517942 -29.978001
17.611557 -9.2813368 -29.978001
38.599388 -21.072567 -29.978001
27.729477 -16.652046 -29.978001
28.672054 -13.144307 -33.582458
29.211666 -24.54534 -29.978001
23.293798 -14.394448 -37.851746
34.805679 -18.144508 -29.978001
24.501202 -15.015299 -37.114468
31.406208 -11.070988 -29.978001
30.160082 -16.480995 -38.180637
35.848991 -11.170394 -29.978001
27.945322 -12.651107 -32.982422
17.862118 -22.222939 -29.9965
11.951256 -17.214977 -29.978001
29.363115 -15.65377 -38.177917
21.692154 -15.840601 -38.529655
19.136583 -15.288401 -29.978001
25.869389 -13.905123 -35.507534
27.715105 -19.586575 -29.978001
24.028927 -10.965439 -31.233768
20.083668 -20.684856 -29.9965
37.622658 -19.395084 -29.978001
15.90348 -11.684404 -29.978001
28.17651 -13.164679 -35.862434
25.301355 0.54166269 -29.978001
22.162838 -21.688551 -29.9965
30.551876 -12.448786 -29.978001
11.22444 -15.880823 -34.04044
11.619928 -15.236674 -36.125523
32.184029 -0.42105603 -29.978001
31.866611 -16.501974 -31.665016
27.246811 -1.5964304 -29.978001
15.54541 -8.5798788 -29.978001
13.188602 -13.140734 -30.092283
12.380428 -15.13708 -36.954197
29.484777 -6.0303063 -29.978001
11.670193 -16.507235 -37.028664
17.995394 -4.681673 -29.978001
28.393158 -25.183735 -29.978001
16.857456 -12.981695 -35.523998
25.245781 -11.230957 -32.697014
22.172842 -11.623922 -32.183323
17.585567 -11.085976 -29.978001
28.388462 -19.536427 -29.978001
13.215315 -13.708302 -33.455215
21.080936 -13.557927 -36.479069
17.349117 -14.1831 -29.978003
16.516006 -12.185242 -29.978001
35.240616 -15.304744 -29.978001
19.609701 -13.478961 -34.867462
28.440426 -12.923864 -30.516724
16.800606 -12.708898 -33.743046
14.959663 -7.8238845 -29.978001
12.952072 -13.354935 -31.949657
18.249804 -15.759558 -38.140007
24.183399 -11.208106 -29.978001
36.885555 -22.444824 -29.978001
11.42333 -18.569149 -29.978001
17.420261 -15.290434 -38.892548
29.81139 -24.654112 -29.978001
14.327809 -12.783112 -35.021008
21.980381 -28.121258 -29.996502
26.154737 -16.141449 -38.545132
28.094046 -10.513248 -29.978001
30.207893 -22.007469 -29.978001
15.302962 -12.631309 -33.52359
14.020092 -13.905867 -37.023041
25.639067 -0.14254451 -29.978001
23.203007 -20.577225 -29.996498
36.183167 -20.140848 -29.978001
30.877638 -14.838391 -29.978001
20.541517 -6.3576274 -29.978001
16.433445 -6.0381556 -29.978001
33.491085 -23.589611 -29.978001
15.91749 -11.625362 -31.866222
25.323505 -12.00708 -32.750328
17.526754 -15.782912 -29.978001
21.675631 -12.066547 -34.047798
28.364902 -18.414764 -29.978001
23.19673 -15.400963 -38.107979
31.140751 -4.4174643 -29.978001
22.005136 -12.126957 -29.978001
20.816021 -9.976326 -29.978001
8.883522 -21.658045 -29.978001
18.303059 -4.2451496 -29.978001
29.762608 -9.0068188 -29.978003
36.455566 -14.52698 -29.978001
27.011307 -14.020934 -29.978001
32.201508 -14.955469 -35.264774
11.251274 -16.274628 -29.949415
31.269205 -14.852363 -33.871258
25.990643 -0.19375777 -29.978001
16.283348 -12.889568 -35.371944
25.365826 -10.226416 -30.46303
19.430983 -15.13286 -29.978001
32.821873 -6.9975233 -29.978001
21.267651 -2.6503201 -29.978001
25.454727 -3.1986592 -29.978001
23.809916 -11.572255 -32.113918
11.224428 -14.856108 -32.427528
20.944565 -7.400557 -29.978001
23.707645 -13.472101 -36.348289
24.937222 -11.421574 -33.006939
38.874561 -21.280113 -29.978001
30.485271 -22.151396 -29.978001
13.71941 -13.260449 -33.240963
20.440571 -12.693571 -35.066513
12.644209 -14.242215 -32.192608
31.688875 -19.973745 -29.978001
19.283846 -0.87172234 -29.978001
18.287739 -10.361164 -29.978001
14.17407 -12.42889 -33.818943
17.051331 -14.269526 -36.006351
27.970692 -12.579127 -31.326626
18.652498 -1.7954521 -29.978001
23.572929 -9.7883863 -30.316689
21.068724 -0.48433435 -29.978001
12.327676 -15.200867 -38.874607
26.350445 -25.884167 -30.205002
29.625645 -16.025845 -38.178814
25.343193 -20.768007 -29.9965
25.544882 -10.392849 -30.791376
23.093102 -20.141338 -29.9965
30.877483 -1.8334881 -29.978001
34.938953 -22.5742 -29.978001
15.509255 -11.510957 -29.978001
28.095556 -16.239414 -38.551865
16.049707 -11.218264 -30.654404
26.352297 -16.051565 -38.167648
21.105877 -21.919086 -29.996498
23.577391 -12.183365 -34.245102
10.825614 -18.386318 -29.978001
20.138599 1.371937 -29.978001
31.910275 -16.23344 -33.447098
23.110241 -14.027129 -37.251774
22.042648 -14.41402 -37.879272
28.528233 -14.347042 -37.792835
30.536629 -19.281151 -29.978001
12.03861 -14.753635 -33.960293
15.928125 -14.109938 -35.77084
30.340481 -1.4699364 -29.978001
28.727238 -12.473258 -29.977999
13.368923 -12.983801 -29.991188
28.506886 -14.488854 -29.978001
24.127594 -12.197747 -29.978001
35.714447 -14.077135 -29.978001
21.634537 -18.149345 -30.205046
28.800133 -13.74798 -35.215538
24.98354 -10.868177 -29.978001
22.053068 -25.33762 -29.996498
11.783134 -17.097788 -29.978001
19.098499 -26.20142 -29.9965
34.826336 -8.4964199 -29.978003
12.822279 -24.363316 -29.978001
19.41081 -12.268621 -33.10976
24.074242 -26.231951 -29.996498
36.230793 -20.577143 -29.978001
32.14542 -6.8561172 -29.978001
24.156048 -14.891193 -36.933125
24.067188 -1.2920771 -29.978001
14.439145 -14.978776 -38.773952
15.38201 -5.4331741 -29.978001
26.031755 -16.374126 -29.978003
26.880585 -2.2116847 -29.978001
27.45006 -12.235532 -30.076426
21.746008 -12.363209 -33.255066
15.341381 -25.024063 -29.978001
24.850014 -26.615471 -29.9965
17.270018 -18.396309 -30.170475
19.101013 -13.064096 -34.263474
24.604927 -12.183971 -29.978001
30.034756 -15.473454 -29.978001
16.762297 -12.547795 -33.510319
24.487495 -13.729708 -35.248161
27.789927 -22.044777 -29.978001
16.561031 -17.849798 -30.205093
15.868767 -11.373194 -31.061829
11.469936 -14.638235 -31.420322
30.006145 -16.761816 -29.978001
31.697001 -24.129528 -29.978001
28.297297 -15.393845 -38.93084
16.312231 -3.5585632 -29.978001
17.297049 -1.8122392 -29.978001
24.063938 -5.8852057 -29.978001
20.017588 -6.803452 -29.978001
29.172615 -10.890086 -29.978001
15.060266 -13.92649 -29.978001
18.981544 -10.396448 -31.321575
21.471117 -12.515757 -34.780022
34.581146 -18.470522 -29.977999
26.011127 -16.338659 -29.978001
18.7306 -15.627098 -38.519382
17.595093 -16.689234 -29.977999
29.213827 -13.739373 -34.791603
21.618589 -16.860701 -29.978001
22.257711 -14.009327 -37.219727
29.131414 -20.885025 -29.978001
27.265963 -11.540623 -31.980534
27.661442 -5.3625002 -29.978001
29.194921 -19.357616 -29.978001
12.681557 -15.406401 -38.767479
32.17321 -23.166544 -29.978001
27.481365 -7.187582 -29.977999
37.714714 -18.24287 -29.978001
23.476337 -14.733759 -38.406017
15.018706 -12.442326 -32.999287
20.572754 -7.7190371 -29.978001
32.094368 -3.7605348 -29.978001
23.897457 2.1786504 -29.978001
14.473017 -12.64068 -30.096653
27.338493 -0.34907901 -29.978003
28.982557 -6.6671424 -29.978001
14.372645 -14.348021 -37.744568
22.194263 -18.056246 -30.20504
33.087257 -21.439163 -29.978001
14.098606 -10.857217 -29.978001
28.940573 -14.569515 -38.157284
22.088036 -14.151034 -35.851578
31.39645 -15.320127 -38.760117
11.01861 -15.17635 -34.561295
20.585754 -10.155759 -29.978001
14.614021 -16.258476 -29.978001
25.685539 -8.4489861 -29.978001
18.286007 -0.9151758 -29.978001
19.67606 -24.706821 -29.9965
22.87117 -20.952032 -29.996498
21.626192 -26.163044 -29.9965
11.729528 -20.004547 -29.978001
29.074995 -12.792636 -33.506969
21.570065 -11.859465 -29.978001
19.839815 1.6373715 -29.978001
29.186813 -21.177711 -29.978001
20.719501 -11.044399 -32.376675
29.952499 -14.476081 -38.0084
30.685522 -14.469193 -32.355991
26.566349 -12.735867 -33.812542
27.539074 -9.215312 -29.978001
21.981731 -15.213419 -37.393456
23.8708 -9.9227419 -30.494106
30.176159 -24.255259 -29.978001
31.132051 -4.366096 -29.978001
21.197027 -16.192032 -29.978001
20.286003 -13.987742 -37.177563
25.113945 -16.441454 -38.541523
11.510862 -15.651518 -29.886509
21.881941 -10.481061 -30.52422
20.584583 -13.912838 -29.978001
31.833813 -16.451532 -30.326366
25.171314 -10.981746 -31.004196
20.995792 -15.455616 -38.527241
37.650002 -17.734514 -29.978001
23.722387 -10.854603 -32.077579
23.754017 -11.25812 -29.978001
29.159874 -14.665828 -36.623096
20.33997 -13.050333 -34.247734
19.071413 -2.8441484 -29.978001
25.040577 -15.353868 -37.690697
22.144806 -16.229511 -38.531223
25.810532 -14.84839 -29.978001
25.284922 -11.061235 -31.121698
21.623919 -14.011183 -35.646973
28.13628 -16.651899 -38.205704
27.228146 -23.412403 -29.980366
21.131664 -27.346655 -29.9965
23.252878 -26.7542 -29.996498
25.316406 -2.2556627 -29.978001
29.298843 -12.948197 -34.259834
22.472057 -4.8490424 -29.978001
16.377832 -8.8837509 -29.978001
26.469385 -14.938526 -38.750668
19.178896 -5.1275859 -29.978001
35.027252 -17.139137 -29.978001
16.219875 -18.687204 -30.205099
17.689449 -10.351377 -31.248352
23.923223 -13.907414 -37.059311
26.973827 -19.361092 -30.205
25.878881 -3.8352194 -29.978001
17.885902 0.033244133 -29.978001
11.196166 -17.009144 -29.978001
17.583035 -12.99745 -34.16153
22.363218 -15.80044 -38.154037
12.057117 -15.65477 -29.978001
19.035221 1.2830777 -29.978001
18.643789 -16.692587 -29.978001
14.58254 -14.62413 -29.978001
34.128757 -3.8576899 -29.978001
25.355028 -13.77257 -36.844341
28.708843 -13.119802 -30.112692
27.557964 -26.237749 -29.978001
23.596439 -13.464988 -29.978001
30.308371 -13.644876 -33.340088
22.872139 -22.726082 -29.9965
30.880074 -9.4922485 -29.978001
17.546858 -22.601315 -29.9965
11.054881 -15.017509 -35.382679
26.078968 -12.410362 -33.338345
28.200779 -13.015595 -35.61927
31.266272 -22.097248 -29.978001
19.035858 -7.370914 -29.978001
31.477869 -16.352392 -38.026825
12.118378 -14.372038 -36.846191
25.127548 -14.718377 -38.386738
18.229137 -12.616289 -34.932629
29.530525 -13.108028 -34.000835
24.858229 -14.21298 -35.950985
14.83322 -13.724596 -35.21051
20.152496 1.5525906 -29.978001
24.95591 -12.54172 -34.83466
21.118023 -14.569832 -36.456215
22.365622 -15.011953 -29.978001
31.319588 -4.3431883 -29.977999
29.283495 -25.762981 -29.978001
29.759682 -6.8738861 -29.978001
11.233329 -16.129189 -32.683903
24.063307 -1.246501 -29.978001
20.761532 -3.2864509 -29.978001
19.116497 -22.065834 -29.9965
14.050652 -12.988536 -31.830578
33.962688 -18.313343 -29.978001
15.308213 -25.742867 -29.978001
12.18368 -16.592133 -38.403507
17.751724 -15.307366 -38.893719
35.529018 -9.2575197 -29.978001
11.303984 -20.641562 -29.978001
23.577679 -9.8184566 -30.382734
25.27737 1.9017079 -29.978001
23.516758 -14.718185 -36.679787
31.549229 -16.186253 -37.92432
22.185497 -15.24486 -37.439789
21.399673 -16.651899 -38.440651
19.116743 -10.275535 -31.125137
29.695713 -1.3237075 -29.978001
23.051849 -4.7466946 -29.978001
22.208838 -10.638711 -29.978001
31.129135 -14.769939 -38.176609
28.762272 -6.322907 -29.978001
32.235577 -14.975121 -31.825138
27.401184 -7.8147392 -29.978001
13.474079 -13.47649 -33.454288
19.609219 -26.72805 -29.996502
17.444408 -0.49871111 -29.978001
33.049156 -4.4201536 -29.978001
31.526823 -4.0290389 -29.978001
14.192411 -12.881239 -30.712002
20.834661 -5.9863815 -29.978001
25.509068 -15.401075 -38.116867
30.438229 -13.73403 -32.815571
20.919456 -9.1597071 -29.978001
19.940792 -12.721071 -33.768387
22.784954 -9.8012486 -30.355604
29.809803 -24.744932 -29.978001
18.633604 -11.571928 -33.231285
31.29129 -16.241213 -29.978001
27.941065 -4.2164845 -29.977999
16.075636 -18.492142 -30.205099
30.0215 -14.028721 -30.886713
16.062229 -11.355626 -31.374411
30.210606 -4.7111692 -29.978001
31.519922 -19.19813 -29.978001
13.920721 -13.784306 -36.82555
11.470363 -15.261808 -34.013313
32.523472 -22.964584 -29.978001
29.93367 -1.2508821 -29.978001
21.109243 -0.92033947 -29.978001
31.610487 -4.7023554 -29.978001
18.565498 -14.664768 -29.978001
25.520884 -27.206909 -29.9965
22.188898 -18.909809 -29.996498
33.006474 -1.2654659 -29.978001
12.463905 -14.415666 -31.516489
19.183367 -14.772016 -38.453316
26.657036 -18.971136 -30.204998
21.122913 -3.7055185 -29.978001
27.886358 -6.3156667 -29.978001
23.622774 -11.808662 -32.456467
31.509256 -1.4436784 -29.978001
27.831739 -17.747309 -29.978001
18.338224 -21.693705 -29.996502
27.719902 -16.012577 -38.55056
19.417191 -4.3013401 -29.978001
22.880096 -10.18416 -29.978001
27.210405 -18.498474 -29.998993
24.245464 1.2985671 -29.978001
15.683468 -15.727754 -29.978001
28.004742 -14.22674 -37.594711
26.920773 -14.836551 -36.863266
15.307203 -15.833842 -29.978001
16.822712 -2.2937288 -29.978001
15.05776 -13.051021 -29.978001
25.744804 -26.418369 -29.996498
17.13373 -10.120964 -30.550705
27.817684 -15.665263 -38.5509
34.071976 -13.094707 -29.978001
21.861162 -14.794088 -29.978001
12.231848 -19.921734 -29.978001
27.743517 -4.1936965 -29.978003
11.242533 -15.488876 -31.290169
12.106583 -14.988472 -36.119511
29.196266 0.60102963 -29.978001
15.133883 -21.091373 -29.978001
30.248545 -18.07906 -29.978001
21.872025 -15.581047 -38.530281
20.21022 -9.1487427 -29.978001
27.012697 -25.697037 -30.205
29.687771 -19.087683 -29.978001
32.295246 -15.018394 -33.622978
30.484856 -14.318976 -32.866463
26.584589 -14.810392 -29.978001
20.45084 -17.637667 -30.19676
31.737509 -22.469994 -29.978001
31.351622 -14.369353 -36.385506
31.839346 -25.201212 -29.977999
17.08824 -23.547113 -29.9965
21.908974 -10.037203 -29.978001
25.446823 2.2808907 -29.978001
24.58691 -4.0632019 -29.978001
14.875119 -17.468737 -29.978001
11.752136 -16.125055 -29.978001
28.373623 -12.700489 -34.849655
15.694201 -17.08581 -29.978001
27.683159 -6.6998301 -29.978001
21.890562 -10.481725 -29.978001
14.088768 -22.897181 -29.978001
24.996777 -25.645731 -29.9965
12.888578 -13.409878 -31.920673
21.201717 -17.904438 -30.205048
20.901999 -16.483025 -38.526913
24.667627 -16.350958 -38.161903
16.562031 -12.228909 -34.298626
21.694935 -0.70419228 -29.978001
14.007614 -13.404596 -34.310108
17.505211 -9.6413097 -29.978001
25.613913 -25.043457 -29.996502
28.700951 -16.76523 -29.978001
30.910387 -14.672816 -35.462212
28.4568 -2.3935783 -29.978001
11.205726 -15.575474 -36.896011
31.891993 -15.469004 -32.701012
21.413622 -22.670261 -29.996498
19.106565 -12.328404 -33.195507
31.882824 -20.662159 -29.978001
34.100544 -9.6561871 -29.978001
21.359352 -4.6735544 -29.978001
20.595318 -16.651899 -38.214386
31.384066 -14.389005 -33.938442
23.679829 -25.219175 -29.9965
26.291567 -12.426122 -33.361954
24.378483 2.7018111 -29.978001
20.699554 -6.1460161 -29.978001
13.593472 -15.4064 -38.720985
10.813084 -22.932055 -29.978001
18.641003 -2.4393365 -29.978001
19.730999 -12.269297 -34.371758
24.781881 -17.619261 -30.188013
28.167019 -12.695399 -32.540039
29.105282 -13.119406 -29.978001
21.031734 -11.790659 -32.421463
14.953373 -21.343338 -29.978001
33.371742 -22.225189 -29.978001
19.153679 -18.403004 -30.158674
21.956837 -15.35223 -37.665554
16.075396 -20.101015 -30.205097
34.36499 -3.9235623 -29.978001
28.887951 -4.4282904 -29.978001
23.596491 0.35248852 -29.978001
20.260666 -8.57407 -29.978001
28.482441 -14.363344 -37.819279
11.235939 -15.981023 -32.2883
18.311466 -20.340103 -29.996502
24.305477 -10.774285 -31.948586
38.041622 -20.61021 -29.978001
31.298992 -7.3544469 -29.978001
24.674629 -16.651899 -38.491768
26.4816 1.7165306 -29.978001
32.107037 -15.915871 -32.272373
20.856014 0.30865431 -29.978001
20.473665 -15.106314 -29.977999
28.603127 -15.881226 -29.978001
12.24857 -16.651899 -37.917931
25.893509 -16.871716 -29.978001
19.326639 -17.511114 -30.055138
26.160402 -14.280034 -36.052784
12.362467 -21.88987 -29.978001
11.074198 -17.122829 -29.978001
35.005871 -17.340054 -29.978001
23.38014 -11.36664 -29.978001
22.653196 -10.943705 -29.978001
24.255419 -16.050003 -38.538544
19.066208 -12.513612 -33.46423
18.673428 -12.314089 -33.173241
12.858352 -14.087611 -30.078537
33.430241 -8.3759117 -29.978001
13.245784 -16.825544 -29.978001
28.173304 -1.0337451 -29.978003
32.655663 -23.019842 -29.978001
22.707615 -14.142769 -35.841702
28.586018 -12.453938 -32.844902
30.063007 -25.6057 -29.978001
15.508059 -11.212926 -31.993601
29.652885 -11.320988 -29.978001
11.246901 -16.025669 -30.618528
18.159946 -16.304129 -38.517403
22.080212 -9.3766022 -29.978001
28.516863 -5.4244308 -29.978001
10.534096 -20.158352 -29.978001
29.694653 -13.221561 -34.088348
22.602762 -13.42369 -29.978001
34.298241 -20.407516 -29.978001
37.251877 -22.451878 -29.978001
29.549162 -13.672321 -32.245277
30.310318 -17.417175 -29.978001
16.298248 -20.7271 -30.205097
31.923048 -18.634338 -29.978001
20.659473 -10.665652 -29.978001
33.871422 -22.143097 -29.978001
12.565302 -22.147724 -29.978001
20.490814 -16.651901 -38.502197
23.500505 -14.927529 -38.722263
14.864864 -16.651899 -38.323944
21.162945 -15.911446 -29.978001
22.92869 -16.418392 -38.533943
34.659847 -13.595021 -29.978001
11.20255 -14.887251 -34.939987
38.501633 -19.17444 -29.978001
18.697266 -6.857976 -29.978001
28.300383 -12.25469 -31.225193
31.857475 -14.7149 -32.793709
15.09723 -11.484221 -29.961182
28.265299 -13.774684 -29.978001
19.583714 -14.904997 -36.937515
27.587194 -11.908637 -33.193939
14.183126 -17.61541 -29.978001
12.374054 -13.855584 -31.779707
23.228659 -14.899207 -38.675095
22.184792 -10.131157 -30.891775
15.550508 -13.09992 -34.308037
11.922909 -21.62022 -29.978001
28.44437 -16.651899 -38.482658
29.556242 -13.12512 -33.398781
34.079231 -23.276218 -29.978001
28.030491 -12.81095 -35.262268
24.718937 -17.958052 -30.205019
11.220175 -16.206345 -34.690762
31.126244 -4.0716677 -29.978001
29.407455 -17.496969 -29.978001
28.935436 -6.7572994 -29.978001
21.654144 -7.5177207 -29.978001
11.555558 -15.247821 -30.475212
26.836721 -11.736734 -33.338551
21.116074 -20.335941 -29.996502
17.301405 -14.931774 -38.707348
34.102402 -15.744981 -29.978001
32.15649 -16.09544 -36.880722
16.344154 -10.965935 -30.003342
18.081539 -11.310608 -32.806736
32.142124 -16.014151 -35.542225
18.350683 -2.5406024 -29.978001
36.268829 -10.785147 -29.978001
19.065624 -14.544947 -36.413067
31.541971 -9.8335772 -29.978001
14.494667 -15.623003 -38.127197
16.059822 -18.377369 -30.205097
13.715418 -13.313663 -30.423874
28.544689 0.22500348 -29.978001
30.695345 -0.32370019 -29.978001
14.035263 -12.414892 -31.889555
29.494068 -13.984402 -35.206718
29.611317 -0.64882982 -29.978001
27.637047 -7.8139305 -29.978001
28.111897 -25.827808 -29.978001
28.120907 -12.12995 -30.610085
34.914139 -15.664608 -29.978001
20.759102 -9.1215057 -29.978001
28.272776 -12.815099 -30.009457
31.113951 -21.155535 -29.978001
14.408689 -12.657372 -32.420212
11.220803 -15.471273 -34.599266
23.862411 -12.182552 -34.244781
13.220484 -13.246364 -34.963764
32.117294 -15.436502 -33.228401
31.354094 -14.369867 -35.330551
27.284763 -14.869797 -36.912777
14.863398 -12.325199 -32.430412
18.063431 -15.329638 -37.548752
20.429085 -20.733093 -29.9965
13.480637 -12.887613 -30.141932
26.020603 -7.5738764 -29.978003
25.834934 -19.21151 -29.9965
30.640783 -14.472125 -30.437532
19.688923 -13.253315 -34.540169
30.658606 -17.173651 -29.978001
31.940115 -16.33293 -34.665024
27.771866 -18.345955 -29.978001
12.214141 -15.291722 -37.159267
12.404909 -13.820864 -30.137833
28.17297 -13.150312 -35.838982
18.192705 -13.322091 -29.978001
26.22827 -15.300458 -29.978003
24.007481 -11.703513 -32.305141
21.689266 -10.085413 -29.95269
12.894749 -15.311043 -29.978001
31.219711 -14.276859 -35.216129
23.731567 -24.213806 -29.996498
32.156517 -16.286701 -36.883144
24.014069 -2.7083964 -29.978001
28.634737 -13.444775 -34.64315
34.66217 -20.373142 -29.978001
11.402231 -14.718973 -35.964577
31.898127 -16.401501 -32.951382
26.885765 -6.9877138 -29.978001
26.093174 -19.948938 -29.9965
33.028667 -20.23093 -29.978001
22.446781 -21.815048 -29.996498
31.242596 -16.651899 -38.143097
30.699097 -14.452816 -33.802223
33.158459 -18.053547 -29.978001
24.731705 0.57612848 -29.978003
32.110535 -16.423893 -32.598671
16.567434 -13.003132 -29.978001
24.925411 -25.684744 -29.9965
23.076656 -6.8862443 -29.978001
29.689793 -2.9379003 -29.978001
35.337959 -22.059254 -29.977999
16.025312 -10.682954 -30.769249
20.751982 -1.9523314 -29.978001
14.110469 -23.096624 -29.978001
34.724327 -18.526054 -29.978001
23.633535 -12.732958 -35.142025
13.494251 -13.987664 -35.250359
13.889342 -10.15983 -29.978001
24.64023 -14.059967 -35.728115
26.104586 -15.4085 -29.978001
19.187775 -13.250016 -35.970005
30.159124 -24.03668 -29.978001
32.095848 -16.271278 -31.22978
29.04372 -15.478899 -38.17683
25.403351 -13.695619 -36.718956
22.905239 -13.121554 -35.773502
16.416714 -15.19132 -38.888988
16.814278 -16.618202 -38.512737
28.195791 -15.218993 -37.422813
28.546673 -12.992126 -30.875496
32.101768 -16.633358 -31.78154
15.217488 -12.871134 -29.978001
27.790621 -16.994467 -29.978001
13.872204 -13.14885 -31.805569
24.93704 -22.529186 -29.9965
17.796442 -11.011089 -32.320133
11.455156 -16.457323 -32.664642
35.182999 -11.010241 -29.978001
27.528316 -12.54074 -29.978001
25.559748 -1.6319835 -29.978003
12.254374 -15.38928 -37.746429
22.484055 -5.3394198 -29.978001
33.210838 -24.258957 -29.978001
21.124357 -11.07118 -29.978001
37.659363 -20.090971 -29.978003
30.216536 -2.3331962 -29.978001
20.856098 -2.1802742 -29.978001
9.4157534 -21.942743 -29.978001
13.007835 -13.310776 -32.821564
19.013853 -11.710604 -33.457661
12.532944 -12.75871 -29.978001
26.355646 -10.226048 -29.978001
28.295855 -15.078685 -29.978001
27.034031 -26.405293 -30.184177
17.88213 -6.5296698 -29.978001
13.11425 -13.815272 -34.190441
31.270336 -9.73102 -29.978001
24.403954 -11.803497 -33.62822
17.887924 -3.9617953 -29.978001
11.93569 -15.161757 -29.978001
36.426407 -19.471901 -29.978001
15.573895 -12.195173 -29.978001
17.099848 -6.6263032 -29.978001
18.358368 -13.306298 -36.058914
16.484472 -10.49955 -31.087481
21.231302 -5.7342296 -29.978001
22.810608 -14.747431 -36.719826
29.850533 -17.591686 -29.978001
20.730141 -15.265436 -37.46468
9.0641336 -23.001526 -29.978001
15.579062 -11.069338 -30.610023
29.646166 -13.798265 -36.809837
14.254107 -12.826422 -30.686108
19.740957 -15.7634 -38.522888
29.937126 -8.464901 -29.977999
16.376944 -10.92738 -30.524313
29.088577 -14.2965 -36.086708
17.265049 -14.602336 -29.978001
34.351192 -24.695312 -29.978001
29.434732 -15.203217 -37.404148
18.228695 -0.6953845 -29.978001
32.242237 -14.983605 -35.253372
38.131157 -18.620316 -29.978001
18.051224 -12.843201 -29.978001
18.865561 -10.262789 -30.209206
25.997766 -3.8528142 -29.978003
21.954929 -21.567078 -29.996502
21.807259 -15.4064 -38.79063
20.181444 -7.8468261 -29.978001
32.196671 -25.473211 -29.978001
16.020943 -14.856928 -29.978001
29.969204 0.74731183 -29.978003
30.096981 -17.564262 -29.978001
21.09086 -10.79743 -31.975025
26.314281 -14.14743 -37.459351
29.356726 -2.4593835 -29.978001
12.678704 -13.582378 -29.941545
24.431692 -13.197446 -34.4753
16.902105 -4.7172828 -29.978001
33.907681 -21.064779 -29.978001
23.809975 -9.3972578 -29.978001
30.531044 -21.873531 -29.978001
13.15266 -13.764483 -33.452564
25.583778 -12.165761 -34.22345
22.043217 -23.566977 -29.9965
32.364441 0.22350645 -29.978001
26.242304 -11.513754 -33.086662
26.726059 0.28530073 -29.978001
27.043669 -0.38994455 -29.978001
26.119207 -0.29601026 -29.978003
35.789986 -10.419397 -29.978001
25.824039 -10.542295 -30.424164
22.10898 -4.521749 -29.978001
15.569109 -24.50424 -29.978001
12.933327 -13.369765 -31.65436
32.203388 -15.406401 -30.777842
20.721947 -13.994987 -29.978001
11.495735 -15.984431 -30.640942
17.634003 -14.168409 -35.861557
29.530296 -16.211164 -29.978001
17.935043 -12.890246 -35.378586
35.344788 -7.6609626 -29.978001
26.529041 -15.865108 -38.168251
18.534119 -12.850435 -35.315742
32.000237 -3.0021155 -29.978003
30.259848 -19.901558 -29.978001
19.877733 -13.098483 -34.316051
14.343266 -13.811253 -29.978001
21.972675 -12.899218 -34.033951
13.341954 -17.15407 -29.977999
19.746849 -12.603285 -33.596737
32.205971 -8.5532742 -29.978001
21.30253 -16.3529 -38.528305
31.87676 -14.729791 -34.174747
29.935026 -14.119452 -35.020641
27.036205 -11.381458 -31.6548
25.956999 -11.186277 -30.056423
30.332026 0.84982455 -29.978001
27.360363 -0.78196108 -29.978001
21.967541 -14.004678 -35.638706
26.205185 -14.047318 -37.29562
32.339703 -15.395114 -29.98629
17.575941 -12.179774 -34.2188
20.81596 -22.883461 -29.9965
20.994329 0.69846869 -29.978001
16.251654 -18.04817 -30.205099
18.348553 -8.6120262 -29.978001
15.239838 -15.611832 -38.129738
13.612485 -14.410643 -36.201694
17.352575 -10.338614 -29.972609
23.831303 -14.769055 -38.464859
23.987961 0.32951498 -29.978001
26.000458 -3.4208205 -29.978001
19.404308 -23.792473 -29.996502
28.281799 -13.682774 -29.978001
20.741222 -14.164752 -29.978001
38.066887 -23.675854 -29.978001
14.938643 -12.419113 -32.814079
19.736021 -16.506966 -38.522869
10.980382 -18.880825 -29.978001
32.128429 -16.599998 -34.265842
29.59816 -13.150877 -30.563297
22.115366 -10.275826 -29.978001
25.379862 -16.571905 -38.542442
25.395027 -13.778149 -36.85358
15.241955 -14.678015 -38.286053
24.267361 -16.639898 -38.538589
32.135792 -15.897929 -34.952122
23.248119 -11.886835 -33.760117
24.020433 -0.56974959 -29.978001
29.918898 -24.372068 -29.978001
32.085136 -16.383184 -30.231655
30.455471 -4.0691271 -29.978001
18.731613 -21.845419 -29.9965
29.152466 -21.627333 -29.978001
28.974987 -5.736177 -29.978001
25.712851 -11.679934 -32.208
20.864933 -19.222898 -29.9965
13.962259 -15.486709 -38.125381
32.59861 -7.8315039 -29.978001
18.77788 -10.781858 -30.959061
34.864239 -3.416049 -29.978001
14.665091 -11.864184 -31.004347
18.425772 -23.961182 -29.996502
27.950653 -12.012909 -31.162903
21.320433 -14.139652 -35.832428
18.211823 -10.334861 -29.978001
32.295044 -10.023178 -29.978001
32.01255 -23.892805 -29.978001
29.70351 -13.225107 -31.813759
33.88752 -6.9350801 -29.978001
37.244492 -20.342667 -29.978001
21.597319 -11.343408 -32.867638
27.994667 -13.908154 -35.519215
30.432499 -17.504683 -29.978001
30.770691 -9.3254623 -29.978001
23.528313 1.050647 -29.978001
22.844131 -12.613091 -34.943665
36.037621 -20.955418 -29.978001
28.210785 -11.737729 -29.978001
23.80723 -12.552162 -29.978001
27.153376 -12.166546 -34.176731
23.331303 -12.900926 -29.978001
15.470291 -11.656298 -29.978001
32.298149 -15.016772 -30.417095
29.684319 -24.504454 -29.978001
31.770248 -15.089023 -29.978001
24.396269 2.125411 -29.978001
16.310514 -13.157817 -29.978001
26.0144 -14.963223 -38.78936
38.067905 -23.612112 -29.977999
29.700869 -4.8210249 -29.978001
27.868279 -11.999216 -33.110348
31.229778 -15.316977 -37.157871
38.612156 -21.720673 -29.978001
34.609886 -4.8887048 -29.978001
11.410372 -16.651899 -36.898148
27.022779 -14.532751 -36.422596
19.624207 -16.477814 -38.522484
14.739419 -11.804148 -31.923193
9.2824345 -21.94997 -29.978001
34.869324 -2.6569879 -29.978001
28.932785 -15.997128 -29.978001
28.81106 -21.517756 -29.978001
29.729321 -13.432247 -35.481384
25.638144 -5.9391379 -29.978001
16.530529 -16.383617 -38.13414
25.161947 -12.511121 -29.978001
11.370611 -16.651899 -29.995483
31.229765 -14.872522 -31.199326
26.438889 -11.871368 -33.746124
25.446016 -13.758505 -36.821716
15.111071 -16.006065 -38.506832
33.810066 -11.894961 -29.978001
31.379002 -19.416451 -29.978001
36.310875 -13.850681 -29.978001
13.126001 -13.203131 -31.762737
27.804716 -20.233829 -29.978001
26.309746 -4.8285675 -29.978001
21.145216 -11.837338 -32.489616
12.714867 -14.20389 -30.775051
23.540092 -21.840397 -29.996502
21.396595 -10.801943 -31.983465
20.525745 -11.939821 -32.636269
37.372871 -23.289028 -29.977999
17.537584 -11.779848 -33.569073
31.445 -14.974361 -33.959564
25.371861 -15.997011 -38.164303
11.24989 -15.552482 -30.168823
16.853607 -10.8358 -30.723656
22.719307 -14.201121 -35.926449
11.243139 -15.717489 -31.194967
14.978417 -10.315937 -29.978001
15.161029 -11.428875 -29.962093
31.016109 -14.13409 -33.401928
32.899605 -9.3645372 -29.978001
27.905264 -13.981215 -29.978001
30.870502 -15.225529 -38.939896
19.198231 -15.337684 -29.978001
27.367809 -13.538241 -34.980072
20.268831 -14.356828 -37.779709
20.9009 -9.9870663 -30.656487
14.374957 -8.815052 -29.978001
21.042934 -16.546528 -38.149536
27.511541 -15.220814 -37.423115
34.022049 -9.5201855 -29.978001
25.19381 -12.513788 -33.485458
17.149811 -16.439331 -38.513901
24.513981 -13.912959 -29.978001
15.591732 -15.336799 -29.978001
26.856556 -21.777182 -30.205
26.018578 -11.239176 -29.978001
14.988596 -12.255713 -34.17688
24.225451 -15.122717 -37.269463
13.056728 -22.321198 -29.978001
22.458969 0.30503392 -29.978001
37.026432 -19.771629 -29.978001
30.300465 -25.215244 -29.978001
21.913404 -13.823972 -35.376194
32.612549 -2.5633137 -29.978001
25.821455 -27.156683 -29.9965
31.55405 -14.505875 -33.398781
36.435703 -18.962675 -29.978001
33.819935 -16.715555 -29.978001
28.798504 -14.316866 -29.978001
12.034786 -16.843918 -29.978001
22.671808 -15.4064 -38.87841
32.094452 -16.651899 -34.759178
28.984842 -22.046671 -29.978001
10.199016 -22.918636 -29.978001
33.839577 -3.1641779 -29.978001
20.052719 -13.15317 -35.815037
33.309349 -8.1634016 -29.978001
19.481812 -15.623894 -38.144211
29.011806 -11.055254 -29.978001
29.425669 -14.787717 -38.515015
20.397663 -23.80604 -29.996498
11.94044 -22.277996 -29.978001
12.170115 -14.037159 -32.738846
14.235975 -14.177343 -37.465607
23.40781 -9.3194132 -29.978001
24.355734 -27.524864 -29.9965
31.284763 -14.555464 -37.201633
27.69046 -4.280158 -29.978001
12.450384 -13.802534 -34.500515
18.644234 -14.257441 -37.61182
19.821449 -14.978697 -37.045319
33.305622 -13.428247 -29.978001
27.637777 -8.5471897 -29.978001
13.764789 -13.693116 -34.791847
26.501804 -22.514528 -30.205
12.297353 -13.913089 -29.91251
15.53715 -11.669888 -31.085064
30.949888 -21.247095 -29.978001
16.661491 -24.698524 -30.050337
20.307407 -11.691704 -32.275333
29.394739 -13.898304 -35.062096
17.041885 -22.046206 -29.9965
20.653534 -11.613311 -33.304691
27.335808 -16.64356 -29.978001
26.056927 -23.681337 -29.9965
12.484549 -13.76096 -32.035404
27.029758 -20.852781 -30.188663
24.329708 -15.219082 -29.977999
13.39843 -12.95927 -30.212027
15.982453 -7.6796384 -29.978001
32.345699 -12.158005 -29.978001
11.020061 -15.239946 -34.821171
25.536102 -12.531061 -29.978001
24.161818 -19.199984 -29.9965
33.625019 -18.071163 -29.978001
29.97456 -13.992454 -31.069176
19.897217 -16.651899 -38.439835
21.381123 -12.910584 -35.423912
31.842976 -15.501343 -30.70038
23.959183 -5.2961593 -29.978003
15.723953 -11.034612 -31.755325
29.075932 -16.046721 -38.555267
31.299931 -15.018235 -38.804047
27.299164 -6.3300161 -29.978001
30.55722 -13.816394 -32.924015
18.228996 -11.222898 -32.664242
31.291859 -14.327305 -35.729385
28.882042 -18.703039 -29.978001
14.846654 -23.098225 -29.978001
10.97838 -19.619947 -29.978001
22.616236 -21.747536 -29.9965
20.189083 -11.421669 -32.990364
31.6952 -16.255106 -29.978001
14.335238 -12.673351 -34.793884
25.666916 -20.702143 -29.996502
16.70009 -22.509111 -30.009193
29.542686 -13.562422 -36.204796
20.842878 -12.206472 -33.024445
20.064383 -12.477068 -33.414597
33.762802 -7.4085512 -29.978001
22.185478 -12.681995 -33.719345
27.120733 -22.92518 -30.093143
24.802029 -14.050846 -37.296432
20.745092 -6.2903275 -29.978001
26.750908 0.26952291 -29.978001
30.637661 -17.560825 -29.978001
14.897643 -11.665748 -31.68998
34.790169 -7.7408628 -29.978001
13.472561 -22.36853 -29.978001
33.709709 -19.159088 -29.978001
24.44146 -12.738263 -35.15353
25.072893 -9.129899 -29.978001
9.8554535 -20.654011 -29.978001
17.219042 -11.877237 -32.541588
13.491318 -16.418468 -29.978001
15.356169 -11.822197 -31.643209
37.786423 -15.828759 -29.978001
10.633999 -17.860365 -29.978001
21.991488 -26.828943 -29.9965
36.742596 -15.169237 -29.978001
27.047779 1.3591068 -29.978001
20.797802 -14.263401 -29.978001
14.462832 -17.383226 -29.978001
28.674686 -14.304708 -36.097206
31.924385 -4.1967707 -29.978001
27.570387 -12.294067 -31.530237
16.333553 -13.093365 -34.298489
23.356266 -11.918716 -33.812515
19.611485 -25.743126 -29.996498
20.768267 -12.969414 -29.978001
19.469448 -14.82959 -29.978001
25.320332 -10.209768 -30.469584
30.723467 -13.931729 -33.309227
29.99077 -14.277757 -35.470295
29.56218 0.51717305 -29.978001
15.896326 -21.052933 -30.205099
14.272621 -19.775999 -29.977999
23.710602 -13.913593 -37.068645
11.210199 -15.770802 -36.213085
