# .PCD v0.7 - Point Cloud Data file format
VERSION 0.7
FIELDS x y z
SIZE 4 4 4
TYPE F F F
COUNT 1 1 1
WIDTH 1481
HEIGHT 1
VIEWPOINT 0 0 0 1 0 0 0
POINTS 1481
DATA ascii
-31.651899 -46.836979 -16.532864
-25.305809 -42.459293 -22.4179
-32.102924 -31.52269 -21.813097
-19.433678 -46.181091 -22.4179
-31.604277 -39.028446 -22.4179
-32.103134 -36.994301 -15.380405
-30.921778 -44.085739 -22.4179
-31.651897 -41.720814 -21.931932
-31.651901 -46.376289 -18.539835
-19.798973 -30.779968 -22.640772
-24.279194 -43.769936 -22.4179
-25.424469 -38.240417 -22.512745
-31.651901 -39.699581 -17.227116
-32.102959 -34.764557 -20.620348
-17.79739 -48.609512 -22.4179
-29.083542 -30.260117 -22.643908
-31.651901 -46.634899 -17.731169
-20.076979 -24.967117 -22.640884
-32.10323 -34.145737 -11.85095
-31.651897 -45.080437 -18.319643
-32.102947 -28.021217 -20.986544
-27.420311 -32.170769 -22.643337
-17.976553 -45.921894 -22.4179
-32.102943 -31.619495 -20.95047
-32.10326 -30.727036 -10.214114
-20.354948 -30.455875 -22.640961
-19.308178 -28.010876 -22.640614
-20.698547 -36.110577 -22.64106
-31.651899 -39.976616 -21.232941
-32.103359 -35.794914 -8.2555618
-32.102997 -31.262186 -19.304003
-23.59593 -30.625761 -22.642054
-32.103222 -37.673634 -12.894547
-32.103016 -28.2638 -18.489552
-32.103001 -35.103653 -19.111343
-31.651897 -44.672478 -9.4764471
-20.881115 -39.17918 -22.4179
-31.651901 -42.547066 -14.542796
-19.945629 -25.625637 -22.640839
-32.103142 -34.038197 -14.498418
-30.435026 -37.752163 -22.644339
-18.911385 -36.214619 -22.640455
-22.448557 -43.927364 -22.4179
-31.651901 -42.679932 -12.933539
-21.430582 -35.211231 -22.64131
-29.077431 -30.681509 -22.643904
-32.103168 -36.880066 -14.215546
-25.359983 -47.456787 -22.4179
-31.651897 -41.664524 -11.537566
-29.94573 -37.515263 -22.644171
-32.103271 -32.819397 -10.420514
-22.378143 -27.311028 -22.641653
-32.103142 -30.222971 -13.977687
-31.651899 -47.341984 -17.256746
-31.651899 -42.004627 -20.711367
-26.860161 -31.302418 -22.64315
-31.651901 -41.53558 -10.802916
-32.103168 -29.90934 -12.977957
-19.092693 -35.657547 -22.640518
-32.103245 -31.576519 -10.933885
-18.347025 -39.542927 -22.4179
-23.72258 -39.591351 -22.4179
-32.103058 -26.051096 -17.056973
-32.102936 -37.598656 -21.534313
-32.103134 -35.636955 -15.135428
-27.374111 -30.129528 -22.64333
-32.103123 -37.972145 -15.923148
-28.522619 -44.219284 -22.4179
-32.015347 -35.564835 -22.644878
-28.274862 -28.57029 -22.643639
-31.651899 -39.972664 -13.292733
-23.610565 -39.027229 -22.4179
-25.798502 -36.792065 -22.642776
-32.103268 -36.405037 -11.224927
-29.853374 -42.030029 -22.4179
-32.103191 -28.096052 -12.215881
-20.012218 -41.107365 -22.4179
-19.95285 -26.922272 -22.640839
-19.022602 -32.358799 -22.640507
-32.490692 -29.41387 -11.637537
-31.220215 -33.079971 -22.644619
-32.103127 -31.644974 -14.449516
-23.472576 -36.291576 -22.641993
-26.97913 -32.173679 -22.643188
-31.651899 -42.189781 -20.554573
-31.651899 -44.067245 -10.338237
-32.103065 -34.838432 -16.929974
-30.296402 -25.560127 -22.644333
-22.15873 -27.543415 -22.641579
-32.103001 -28.426563 -18.952448
-31.651899 -40.954536 -18.414745
-29.002125 -40.702568 -22.4179
-31.651899 -46.264206 -14.67195
-31.651901 -43.382023 -15.718872
-27.664869 -38.009972 -22.629814
-32.102905 -37.703255 -22.492455
-32.103024 -36.515007 -18.685055
-31.651901 -43.72517 -10.902203
-31.651897 -48.245224 -13.29723
-23.889769 -41.48735 -22.4179
-29.857052 -27.567894 -22.64418
-31.651901 -42.766396 -9.7268562
-31.651899 -42.51799 -17.279079
-23.506321 -48.200798 -22.4179
-32.10313 -35.010281 -15.078927
-32.103256 -33.266132 -10.867302
-20.411755 -33.100121 -22.640972
-19.628731 -38.66713 -22.4179
-19.291397 -45.775181 -22.4179
-31.081099 -47.353065 -22.4179
-32.103107 -31.716389 -15.227798
-24.68087 -32.825653 -22.64241
-20.703259 -42.60096 -22.4179
-28.804781 -35.237385 -22.643797
-18.538006 -40.519695 -22.4179
-25.364902 -33.242859 -22.642643
-31.651897 -44.648014 -11.689394
-19.868723 -40.509575 -22.4179
-32.103081 -32.842415 -16.173786
-32.102947 -32.87167 -21.000305
-31.651901 -47.25634 -16.547363
-31.651901 -41.890221 -19.235313
-25.871016 -43.379005 -22.4179
-27.475227 -26.253805 -22.643377
-31.651899 -39.673344 -20.537418
-19.141186 -38.253689 -22.516148
-31.651899 -47.58186 -14.29775
-31.651899 -48.308979 -10.688902
-32.103035 -27.837986 -17.797192
-21.015148 -27.774467 -22.641193
-30.865313 -27.264217 -22.64452
-19.856142 -41.71909 -22.4179
-32.103176 -28.920057 -12.664634
-26.71743 -41.519566 -22.4179
-28.289871 -44.78669 -22.4179
-27.158268 -32.668495 -22.643248
-32.103065 -33.025234 -16.710646
-31.651899 -45.068733 -12.861913
-29.91387 -33.682838 -22.644175
-31.651899 -40.976448 -15.519004
-22.079975 -29.220209 -22.641546
-32.103012 -28.854214 -18.726915
-20.628407 -32.093796 -22.641048
-25.923269 -43.803154 -22.4179
-23.097889 -31.984772 -22.641884
-28.127279 -44.183372 -22.4179
-32.102955 -33.922283 -20.630695
-23.947079 -37.271763 -22.642151
-21.330578 -32.804501 -22.641283
-29.859398 -46.206161 -22.4179
-32.103336 -33.267632 -8.4927549
-31.651901 -40.345451 -15.210777
-25.044497 -41.964844 -22.4179
-32.102959 -36.234211 -20.559362
-22.757601 -29.902781 -22.641773
-32.102936 -31.282467 -21.324488
-32.103172 -29.062454 -12.76177
-30.936554 -35.855869 -22.644514
-32.103245 -33.441055 -11.292687
-31.651901 -46.066093 -13.908301
-31.651899 -39.328053 -16.520729
-26.365698 -32.886429 -22.642981
-32.102959 -33.528549 -20.505997
-32.102936 -35.99749 -21.532015
-32.102989 -27.48398 -19.532537
-27.451691 -26.891073 -22.643368
-19.481054 -33.431095 -22.640656
-31.651899 -48.227943 -21.666893
-19.880707 -45.857857 -22.4179
-24.481506 -40.339218 -22.4179
-32.103355 -37.303909 -8.6969175
-32.103077 -33.014683 -16.311331
-28.924732 -38.183025 -22.542946
-31.651897 -44.680687 -16.35881
-21.40481 -33.008713 -22.641308
-26.451717 -43.271156 -22.4179
-31.651899 -47.495834 -13.985883
-31.651901 -47.476006 -11.666563
-29.849314 -27.232449 -22.644176
-31.651897 -46.732422 -21.757631
-31.651899 -40.346439 -21.627127
-31.421488 -47.735004 -22.4179
-32.103195 -30.02581 -12.118632
-25.703293 -30.607561 -22.642765
-32.103043 -31.885811 -17.637974
-31.651899 -45.547997 -20.469984
-31.651899 -48.275406 -21.337261
-32.103073 -29.190739 -16.501522
-19.91486 -46.988365 -22.4179
-29.069349 -48.078327 -22.4179
-20.940708 -27.783171 -22.641167
-31.651897 -40.061035 -8.8174839
-31.651899 -43.950638 -10.078959
-20.455688 -43.843739 -22.4179
-23.878862 -26.793663 -22.642162
-19.876081 -46.884739 -22.4179
-32.10294 -31.933628 -21.201382
-26.748888 -46.506081 -22.4179
-32.102993 -31.032345 -19.402103
-17.938364 -41.49614 -22.4179
-32.103306 -33.143192 -9.3474236
-32.10326 -35.222 -11.16852
-22.996769 -39.924995 -22.4179
-29.968109 -37.09079 -22.64418
-26.133518 -27.611069 -22.642921
-31.651897 -43.552208 -9.2181692
-31.651899 -47.968349 -13.843971
-19.720991 -27.539955 -22.640755
-31.651899 -43.92086 -20.306637
-32.103012 -26.025072 -18.579355
-32.102913 -31.225735 -22.212473
-31.651901 -44.771931 -16.713448
-31.651901 -47.452614 -16.870197
-31.651899 -45.699448 -20.66011
-32.103218 -32.952408 -11.969654
-32.541599 -27.640896 -11.550565
-31.651901 -40.76424 -21.036903
-26.027622 -44.545074 -22.4179
-31.651901 -45.099335 -11.885035
-23.622438 -28.937809 -22.642069
-24.315123 -35.005489 -22.642281
-32.103222 -30.865791 -11.493126
-29.651114 -40.167847 -22.4179
-22.889252 -25.904346 -22.64183
-32.02002 -38.078808 -12.31991
-32.102947 -35.457802 -20.929901
-32.102905 -30.867813 -22.466496
-29.767929 -33.428391 -22.644127
-23.146286 -38.895447 -22.4179
-32.103039 -28.421799 -17.722431
-32.103298 -31.507339 -9.3090706
-32.10297 -34.731693 -20.204042
-25.852833 -42.309402 -22.4179
-26.248962 -47.524536 -22.4179
-31.651899 -39.186638 -9.9413586
-31.6758 -38.47393 -13.902605
-19.685802 -46.48225 -22.4179
-31.651901 -46.849754 -21.815544
-32.103043 -35.330143 -17.815624
-31.651897 -47.998367 -13.503242
-17.342997 -46.378109 -22.4179
-32.103207 -36.449669 -12.963651
-29.479351 -31.126293 -22.644037
-23.488394 -47.572983 -22.4179
-20.441236 -44.50095 -22.4179
-31.144642 -45.501568 -22.4179
-25.020748 -44.305092 -22.4179
-32.103146 -32.685085 -14.184107
-32.103119 -31.488447 -14.733488
-19.577312 -45.373928 -22.4179
-31.651901 -48.608711 -13.864914
-31.651897 -38.757664 -14.151975
-19.060379 -42.48064 -22.4179
-30.634066 -48.380138 -22.4179
-23.715147 -28.123219 -22.642101
-31.651899 -48.529739 -17.711847
-32.103035 -37.390648 -18.610653
-25.643156 -29.712654 -22.642746
-25.913286 -33.72887 -22.642826
-31.651899 -47.805706 -21.036417
-29.138025 -38.57262 -22.4179
-28.616129 -36.770336 -22.643728
-17.3979 -44.166893 -22.4179
-19.143044 -44.683304 -22.4179
-27.174664 -36.398628 -22.643242
-32.1031 -27.218084 -15.564879
-30.120708 -39.302986 -22.4179
-19.645613 -27.772415 -22.64073
-21.38195 -32.79126 -22.6413
-21.092541 -41.608612 -22.4179
-31.651899 -48.641319 -11.539243
-32.102959 -32.353325 -20.476591
-31.526237 -35.000587 -22.644714
-31.651899 -42.108925 -10.665209
-32.102913 -33.637291 -22.237947
-21.535858 -39.680035 -22.4179
-31.651901 -39.251621 -9.0285053
-27.734793 -45.319504 -22.4179
-32.055363 -37.618656 -22.644884
-22.836952 -42.299469 -22.4179
-22.575384 -36.406811 -22.641693
-22.229395 -43.087738 -22.4179
-31.001926 -41.649864 -22.4179
-29.863987 -41.476097 -22.4179
-31.651901 -43.098869 -18.375328
-32.103134 -30.023424 -14.09481
-19.604527 -30.623436 -22.640709
-21.36554 -39.441498 -22.4179
-31.651901 -42.231201 -20.667618
-32.207413 -27.891325 -11.828526
-32.103115 -35.848362 -15.743061
-32.102962 -28.020012 -20.404074
-32.102974 -29.788897 -19.974758
-22.250647 -41.050007 -22.4179
-21.441765 -37.454674 -22.641308
-29.51214 -26.865923 -22.644066
-19.684223 -33.301357 -22.640726
-32.103088 -34.779587 -16.335514
-26.840509 -36.326324 -22.643129
-32.10297 -28.356308 -20.218063
-18.979671 -36.633457 -22.640478
-32.102989 -34.953671 -19.44409
-18.752748 -41.432262 -22.4179
-23.186567 -45.137856 -22.4179
-23.50132 -46.698196 -22.4179
-19.865726 -46.392338 -22.4179
-32.103317 -37.639771 -9.9658051
-32.103268 -33.700485 -10.681491
-31.651899 -40.883823 -21.034637
-31.651901 -42.903069 -16.039112
-32.103252 -30.918697 -10.519356
-24.211628 -27.395777 -22.642273
-29.558044 -46.124588 -22.4179
-32.103123 -29.072109 -14.595741
-20.422626 -46.30291 -22.4179
-31.651901 -44.490284 -9.7546463
-32.102985 -31.010048 -19.722279
-31.651899 -48.137135 -10.346998
-32.062313 -38.030289 -10.48848
-31.651897 -45.23069 -16.266449
-32.103188 -32.319271 -12.793404
-19.878662 -38.114376 -22.574379
-31.651897 -41.537136 -18.816265
-31.651899 -39.918915 -8.8792219
-31.651901 -46.026646 -20.907768
-21.777889 -31.579378 -22.641438
-19.320217 -42.150818 -22.4179
-21.024326 -25.003269 -22.641205
-32.103218 -30.829626 -11.640404
-31.651899 -40.607201 -15.516521
-32.103115 -37.548542 -16.064209
-31.651901 -47.925957 -13.861155
-31.651899 -40.665466 -13.15337
-23.433784 -42.449924 -22.4179
-24.108175 -35.728188 -22.64221
-32.103134 -34.321053 -14.728815
-32.103058 -26.941578 -17.017063
-19.784519 -42.019436 -22.4179
-29.739799 -31.425592 -22.644127
-31.79258 -34.332367 -22.644808
-31.651901 -44.981529 -14.589815
-32.102913 -35.604111 -22.187897
-26.043428 -30.618998 -22.642878
-31.651899 -45.361691 -17.373018
-32.103172 -36.457417 -14.151497
-30.966959 -35.509533 -22.644526
-31.651901 -40.069645 -20.88645
-30.555578 -30.719662 -22.644402
-31.651897 -45.947086 -15.924132
-32.103233 -36.579601 -12.241181
-32.10305 -36.487236 -17.807726
-32.10302 -26.611431 -18.293327
-32.102928 -28.124783 -21.697741
-31.651899 -39.480984 -20.609051
-32.102947 -33.430058 -21.044338
-31.651899 -44.21447 -16.87286
-31.651901 -45.985855 -20.507215
-29.083031 -32.687187 -22.643898
-32.103096 -36.749825 -16.489614
-32.103321 -33.717796 -9.0809431
-32.103073 -28.160976 -16.513096
-30.164776 -30.54953 -22.644272
-30.163767 -36.400414 -22.644251
-31.651901 -45.131546 -19.116764
-26.844587 -47.398792 -22.4179
-19.39328 -48.080994 -22.4179
-25.590857 -30.063305 -22.642727
-32.103123 -33.041172 -14.883233
-28.731188 -26.216267 -22.643803
-32.102993 -25.858421 -19.344488
-26.371037 -30.105539 -22.642992
-27.938065 -38.935009 -22.4179
-32.103146 -36.642914 -14.980513
-18.223755 -47.177517 -22.4179
-26.71051 -30.86582 -22.643103
-32.10294 -34.508484 -21.231884
-31.651899 -48.649448 -18.953211
-31.651899 -46.201447 -10.798561
-26.801796 -34.066586 -22.643124
-19.968504 -43.278576 -22.4179
-32.103191 -30.366283 -12.320548
-31.394463 -40.328228 -22.4179
-17.607973 -47.346004 -22.4179
-32.103073 -31.574091 -16.375973
-31.68885 -34.28006 -22.644775
-32.102989 -37.358829 -19.885801
-32.103069 -26.734261 -16.513029
-30.671232 -26.242271 -22.644459
-21.992344 -45.020615 -22.4179
-31.555714 -33.886402 -22.64473
-22.365353 -26.877567 -22.641651
-30.548996 -28.184811 -22.644409
-32.103001 -28.490971 -19.068069
-31.651901 -38.499073 -14.148246
-32.103046 -34.137863 -17.427822
-21.112507 -29.809853 -22.641218
-26.373325 -42.506691 -22.4179
-32.102905 -29.405491 -22.593031
-31.651899 -40.734035 -17.292215
-23.274347 -40.177929 -22.4179
-31.651897 -45.880493 -15.222198
-21.238235 -38.21785 -22.526251
-18.813406 -39.303207 -22.4179
-31.651897 -46.8382 -18.515881
-21.284637 -37.863636 -22.641253
-32.103256 -33.76725 -10.952917
-28.734192 -37.788277 -22.643763
-24.139175 -28.485935 -22.642242
-24.151636 -30.506775 -22.642242
-32.103146 -29.496326 -13.842909
-21.116432 -38.934822 -22.4179
-31.232264 -39.569386 -22.4179
-24.533129 -42.674343 -22.4179
-20.488586 -46.391541 -22.4179
-21.509811 -31.974806 -22.641346
-22.644106 -30.232977 -22.641733
-23.911741 -35.201832 -22.642147
-32.103127 -36.091545 -15.50573
-32.103062 -26.264893 -16.901649
-20.101231 -31.077724 -22.640875
-32.103306 -35.040264 -9.7936029
-20.786795 -28.040625 -22.641115
-29.438839 -43.152679 -22.4179
-21.907928 -28.016771 -22.641493
-24.046934 -35.868996 -22.642189
-31.651899 -48.341976 -20.312397
-32.10294 -30.309237 -21.232121
-32.103199 -27.087511 -11.919359
-25.548117 -26.108009 -22.642727
-31.651897 -40.700844 -19.49625
-31.651899 -41.693577 -10.559225
-27.706718 -33.603493 -22.643431
-31.651899 -39.283516 -20.891562
-31.651897 -43.37463 -9.9793835
-19.177597 -42.915947 -22.4179
-31.651901 -41.772388 -11.048624
-32.103325 -34.240288 -9.0927753
-26.858719 -25.333931 -22.643173
-32.103172 -26.886219 -12.785314
-31.651899 -38.549717 -10.644892
-28.191628 -33.641121 -22.643595
-31.239592 -35.019058 -22.644619
-27.539991 -33.754242 -22.643373
-21.568409 -26.709366 -22.641382
-31.529181 -31.735405 -22.64473
-31.651897 -48.02956 -15.466206
-25.418625 -44.75428 -22.4179
-31.651899 -44.933411 -16.779396
-22.53005 -31.895803 -22.641691
-32.103287 -35.858498 -10.57769
-26.317745 -29.445402 -22.642975
-28.35112 -31.207458 -22.643658
-31.651897 -43.73671 -10.572056
-27.006702 -28.524103 -22.643211
-31.651899 -39.691914 -18.259342
-31.651899 -43.247673 -11.078286
-31.245522 -39.284508 -22.4179
-26.167549 -34.129715 -22.64291
-26.712488 -32.963867 -22.643097
-32.10297 -33.435299 -20.168428
-26.443655 -46.865219 -22.417898
-24.000809 -35.991447 -22.642174
-31.651901 -45.07893 -15.433651
-31.651897 -44.325684 -20.511742
-29.111185 -30.789125 -22.643915
-23.266363 -28.54134 -22.641949
-24.307707 -47.212715 -22.4179
-32.103264 -29.984407 -10.199182
-32.103195 -31.358408 -12.373062
-20.39257 -29.761459 -22.640976
-24.874672 -39.044823 -22.4179
-31.651899 -38.702583 -19.217693
-31.651897 -44.491074 -15.429279
-32.10294 -29.920874 -21.161762
-31.651897 -42.082802 -9.3219805
-31.651899 -41.715008 -13.997217
-22.723457 -44.749565 -22.4179
-30.792503 -26.91967 -22.644499
-31.651899 -42.982048 -10.293973
-31.651899 -39.179546 -19.891474
-32.10318 -27.209118 -12.648376
-32.103073 -37.815453 -17.48369
-32.103191 -36.260933 -13.394265
-30.77161 -45.439034 -22.4179
-32.103085 -37.216454 -16.946045
-32.102978 -26.870569 -19.875782
-31.651899 -39.080452 -12.920967
-32.102905 -30.26969 -22.471525
-20.994493 -31.001507 -22.641174
-19.103592 -39.675636 -22.4179
-26.345316 -33.510612 -22.642973
-31.651897 -42.85511 -10.924536
-19.778484 -37.989902 -22.637154
-20.403225 -33.653835 -22.640968
-31.651901 -42.000748 -19.759642
-21.45516 -40.191505 -22.4179
-24.166885 -34.082375 -22.642237
-21.119001 -29.09626 -22.641224
-32.1497 -28.74461 -10.804981
-31.651899 -45.661156 -14.380611
-30.076405 -34.250046 -22.64423
-32.103134 -35.690178 -15.032492
-29.684296 -26.068014 -22.644125
-27.513615 -46.442505 -22.4179
-22.626884 -28.072842 -22.641735
-31.651899 -43.146996 -14.341431
-31.651899 -41.764252 -16.388775
-31.651899 -47.998184 -16.874527
-31.651899 -42.179688 -19.467758
-32.206348 -29.572319 -11.665935
-30.072838 -30.118616 -22.644243
-32.102905 -25.822054 -22.636396
-23.015924 -33.505524 -22.64185
-31.651901 -46.332474 -21.344275
-18.059023 -48.583244 -22.4179
-30.164511 -33.157906 -22.64426
-32.103279 -36.138229 -10.768661
-21.374786 -41.089981 -22.4179
-23.339394 -34.611717 -22.641954
-27.905699 -34.592316 -22.643496
-31.651897 -41.139122 -11.302086
-31.651899 -43.529694 -16.675377
-30.871656 -39.749313 -22.4179
-31.651899 -46.132797 -21.289381
-31.651897 -43.663773 -22.398514
-32.103073 -30.587841 -16.488064
-29.774433 -41.112312 -22.4179
-24.688578 -25.742258 -22.642437
-32.103161 -32.984459 -13.636406
-32.10297 -33.364521 -20.241177
-31.651899 -42.296837 -14.290425
-18.091829 -42.280373 -22.4179
-32.102997 -26.162086 -19.14612
-29.878817 -42.384945 -22.4179
-32.10318 -36.559334 -13.923475
-31.651899 -48.156242 -16.69895
-23.845091 -31.588861 -22.642134
-26.274948 -31.565199 -22.642954
-25.588703 -41.344479 -22.4179
-31.651897 -46.640381 -12.10957
-32.103287 -31.658125 -9.6743412
-31.651901 -47.22802 -21.109772
-27.697294 -28.137657 -22.643446
-32.103333 -33.409363 -8.6048012
-26.498529 -26.884872 -22.643047
-32.103073 -34.207573 -16.621147
-31.651899 -47.036644 -19.111519
-23.459711 -41.079758 -22.4179
-31.651901 -43.577499 -16.161697
-32.10318 -36.954807 -13.892988
-31.651897 -46.950844 -16.056345
-22.776287 -31.328279 -22.641775
-31.651899 -42.689289 -10.428556
-32.102989 -31.510963 -19.446066
-32.10297 -28.055031 -20.107595
-31.651899 -40.091042 -14.883718
-32.103012 -33.15921 -18.728706
-30.473768 -34.92939 -22.644361
-25.244894 -48.611622 -22.4179
-32.103027 -27.121174 -18.03405
-31.651899 -42.816189 -22.223934
-21.156557 -34.757092 -22.64122
-31.651901 -42.659714 -18.945848
-31.651899 -40.311707 -21.494352
-31.651897 -45.637718 -13.057926
-32.102978 -37.630836 -20.29467
-28.763155 -37.585747 -22.643774
-26.977318 -40.460724 -22.4179
-30.965906 -47.874699 -22.4179
-31.651897 -47.755024 -20.126513
-32.035992 -38.06012 -21.258654
-28.742542 -32.944565 -22.643784
-31.416628 -35.448174 -22.644676
-26.448503 -47.947559 -22.4179
-31.651901 -39.695732 -20.015728
-28.286575 -40.402626 -22.4179
-32.103104 -30.113495 -15.348246
-20.166199 -46.717613 -22.4179
-20.972271 -41.642464 -22.4179
-26.329702 -26.881004 -22.642988
-32.103035 -37.024502 -18.417797
-32.102928 -27.177088 -21.704252
-27.63015 -36.060474 -22.643398
-32.103222 -32.467861 -11.814623
-32.103119 -27.583443 -14.700933
-32.103016 -32.676033 -18.58429
-32.103161 -28.448895 -13.363578
-32.103088 -29.645947 -15.983492
-31.651899 -46.111774 -17.910891
-31.651901 -44.812492 -14.022201
-26.515421 -41.549534 -22.4179
-25.675528 -43.12175 -22.4179
-21.95509 -41.913811 -22.4179
-32.103062 -33.413246 -16.725918
-23.682953 -29.427963 -22.642086
-21.72073 -48.138374 -22.4179
-18.551651 -42.958 -22.4179
-18.755548 -35.091816 -22.640406
-32.102924 -30.529879 -21.893442
-29.486704 -32.455414 -22.644035
-28.284925 -39.447666 -22.4179
-31.651899 -47.527931 -17.287727
-31.651901 -39.811481 -20.095917
-26.580687 -38.304321 -22.480915
-26.610661 -41.300499 -22.4179
-31.651897 -42.893738 -10.246831
-31.651901 -40.590858 -13.820915
-24.697189 -29.383976 -22.642429
-32.102982 -30.779804 -19.831654
-25.502544 -43.878189 -22.4179
-23.451468 -41.244694 -22.4179
-31.651899 -38.776268 -19.708986
-32.541599 -29.32674 -10.760899
-25.228098 -40.949715 -22.4179
-29.593958 -45.198986 -22.4179
-23.204105 -31.790407 -22.641916
-20.908245 -44.764526 -22.4179
-24.099705 -46.137398 -22.4179
-31.651901 -41.950375 -14.288312
-31.651901 -44.230095 -12.290541
-24.419054 -29.736977 -22.642334
-28.948456 -44.389748 -22.4179
-32.049385 -38.044952 -15.465271
-23.636496 -40.97081 -22.4179
-31.651899 -42.222702 -12.585841
-25.210642 -31.07003 -22.642597
-28.650425 -43.835186 -22.4179
-23.621096 -35.249405 -22.642048
-26.74737 -39.451469 -22.4179
-32.103142 -31.907688 -14.097784
-17.796764 -42.182114 -22.4179
-32.102962 -30.98465 -20.446922
-32.103329 -34.11784 -8.8743267
-18.017366 -37.861454 -22.64015
-31.651897 -45.439571 -20.964163
-31.651899 -45.194187 -11.111322
-29.408077 -43.600391 -22.4179
-31.651899 -48.610458 -18.418722
-32.103008 -33.967598 -18.733377
-32.103001 -30.086658 -19.026356
-32.10305 -28.923357 -17.187973
-31.651897 -47.874256 -11.977268
-32.102974 -34.726555 -20.108368
-32.102936 -35.628979 -21.435713
-32.10302 -29.282413 -18.39999
-19.113167 -39.720509 -22.4179
-30.183138 -48.440739 -22.4179
-17.789999 -43.332779 -22.4179
-24.667381 -37.145252 -22.642393
-31.651897 -46.27494 -13.256313
-32.103214 -36.673172 -12.862201
-31.651897 -46.19825 -16.647421
-31.651897 -41.949135 -19.889919
-32.103065 -29.581078 -16.685556
-22.665516 -28.402897 -22.641747
-32.103058 -37.447628 -17.777756
-31.651897 -41.335239 -10.979519
-32.103077 -35.002754 -16.681372
-29.802639 -36.945381 -22.644125
-28.062361 -41.907211 -22.4179
-21.017317 -27.29969 -22.641193
-27.335125 -44.805885 -22.4179
-27.049885 -28.167402 -22.643227
-31.651899 -44.575272 -19.529686
-21.764952 -41.258953 -22.4179
-20.175154 -42.097641 -22.4179
-19.561295 -25.860668 -22.640709
-32.103191 -34.135895 -13.004586
-21.632095 -31.179405 -22.64139
-32.103363 -34.899742 -8.0555315
-31.651901 -43.988365 -20.578846
-31.651897 -43.037437 -19.450346
-19.227282 -37.165821 -22.640558
-31.651899 -39.424088 -16.207338
-32.102924 -36.341904 -21.926008
-31.651899 -43.325642 -20.228634
-31.651899 -43.740635 -13.839741
-26.573166 -25.656315 -22.643076
-29.347273 -43.967388 -22.4179
-22.561811 -34.708248 -22.641691
-25.376064 -40.01614 -22.4179
-16.728851 -48.351036 -22.4179
-21.326679 -47.951389 -22.4179
-31.651899 -42.245346 -11.53021
-31.651899 -46.613564 -17.403292
-32.103065 -37.613747 -17.455227
-32.103157 -29.277344 -13.234825
-19.603624 -36.28989 -22.64069
-32.10305 -26.709555 -17.334492
-19.258089 -35.917152 -22.640572
-31.651899 -40.908642 -21.788006
-31.651897 -40.615883 -15.87244
-32.102913 -32.199814 -22.240242
-32.103355 -36.408474 -8.4962063
-31.651897 -44.401215 -17.332485
-31.942236 -38.167896 -19.625492
-32.103058 -37.217438 -17.639093
-32.10297 -26.541626 -20.147274
-25.332283 -35.9921 -22.642622
-29.16432 -36.802223 -22.643913
-32.103176 -29.605846 -12.704185
-32.103329 -34.402397 -8.9829979
-30.294394 -31.345272 -22.644314
-27.865946 -29.084583 -22.643499
-24.47468 -26.911604 -22.642361
-28.070494 -41.15892 -22.4179
-31.651901 -47.377373 -16.026009
-26.662987 -43.415207 -22.4179
-24.640152 -46.517303 -22.4179
-29.797813 -47.687111 -22.4179
-21.908546 -47.49205 -22.4179
-32.103119 -31.294437 -14.728439
-31.953871 -38.1549 -9.7067833
-32.103214 -35.588428 -12.621226
-21.589794 -26.579578 -22.64139
-29.775221 -37.391033 -22.644117
-27.855 -33.01535 -22.643482
-32.103287 -37.386505 -10.853023
-31.651897 -48.26572 -22.345566
-25.696545 -42.259102 -22.4179
-32.102993 -33.776318 -19.358881
-31.829172 -33.590519 -22.644823
-31.651899 -40.482914 -13.713398
-32.103024 -31.841209 -18.163406
-31.717283 -38.426308 -19.142056
-32.102905 -27.516575 -22.471348
-19.103395 -34.642776 -22.640528
-27.157768 -31.150518 -22.643253
-31.651899 -39.603668 -10.831353
-31.88393 -38.234829 -20.910948
-20.945805 -48.575348 -22.4179
-32.103039 -32.480087 -17.734735
-32.102913 -27.827801 -22.290531
-21.633102 -47.497597 -22.4179
-19.745525 -37.810123 -22.640732
-30.698242 -42.431957 -22.4179
-29.13431 -37.041935 -22.643902
-31.651901 -41.236237 -18.758722
-31.651899 -42.150368 -20.466637
-31.651899 -47.458385 -18.947783
-30.442738 -40.947262 -22.4179
-31.651897 -39.716 -18.094986
-32.102924 -34.178062 -21.824842
-27.028437 -45.135674 -22.4179
-26.350056 -31.017889 -22.642982
-30.321623 -32.083889 -22.644318
-32.102962 -31.411692 -20.453716
-32.102913 -28.603979 -22.184683
-29.214092 -26.60043 -22.643967
-29.885395 -27.32239 -22.64419
-32.103352 -35.183517 -8.4278564
-26.537123 -43.768188 -22.4179
-30.881086 -43.749516 -22.4179
-26.602207 -26.763897 -22.643082
-31.651897 -45.883911 -14.786125
-21.215855 -33.648434 -22.641241
-30.503775 -30.681229 -22.644386
-32.102943 -32.097546 -21.160721
-32.103119 -33.740993 -15.183508
-31.651899 -39.797562 -18.02709
-32.103058 -32.823929 -17.130512
-28.958925 -29.702925 -22.643866
-20.212944 -28.546413 -22.640919
-30.262726 -36.200569 -22.644285
-32.102921 -26.060709 -21.965343
-27.243088 -43.076973 -22.4179
-30.45219 -27.553596 -22.644379
-32.10294 -28.197571 -21.342676
-32.103287 -36.621101 -10.610852
-32.102974 -31.786697 -20.083294
-32.103184 -27.303949 -12.436523
-31.651901 -40.251713 -13.324579
-24.763807 -26.313951 -22.64246
-32.103195 -36.128311 -13.325147
-27.870607 -26.476566 -22.643513
-32.102985 -36.497646 -19.763847
-18.432714 -37.034546 -22.640291
-24.11307 -32.627674 -22.642221
-28.97084 -34.367188 -22.643854
-31.651897 -44.912464 -18.933056
-32.102905 -31.146084 -22.550915
-28.469849 -27.421021 -22.643711
-31.651899 -42.42968 -19.56707
-31.651899 -44.262566 -22.345287
-19.186451 -41.94669 -22.4179
-32.103218 -35.143574 -12.438417
-19.883127 -34.424583 -22.640791
-20.921515 -35.264263 -22.641136
-19.450911 -26.012321 -22.640671
-31.651897 -44.106773 -22.006668
-32.10318 -32.759945 -13.133821
-27.821796 -44.626019 -22.4179
-22.836884 -44.553986 -22.4179
-26.818874 -36.907555 -22.64312
-23.938129 -46.066391 -22.4179
-32.103149 -31.438107 -13.758408
-19.396753 -40.714878 -22.4179
-31.651901 -43.559505 -18.879829
-31.651899 -48.177643 -12.00913
-27.033024 -30.248495 -22.643213
-31.651899 -47.252068 -20.41317
-31.651897 -41.225357 -9.5927343
-32.103077 -28.198818 -16.240967
-31.651899 -39.59399 -15.635281
-31.651897 -45.55003 -17.707804
-21.479151 -36.297504 -22.641321
-19.017159 -48.414658 -22.4179
-27.621204 -37.124435 -22.643389
-31.651897 -45.588676 -15.152691
-32.10302 -30.392847 -18.300791
-25.803038 -36.56377 -22.642778
-31.651897 -43.410763 -13.716405
-31.651899 -48.49374 -20.03401
-24.945156 -38.31477 -22.477928
-29.330576 -32.352032 -22.643984
-32.103123 -26.543026 -14.756081
-31.651899 -45.268032 -11.469206
-32.102993 -28.007362 -19.279915
-31.651899 -48.270763 -16.269079
-23.341946 -30.194187 -22.64197
-32.102943 -26.543621 -21.067406
-32.103085 -29.244545 -16.078659
-27.205105 -44.434868 -22.4179
-31.047901 -40.046398 -22.4179
-21.328854 -41.380035 -22.4179
-32.103043 -26.870468 -17.512787
-20.05196 -26.432116 -22.640873
-18.349274 -44.393391 -22.4179
-21.08884 -31.369684 -22.641205
-19.578873 -40.335888 -22.4179
-32.103222 -34.250244 -12.20118
-31.751259 -38.387375 -11.459658
-31.713158 -36.464695 -22.644772
-31.651899 -40.430851 -14.700866
-32.10313 -26.126953 -14.376491
-32.103043 -31.862984 -17.453239
-27.836607 -41.01939 -22.4179
-31.651899 -47.329475 -13.114565
-30.968063 -47.758732 -22.4179
-30.795692 -35.43507 -22.644466
-31.651901 -45.791996 -17.415018
-32.10331 -32.31242 -9.103487
-25.698425 -29.214819 -22.642767
-21.608391 -25.925436 -22.641399
-32.102909 -27.115173 -22.434406
-31.651901 -46.103767 -14.419969
-22.303869 -29.599977 -22.641621
-18.202873 -41.050472 -22.4179
-31.651899 -40.551979 -15.078966
-32.103329 -35.452778 -9.1169472
-26.253929 -33.498104 -22.642941
-22.976017 -29.886095 -22.641846
-32.102951 -27.708378 -20.86982
-31.240654 -40.967957 -22.4179
-31.651897 -40.603443 -14.139177
-32.102955 -36.144398 -20.772354
-21.872444 -37.252499 -22.641451
-22.701296 -31.57114 -22.64175
-32.103264 -30.935089 -10.165965
-31.651899 -48.470783 -14.33331
-19.057875 -37.371384 -22.640503
-28.09639 -31.739975 -22.643568
-31.651901 -41.848564 -15.458494
-27.686035 -26.77132 -22.643448
-28.362007 -46.670822 -22.4179
-32.102932 -37.882992 -21.723339
-32.103088 -28.654631 -15.910131
-19.408092 -48.22184 -22.4179
-31.628622 -43.15023 -22.4179
-32.103111 -37.176598 -16.058294
-25.183546 -27.466721 -22.642597
-21.135927 -25.743813 -22.641239
-19.187149 -28.053757 -22.640575
-27.966751 -29.686668 -22.643532
-19.428833 -33.56234 -22.640638
-21.831121 -33.161461 -22.641449
-31.651899 -39.012444 -10.282545
-32.102959 -34.896011 -20.643661
-27.638569 -43.241032 -22.4179
-32.103264 -33.827515 -10.829873
-31.651897 -47.379734 -18.729237
-23.545687 -25.520672 -22.642052
-19.930031 -41.959305 -22.4179
-20.879784 -30.33976 -22.64114
-32.103195 -33.25486 -12.729901
-19.147335 -41.149841 -22.4179
-19.734823 -24.840559 -22.64077
-32.1031 -37.147598 -16.42095
-23.531921 -42.572514 -22.4179
-31.651901 -39.522545 -21.08975
-19.69788 -39.017937 -22.4179
-28.079521 -34.307911 -22.643553
-31.651901 -48.511459 -18.476503
-25.318583 -43.043709 -22.4179
-28.073036 -39.016792 -22.4179
-31.651899 -43.051521 -14.819058
-32.103249 -33.877007 -11.238523
-19.33243 -31.422794 -22.640614
-31.651899 -39.753819 -18.774321
-32.103352 -35.311115 -8.3908501
-32.103302 -37.331394 -10.31172
-29.249731 -36.749115 -22.64394
-32.102955 -35.082855 -20.6698
-31.651899 -45.197655 -10.534799
-27.879787 -29.294992 -22.643503
-32.103146 -26.050549 -13.765959
-26.182121 -30.665213 -22.642925
-23.967613 -35.531303 -22.642164
-31.651899 -41.705887 -14.533512
-17.237516 -47.994312 -22.4179
-31.651899 -38.735775 -12.208801
-28.639816 -32.057758 -22.643751
-31.651899 -39.043098 -12.779176
-31.651901 -45.068409 -12.707952
-32.102928 -29.995649 -21.650723
-24.532381 -41.65942 -22.4179
-32.103207 -33.151001 -12.348841
-23.247786 -40.298584 -22.4179
-25.600897 -34.75452 -22.642715
-32.103252 -35.478264 -11.464046
-23.17046 -26.480152 -22.641924
-29.776817 -31.736357 -22.644136
-32.103065 -27.425095 -16.569698
-31.651899 -46.673573 -18.893589
-32.103302 -35.233742 -9.8841009
-31.651901 -39.838093 -20.932789
-31.651899 -44.235126 -12.293758
-32.103165 -32.855545 -13.558199
-32.103073 -33.365555 -16.468079
-18.984558 -34.735004 -22.640486
-32.103062 -28.456783 -16.827164
-31.651899 -43.608124 -22.400414
-26.398321 -41.027756 -22.4179
-32.103146 -27.682518 -13.795964
-23.344818 -40.518471 -22.4179
-31.651899 -42.26239 -18.745134
-32.103184 -37.593121 -13.922418
-31.651897 -45.438526 -10.095528
-29.077356 -30.245371 -22.643906
-18.413584 -39.727299 -22.4179
-27.171003 -38.52668 -22.4179
-21.690899 -47.548847 -22.4179
-28.205933 -33.688385 -22.6436
-32.103184 -26.4158 -12.441238
-23.447838 -42.801651 -22.4179
-23.814354 -47.720032 -22.4179
-19.668808 -39.885029 -22.4179
-32.102966 -32.324314 -20.387716
-29.604231 -43.92614 -22.4179
-32.103031 -26.678667 -17.948303
-31.352081 -35.120426 -22.644657
-24.963795 -43.465012 -22.4179
-31.651901 -45.384266 -19.114347
-29.003155 -31.032515 -22.643877
-32.10294 -32.424667 -21.30415
-32.103081 -36.042511 -16.863853
-27.725657 -38.604633 -22.4179
-30.616901 -30.622402 -22.644424
-31.651901 -42.931419 -22.170586
-31.651897 -45.801407 -20.53982
-31.651897 -42.469204 -19.129425
-18.288544 -43.914024 -22.4179
-32.103195 -35.638493 -13.23184
-26.087357 -46.147301 -22.4179
-32.103271 -33.099102 -10.327974
-20.436676 -42.619907 -22.4179
-31.651897 -45.453922 -12.79757
-31.651897 -42.487965 -10.90683
-23.514086 -48.139122 -22.4179
-20.186537 -38.006992 -22.628674
-32.103092 -36.396667 -16.615166
-21.349045 -42.641468 -22.4179
-32.103054 -33.62706 -17.091436
-31.651899 -46.460922 -17.57028
-19.525675 -35.75222 -22.640667
-27.957066 -40.142273 -22.417898
-32.102955 -36.978611 -20.722397
-32.102951 -28.633743 -20.81488
-21.325533 -44.776978 -22.4179
-32.102951 -33.797318 -20.883419
-24.70837 -41.372643 -22.4179
-32.103062 -32.034229 -16.835823
-31.651899 -42.913475 -16.73741
-29.061567 -43.812054 -22.4179
-23.720222 -26.021015 -22.642111
-18.620983 -38.402569 -22.45583
-26.655903 -38.88628 -22.4179
-21.386751 -36.417957 -22.641291
-21.456718 -29.998402 -22.641333
-27.853973 -37.516312 -22.643467
-32.10331 -31.950411 -9.0602674
-32.102955 -35.076904 -20.719648
-32.103172 -35.607597 -13.881754
-31.651897 -41.659981 -11.602938
-27.241457 -37.535686 -22.643261
-32.10302 -37.613533 -18.912708
-23.341375 -42.549019 -22.4179
-24.035578 -36.807003 -22.642183
-28.66753 -39.74527 -22.4179
-31.651897 -46.970413 -20.333107
-24.219522 -35.847427 -22.642246
-31.651897 -39.243389 -20.983549
-26.013102 -44.674984 -22.4179
-29.676893 -44.111382 -22.4179
-32.102974 -26.018179 -19.984238
-22.679232 -39.452118 -22.4179
-24.406399 -34.897411 -22.642313
-32.103035 -31.041321 -17.769045
-23.75658 -43.690155 -22.4179
-24.347195 -35.286392 -22.642292
-32.102989 -30.913593 -19.479279
-24.272997 -34.187008 -22.642271
-30.632566 -29.098169 -22.644436
-22.212927 -27.188566 -22.641598
-21.364426 -39.129738 -22.4179
-18.867241 -37.876713 -22.640438
-19.749226 -38.592499 -22.4179
-31.651899 -39.122913 -20.167622
-20.87414 -36.753277 -22.641117
-32.103199 -34.298626 -12.855438
-22.290611 -35.239357 -22.6416
-31.11359 -39.704117 -22.4179
-31.651899 -39.607159 -17.23682
-31.651899 -44.115578 -10.483656
-31.651897 -47.594074 -14.359887
-32.102993 -32.567078 -19.381998
-26.83271 -31.904026 -22.643143
-22.414429 -37.718555 -22.641634
-24.994377 -38.671906 -22.4179
-31.651897 -46.078743 -11.349096
-32.103317 -34.20092 -9.2895927
-19.925274 -41.575657 -22.4179
-32.103138 -31.223484 -14.072783
-27.104137 -26.276352 -22.643251
-30.760077 -46.260464 -22.4179
-32.102959 -33.046627 -20.6656
-31.651899 -38.751305 -19.705189
-22.803049 -38.444038 -22.42934
-24.926958 -33.076004 -22.642494
-31.887783 -38.230759 -8.9233341
-22.554195 -39.11647 -22.4179
-32.103092 -28.142172 -15.667201
-31.651899 -38.944611 -21.038864
-21.466324 -26.14469 -22.64135
-31.651899 -38.549099 -14.128833
-31.651899 -38.92485 -19.615856
-17.451786 -43.137817 -22.4179
-32.10331 -36.420959 -9.8868542
-31.651899 -45.313416 -16.50391
-21.495987 -43.631763 -22.4179
-29.319931 -37.655949 -22.643963
-20.676386 -37.815552 -22.641045
-32.10302 -37.408695 -18.932858
-23.344576 -29.170683 -22.641973
-27.868792 -30.156277 -22.643497
-32.102901 -28.267252 -22.595623
-32.103214 -30.094831 -11.482393
-19.354326 -27.55969 -22.640633
-32.1031 -34.448219 -15.866009
-32.1497 -27.920406 -11.032187
-26.08647 -48.336136 -22.4179
-31.651897 -42.518349 -19.847473
-31.651899 -43.606358 -11.821022
-31.651897 -45.505856 -14.052576
-29.103819 -33.212612 -22.643902
-24.767246 -43.056488 -22.4179
-31.651899 -41.117725 -17.309052
-32.103138 -26.606028 -14.188057
-32.10294 -31.729492 -21.233858
-30.110519 -34.101948 -22.644241
-31.376493 -48.142654 -22.4179
-32.102913 -33.343742 -22.295383
-31.651897 -42.658287 -11.141998
-25.965595 -45.416992 -22.4179
-32.102905 -30.806086 -22.60265
-31.651899 -48.674889 -14.620091
-22.181786 -39.658455 -22.4179
-23.823538 -43.06842 -22.4179
-27.087076 -33.081177 -22.643223
-29.174625 -35.218197 -22.643919
-26.039961 -41.388332 -22.4179
-31.651897 -40.604271 -20.956665
-31.651899 -44.754887 -19.252365
-24.884245 -30.858788 -22.642487
-31.580635 -41.515003 -22.4179
-20.066795 -40.93219 -22.4179
-31.651901 -42.76149 -19.123322
-32.103119 -32.913628 -14.993023
-32.103363 -37.128857 -8.444932
-21.903145 -35.735195 -22.641468
-29.201344 -36.386711 -22.643929
-29.372469 -29.939108 -22.644007
-32.088463 -37.520435 -22.644896
-29.432194 -38.20853 -22.530254
-32.102982 -28.710941 -19.850315
-31.651901 -43.214996 -15.004615
-30.254105 -39.750542 -22.4179
-31.651897 -45.866016 -13.861013
-23.924911 -41.575043 -22.4179
-28.132816 -34.104553 -22.643574
-28.625032 -32.982491 -22.643742
-31.651897 -43.906666 -21.85227
-32.103027 -29.201851 -18.095213
-22.331064 -26.784498 -22.64164
-31.651901 -41.634766 -11.191999
-26.431248 -47.371239 -22.4179
-32.103065 -26.402405 -16.722389
-27.117697 -25.850315 -22.643257
-32.103046 -37.378822 -18.136524
-32.102974 -33.511002 -20.033276
-30.575342 -48.200424 -22.4179
-20.296473 -46.719341 -22.4179
-27.700571 -36.21632 -22.643419
-32.102943 -26.725855 -21.180712
-31.651899 -48.170734 -13.308343
-27.37163 -27.112814 -22.643341
-31.651899 -43.829887 -14.553119
-32.103081 -31.68232 -16.207626
-28.95241 -30.139183 -22.643864
-24.874048 -31.867241 -22.642481
-30.290867 -42.205673 -22.4179
-31.848557 -38.275421 -22.089111
-31.651899 -48.133522 -15.354676
-31.651897 -43.962631 -14.21689
-31.651901 -43.586784 -17.443844
-19.131502 -29.588612 -22.640553
-20.131962 -41.657028 -22.4179
-18.911331 -41.725426 -22.4179
-32.102993 -35.288147 -19.353745
-32.103065 -31.936573 -16.749519
-23.64348 -29.83157 -22.642071
-31.651897 -41.995602 -16.458601
-22.483852 -37.446918 -22.641657
-31.651899 -43.676743 -12.115392
-31.651899 -41.471279 -21.451797
-32.103153 -28.768309 -13.593125
-31.651901 -45.244362 -20.692755
-30.450371 -48.217869 -22.4179
-32.103313 -35.477634 -9.6406088
-31.651899 -44.516899 -21.876579
-29.631483 -34.960888 -22.644075
-31.898947 -31.79023 -22.644854
-24.960649 -30.147163 -22.642517
-31.651899 -40.45797 -12.395414
-25.59881 -30.132851 -22.642731
-32.103195 -28.767605 -12.019529
-31.367199 -35.532501 -22.644659
-32.10302 -33.890793 -18.353733
-32.003136 -38.098061 -16.150539
-32.102936 -28.345856 -21.429016
-32.103199 -26.883911 -11.94785
-27.320229 -27.429886 -22.643322
-32.103157 -31.065132 -13.466614
-27.838078 -46.391006 -22.4179
-29.729008 -27.829926 -22.644135
-23.403675 -29.952868 -22.641991
-23.861214 -25.923525 -22.642159
-31.651897 -48.607468 -15.260455
-17.376137 -42.679291 -22.4179
-25.097498 -28.925175 -22.642565
-23.880962 -35.929523 -22.642132
-20.907589 -39.759434 -22.4179
-27.170513 -40.892563 -22.417898
-32.103024 -28.936497 -18.127552
-20.268875 -40.713928 -22.4179
-22.209015 -43.445465 -22.4179
-31.651901 -40.286785 -15.948442
-32.103127 -28.208868 -14.494375
-24.041029 -48.264549 -22.4179
-32.103157 -30.028002 -13.380066
-29.363117 -36.413132 -22.643982
-31.651899 -39.58836 -15.31033
-32.103161 -36.47319 -14.417965
-25.199711 -25.638409 -22.642612
-32.103279 -33.368309 -10.225291
-32.103142 -33.737518 -14.435968
-32.10305 -37.538197 -18.050508
-32.102962 -28.181091 -20.466419
-28.880245 -27.49699 -22.643848
-30.004915 -46.615753 -22.4179
-32.103294 -37.292419 -10.62681
-32.103168 -33.465363 -13.634986
-21.41799 -29.474009 -22.641323
-32.541599 -28.486055 -11.368847
-32.10331 -35.169289 -9.6601219
-32.103043 -36.85667 -18.146648
-32.103142 -29.319027 -13.87196
-31.651901 -44.129051 -21.57021
-31.651899 -42.690483 -10.595207
-32.103107 -31.20834 -15.186246
-32.102951 -27.600399 -20.958328
-31.651901 -39.918137 -17.99416
-32.103035 -31.7551 -17.834614
-21.06953 -37.919769 -22.641178
-21.91114 -37.363384 -22.641464
-31.651897 -40.25185 -17.186998
-32.102909 -31.477085 -22.415638
-21.642843 -30.068237 -22.641396
-24.54431 -37.073753 -22.642353
-29.419044 -46.364918 -22.4179
-23.135283 -44.483158 -22.4179
-31.651901 -44.111916 -11.254831
-31.651899 -39.464325 -16.056908
-28.108337 -37.643478 -22.643551
-32.102909 -34.567215 -22.33272
-18.086943 -44.973232 -22.4179
-31.894869 -36.292217 -22.644835
-31.651899 -45.792625 -20.396423
-32.103138 -37.562901 -15.348344
-19.243977 -46.149952 -22.4179
-23.779158 -32.338276 -22.642111
-31.651901 -44.526131 -17.676981
-31.336695 -41.593239 -22.4179
-31.651897 -39.489849 -10.511903
-23.344851 -34.93375 -22.641954
-31.651899 -39.002056 -11.227784
-31.651899 -44.769299 -10.284949
-21.986263 -35.53669 -22.641495
-31.651897 -41.244919 -12.003567
-32.10302 -33.179691 -18.377926
-32.103088 -32.333725 -15.928305
-32.103237 -33.252167 -11.427088
-32.103073 -28.07999 -16.493902
-30.637424 -40.329544 -22.4179
-23.158281 -34.202755 -22.641895
-23.731306 -40.194992 -22.4179
-21.532904 -33.880234 -22.641346
-25.721825 -36.562817 -22.642752
-20.29649 -45.235992 -22.4179
-32.057838 -38.035118 -18.729925
-26.765903 -33.817635 -22.643114
-28.13221 -41.61245 -22.4179
-23.431084 -47.884247 -22.4179
-32.103149 -27.788261 -13.776078
-32.103165 -30.680225 -13.082417
-32.103191 -28.852196 -12.133817
-31.651899 -40.697254 -18.408354
-29.495832 -30.859268 -22.644045
-32.10313 -27.828533 -14.285162
-20.259134 -44.166206 -22.4179
-32.102928 -27.128239 -21.758404
-29.896004 -25.650085 -22.644199
-26.768707 -48.063499 -22.4179
-32.10305 -32.283592 -17.31687
-28.440321 -39.175339 -22.4179
-28.535397 -40.271099 -22.4179
-32.102928 -33.564617 -21.68362
-28.944168 -27.038948 -22.643871
-31.651901 -46.116619 -19.615917
-32.103012 -32.291061 -18.653723
-31.651901 -46.224045 -11.578956
-23.36025 -34.291862 -22.641964
-19.929815 -36.114529 -22.6408
-32.003159 -28.076582 -22.644901
-27.698614 -39.774197 -22.4179
-31.651901 -47.982105 -18.288319
-31.651899 -40.889706 -19.57987
-26.381109 -48.4631 -22.4179
-31.651899 -44.291706 -21.308949
-21.514629 -29.694324 -22.641354
-23.230001 -44.837143 -22.4179
-31.651899 -40.719223 -11.696762
-22.385036 -31.952602 -22.641642
-32.103287 -37.555054 -10.903038
-26.234182 -44.481117 -22.4179
-20.357853 -45.654457 -22.4179
-32.103313 -36.382942 -9.8640366
-32.102924 -32.669556 -21.810785
-31.678469 -38.470825 -22.331806
-32.103107 -32.238914 -15.212904
-20.744431 -34.045414 -22.641083
-31.651899 -42.675217 -13.983303
-20.115362 -38.38131 -22.461262
-31.651901 -45.417374 -12.051987
-25.531801 -48.262329 -22.4179
-32.103168 -28.770256 -13.053
-31.934505 -38.176926 -15.711582
-32.103096 -36.851875 -16.540306
-31.651899 -45.485546 -18.820276
-32.103027 -35.327679 -18.176014
-23.977959 -42.765892 -22.4179
-18.391979 -46.850765 -22.4179
-28.578815 -41.231701 -22.4179
-31.341358 -31.11694 -22.644667
-31.651897 -48.084293 -17.407883
-31.651899 -40.470154 -10.678444
-26.197678 -33.46146 -22.642923
-31.651901 -39.222004 -9.1852179
-25.854755 -32.058228 -22.642813
-32.103256 -32.989956 -10.890944
-21.650627 -39.610443 -22.4179
-27.150871 -33.597797 -22.643244
-28.608389 -40.408463 -22.4179
-30.958839 -30.429413 -22.644543
-32.103287 -37.28154 -10.764175
-25.939011 -26.227783 -22.64286
-25.440521 -31.572731 -22.642673
-32.10323 -35.925457 -12.248909
-20.165314 -47.701767 -22.4179
-32.103081 -37.800709 -17.027214
-27.272598 -35.950951 -22.643276
-25.469751 -45.945549 -22.4179
-25.176184 -45.059387 -22.4179
-27.583673 -40.508003 -22.4179
-23.772415 -41.849579 -22.4179
-31.753738 -32.309219 -22.644802
-28.355761 -41.584526 -22.4179
-32.103256 -33.793419 -11.016569
-32.102936 -29.305399 -21.485104
-22.833197 -47.542896 -22.4179
-32.102928 -31.30595 -21.649586
-30.301563 -45.950096 -22.4179
-24.888006 -42.460613 -22.4179
-23.584377 -30.827976 -22.642048
-20.603539 -36.551018 -22.641026
-31.651901 -42.202713 -14.612247
-31.651899 -48.288857 -17.380203
-32.040337 -38.055614 -8.4884148
-30.522001 -29.504755 -22.644396
-32.103115 -29.094639 -14.973404
-27.374479 -39.677708 -22.417898
-20.041683 -42.052528 -22.4179
-32.103157 -35.553879 -14.40699
-32.103073 -31.614971 -16.449329
-31.651899 -46.579662 -10.139887
-21.848906 -35.356102 -22.641451
-22.187857 -27.915123 -22.641586
-31.651897 -45.060463 -13.853595
-21.050707 -47.427856 -22.4179
-19.420252 -26.180296 -22.640659
-32.103073 -36.447094 -17.082787
-23.399376 -46.201717 -22.4179
-20.055786 -25.022295 -22.640877
-31.651901 -38.960247 -22.099577
-23.932747 -37.029976 -22.642147
-32.102924 -26.087448 -21.858646
-31.068892 -48.035568 -22.4179
-31.651901 -40.280201 -10.706751
-32.103046 -36.124729 -17.760719
-32.102917 -31.868139 -22.091763
-32.103065 -36.821117 -17.324368
-23.00795 -31.583731 -22.641853
-31.651899 -46.934021 -15.532171
-21.585381 -44.777069 -22.4179
-32.10302 -28.961823 -18.271021
-32.103119 -29.773743 -14.821468
-18.44092 -36.440746 -22.640295
-32.102932 -27.600481 -21.53487
-18.828259 -30.81848 -22.640446
-31.651901 -41.968643 -10.51144
-24.902288 -30.7031 -22.642494
-32.103184 -36.632851 -13.776689
-20.633209 -47.377087 -22.4179
-31.651899 -47.653721 -13.193167
-32.103134 -28.062704 -14.279705
-29.55341 -32.16254 -22.644058
-31.410185 -25.829014 -22.644711
-32.102913 -31.133312 -22.079752
-31.651897 -44.175674 -15.425012
-30.256241 -34.500229 -22.644287
-28.424973 -48.48864 -22.4179
-26.41958 -32.662617 -22.643
-19.44285 -40.775459 -22.4179
-31.651899 -43.180222 -17.581427
-31.651899 -48.167507 -19.818287
-32.103252 -30.023308 -10.467839
-29.311659 -39.706688 -22.4179
-32.103203 -30.194775 -11.945096
-19.782061 -34.802143 -22.640755
-18.013344 -46.964897 -22.4179
-24.611723 -44.911957 -22.4179
-23.411016 -40.200325 -22.4179
-32.103333 -36.208267 -9.2204218
-23.308306 -35.423717 -22.641941
-31.651897 -46.422173 -20.221241
-32.103241 -31.843185 -11.162516
-32.102959 -27.246763 -20.583126
-21.647921 -38.715946 -22.4179
-21.638206 -36.606594 -22.641375
-32.103195 -35.043472 -13.156734
-32.103142 -33.127853 -14.412296
-31.651899 -48.31155 -20.960941
-19.416878 -31.53952 -22.64064
-22.004351 -25.640932 -22.641533
-32.103062 -26.074459 -16.855089
-31.651901 -42.500824 -17.349907
-32.103256 -33.720509 -11.001863
-32.103355 -34.047272 -8.1132383
-32.103092 -37.110413 -16.668482
-28.688379 -42.853909 -22.4179
-32.1031 -32.727768 -15.517744
-32.027023 -38.070824 -10.734075
-32.102959 -26.990845 -20.625557
-21.282082 -44.925098 -22.4179
-32.103329 -36.477192 -9.3343649
-30.97871 -30.562099 -22.644548
-18.6612 -37.002953 -22.640368
-31.651899 -41.239464 -9.2198505
-26.083555 -34.671143 -22.642879
-25.854445 -39.118729 -22.4179
-32.103252 -33.411873 -11.029153
-24.345812 -37.045364 -22.642286
-26.852444 -41.832813 -22.4179
-23.170536 -32.216072 -22.641903
-22.699356 -42.617828 -22.4179
-28.116985 -41.530708 -22.4179
-18.90596 -35.059788 -22.640457
-31.651899 -45.797176 -13.783344
-32.103111 -32.333252 -15.117622
-23.562143 -36.203976 -22.642023
-32.012566 -27.969044 -22.644907
-31.171362 -45.854076 -22.4179
-31.651899 -38.814182 -17.578094
-32.103317 -33.051338 -8.9617691
-31.651901 -39.729404 -9.7859325
-20.340296 -47.910465 -22.4179
-31.651899 -45.581509 -22.270214
-32.103241 -32.03931 -11.141594
-20.058098 -47.929123 -22.4179
-28.691715 -28.027798 -22.643784
-31.651899 -46.123398 -11.079928
-32.103168 -37.728298 -14.520287
-28.393173 -40.11351 -22.4179
-32.103088 -32.483231 -15.826805
-32.102985 -35.318577 -19.511728
-32.103275 -33.914795 -10.427492
-26.929283 -29.481092 -22.643181
-29.063339 -45.087257 -22.4179
-21.337938 -36.731922 -22.641273
-23.504883 -30.997341 -22.642021
-20.762472 -29.166458 -22.641104
-31.042061 -41.399132 -22.4179
-31.651897 -45.067329 -16.939243
-32.103184 -36.294731 -13.747529
-21.620461 -34.164101 -22.641375
-32.103199 -29.627481 -11.9411
-32.103062 -27.108101 -16.898838
-23.512247 -40.878754 -22.4179
-32.102905 -25.856716 -22.465155
-31.651899 -42.205666 -19.44812
-20.401871 -36.431835 -22.640961
-20.23307 -34.319885 -22.640909
-26.202497 -27.144234 -22.642944
-32.103321 -35.542973 -9.4319286
-32.102978 -31.855038 -19.961025
-18.810419 -32.683136 -22.640434
-31.651899 -38.991959 -19.641752
-31.651901 -45.790237 -18.698595
-32.103088 -33.776154 -16.029953
-31.651897 -43.400887 -16.733778
-30.33016 -39.363609 -22.4179
-32.103092 -26.719242 -15.675776
-31.651899 -47.261181 -14.284008
-31.079723 -41.555286 -22.4179
-20.006607 -27.555616 -22.640852
-31.651901 -41.372776 -13.212627
-32.102978 -37.104359 -20.159765
-18.877457 -38.527855 -22.4179
-27.870949 -26.225166 -22.643513
-32.541599 -28.297733 -11.467085
-22.091272 -29.808359 -22.641548
-32.415726 -28.661743 -11.168283
-25.377537 -30.516859 -22.642656
-32.102921 -36.540939 -21.988493
-23.557646 -31.577423 -22.642038
-25.20175 -41.336983 -22.4179
-25.399401 -40.988281 -22.4179
-30.929138 -37.838383 -22.644503
-32.103134 -30.741779 -14.252056
-31.077309 -33.088917 -22.644569
-21.302099 -33.305313 -22.64127
-31.679928 -33.111904 -22.644773
-32.103149 -37.271053 -15.025414
-31.651899 -39.75248 -13.022924
-21.481308 -38.970211 -22.4179
-29.276623 -28.913315 -22.64398
-32.103237 -35.866615 -12.132659
-32.103146 -31.450569 -13.940628
-32.102962 -30.048319 -20.440104
-25.575926 -35.206654 -22.642708
-32.102989 -34.14743 -19.434713
