# .PCD v0.7 - Point Cloud Data file format
VERSION 0.7
FIELDS x y z
SIZE 4 4 4
TYPE F F F
COUNT 1 1 1
WIDTH 1538
HEIGHT 1
VIEWPOINT 0 0 0 1 0 0 0
POINTS 1538
DATA ascii
15.174746 -16.91939 39.752495
2.9641643 1.8345069 39.752499
11.438371 -15.555246 39.752499
10.864534 -12.701265 39.752499
7.4997139 4.1728349 39.752499
7.7295809 -15.727679 39.752499
12.152659 -1.8500841 39.752499
-1.8102442 -3.8204155 39.752499
8.5744839 0.78957939 39.752499
16.952133 -5.8916245 39.752499
0.5402571 -8.881691 39.752499
0.595514 -19.515808 39.731796
-2.4978573 -2.8882351 39.752499
11.66492 -15.570495 39.752499
17.001074 -3.1717997 39.752499
16.968262 -16.466137 39.752499
6.3810911 -1.5797404 39.752499
7.3184443 -18.760284 39.752499
7.8046422 3.3662691 39.752499
1.903221 -9.4946098 39.752499
-4.9739442 -10.668432 39.752499
2.7218263 3.4736047 39.752499
7.7305126 -19.400032 39.752499
12.799874 2.4386611 39.752499
14.104091 -3.4786227 39.752499
15.331908 -14.245551 39.752502
11.62581 -17.254356 39.752499
-5.4409375 0.67041945 39.71888
-3.7918813 -10.52376 39.752499
1.7761872 -9.0558567 39.752499
9.4964485 -9.7380133 39.752499
0.87919617 -4.3867922 39.752502
4.770308 -13.828873 39.752499
-1.396518 -3.0109034 39.752499
3.2200086 3.4031603 39.752502
-4.1306458 -14.361531 39.752499
2.3940909 -10.962566 39.752499
11.49168 -19.024042 39.752502
11.259468 -1.3646934 39.752499
16.947086 -8.8057699 39.752499
7.9340429 -8.6780434 39.752495
10.693572 -13.419062 39.752499
-3.6849389 -8.1900587 39.752499
-4.7585092 -12.957382 39.752499
-3.5866072 1.4408152 39.596298
3.1355109 -6.1945257 39.752495
-3.6300075 -14.542737 39.752495
14.69992 -13.785751 39.752499
11.044928 -18.929682 39.752499
5.5133238 0.33180475 39.752502
5.0262685 -0.76609731 39.752499
-0.076095231 -19.482708 39.731781
9.2309999 -19.900639 39.752499
11.856965 -0.069288969 39.752499
-3.2702384 -1.4990296 39.596298
6.7653995 -4.6461973 39.752495
7.2916503 -6.6186566 39.752499
13.406136 -4.1556931 39.752499
0.80776858 -3.9162002 39.752499
6.1832876 0.24728727 39.752499
-1.795866 -2.5981295 39.823975
6.372252 0.54792595 39.752499
12.722281 -2.683846 39.752499
13.66062 -1.876024 39.752499
8.8408852 -6.4861708 39.752499
0.63024211 1.5442681 39.596298
2.2939351 -20.8305 39.752499
-3.2830541 -5.9237561 39.752499
10.989589 -13.91928 39.752499
10.178988 -3.3455393 39.752499
6.140914 -6.9049072 39.752499
-3.6160088 -0.42772263 39.596298
-1.9766617 -1.8568395 39.743668
-2.7216637 3.3635387 39.596298
1.7155436 -11.628851 39.752499
3.4251409 -17.612944 39.752499
-1.2631083 -9.8095074 39.752499
17.024361 -9.084959 39.752499
5.3827372 -0.62165976 39.752499
14.14067 -11.734413 39.752499
13.218269 -6.407372 39.752499
4.8936062 -5.4957094 39.752499
9.0494795 -3.0514042 39.752499
14.666568 2.140311 39.752499
-4.4483671 -13.186482 39.752499
-1.9401573 -16.377529 39.752499
12.029027 -3.9346447 39.752499
1.8334041 -1.379756 39.977482
2.961504 -4.9859076 39.752499
0.48577678 -15.114414 39.752499
2.2336719 -9.1029425 39.752499
-4.6139212 -13.686499 39.752499
11.915003 -8.3614082 39.752502
8.7025528 2.4082499 39.752499
10.822958 -8.9572182 39.752499
-4.6126928 -11.138824 39.752499
5.7531281 -5.9850664 39.752499
-1.1110849 -7.3685188 39.752499
12.374124 -12.83089 39.752499
7.1746626 -17.852999 39.752502
-2.1299937 -3.8838866 39.752499
4.4235029 -16.862898 39.752499
11.467367 -10.231779 39.752495
14.478392 -3.5514917 39.752499
-2.5767677 -11.655277 39.752499
4.5383997 -14.396475 39.752499
10.334403 -1.5362365 39.752499
9.9570265 -13.891859 39.752495
3.1898775 -13.033779 39.752499
13.701234 -15.632785 39.752499
13.738683 -19.076681 39.752499
17.287024 -5.3089905 39.752502
3.7012515 -10.406802 39.752499
1.9447653 -8.6638966 39.752499
11.678176 -14.78234 39.752499
10.18838 -1.1899714 39.752499
5.1640701 1.2843295 39.752495
10.394931 -14.385892 39.752499
14.49165 -10.18171 39.752495
-4.9463053 -1.4248887 39.596298
-3.7536256 3.5108182 39.596298
10.92068 -17.096384 39.752499
0.21067566 -22.239889 39.731789
-6.7028327 -2.8469043 39.747284
1.866946 4.0642548 39.944031
3.3134341 -17.708029 39.752499
11.413022 -18.14938 39.752499
-0.63615954 -18.332987 39.891644
-3.1119173 0.24970901 39.596298
2.6529834 -11.090647 39.752499
-1.2534764 5.4157405 39.596298
13.719521 -14.47224 39.752499
-5.4885902 -8.6617956 39.752499
16.335457 -10.349686 39.752499
11.009556 1.2393813 39.752499
-0.48750031 -12.767141 39.752502
-0.69664544 -19.828688 39.731773
-0.71218061 -11.557189 39.752499
5.783298 -15.166113 39.752502
-3.5932488 -11.536278 39.752499
-3.1401713 -8.1282816 39.752499
-1.2590753 -18.452667 39.752193
2.9878018 -1.3511002 39.752499
7.3222728 -13.080884 39.752499
6.7451792 -7.8783274 39.752499
4.5225701 -12.466305 39.752499
0.39230949 -15.968299 39.752499
6.4478116 -7.6639018 39.752499
-6.1349225 -9.9221201 39.752499
17.035313 -17.703781 39.752499
6.2612014 -4.1838627 39.752499
6.060576 -4.3187456 39.752499
2.8902764 1.9083879 39.752499
-3.6969714 -20.927694 39.731728
6.2343383 -1.8594759 39.752499
16.376972 -13.766757 39.752499
-1.9563855 -5.9224162 39.752499
-1.3363354 -11.887773 39.752499
11.026503 -12.550556 39.752499
13.010784 -17.01284 39.752499
10.657276 -16.769983 39.752499
5.1926985 0.95862699 39.752495
8.3369217 -3.8158545 39.752499
14.768809 -1.0314548 39.752502
10.641955 -16.546146 39.752499
-1.0898709 5.5166121 39.596298
12.415968 -18.988764 39.752499
10.921272 -6.4105425 39.752499
0.24326515 -21.222446 39.731789
8.3276014 -4.4034982 39.752499
7.2316208 -15.296732 39.752499
-1.6359819 -18.056004 39.959
15.608355 -11.178283 39.752499
10.030508 -4.9230509 39.752499
-0.82975698 3.7202075 39.596298
-3.8013577 -13.716184 39.752499
1.2116754 0.96633649 39.662563
8.1936626 -10.314343 39.752499
7.2969933 -6.9361944 39.752499
-4.8857594 -12.458726 39.752502
-1.068881 1.7430842 39.596298
-7.2832952 -0.84330893 39.740383
-0.75607973 -8.4793625 39.752499
-3.0200341 -10.249201 39.752499
9.7978992 -17.654804 39.752499
14.914203 -9.3062534 39.752499
4.29568 -14.773165 39.752499
-1.4123175 -13.020779 39.752499
12.127411 -16.07572 39.752499
9.7583761 -13.125371 39.752499
-6.8972692 -5.2804861 39.744999
-4.6446419 -14.722846 39.752499
-1.4890177 1.2490904 39.596298
-1.4165063 3.2305198 39.596298
11.535709 -8.1881981 39.752499
0.97435445 1.3768603 39.596298
-5.5319247 -3.5148218 39.752499
1.8065019 -19.194012 39.85289
-1.0088069 0.11233556 39.596298
12.554489 -14.773314 39.752502
16.249117 -3.2456393 39.752499
6.827539 -14.508474 39.752499
-5.9945421 -0.94911802 40.009102
5.6042848 -18.228127 39.752499
-3.9350667 -9.4798565 39.752499
11.68557 -8.8385963 39.752499
6.2132187 -1.722769 39.752499
8.4565163 0.22356844 39.752499
9.3384275 -1.8205423 39.752499
-1.2795155 0.65416485 39.596298
0.64020693 -22.781628 39.731796
2.381592 1.6821197 39.752499
5.6205764 -11.659003 39.752499
-4.0660028 -9.7624483 39.752499
13.891145 -19.245808 39.752499
16.465282 -2.5019255 39.752499
-5.2046647 -9.7743502 39.752499
15.275425 -0.40048146 39.752499
-4.7193861 -3.9045618 39.752499
1.40804 -0.019293547 40.009102
4.6125054 -12.734965 39.752499
9.6363878 0.36429954 39.752499
12.582597 -5.1520891 39.752499
-2.113667 -7.5822725 39.752499
-4.3056202 -21.257895 39.731716
17.256355 -4.7070303 39.752499
0.7104587 -0.43763566 39.596298
5.0060787 0.78648305 39.752499
16.414526 -6.3055792 39.752499
15.200251 -16.262575 39.752502
3.9917579 -13.307659 39.752499
-1.5222629 -16.845482 39.752499
-4.2275758 -17.082664 39.752499
3.4859953 -12.883821 39.752499
0.018877923 -1.2671118 39.596298
-0.51009494 -0.10631397 39.596298
-2.6829073 -7.3405714 39.752499
9.0698576 -5.6235514 39.752499
-2.3840234 2.3718598 39.596298
-2.1322989 0.64318514 39.596298
-0.85362542 -6.241981 39.752499
3.9782078 4.8910847 39.752495
9.4417639 -1.1209055 39.752499
-0.72997129 -10.407351 39.752495
1.2854891 -0.67025352 39.836781
7.8627477 -10.415989 39.752499
13.420803 2.228133 39.752499
4.802628 -21.144417 39.752499
1.0871266 -1.4229965 39.596302
12.17407 -0.34364808 39.752502
6.6799583 -19.835979 39.752499
13.175203 -17.468294 39.752499
12.72077 -13.045721 39.752499
14.380053 -19.416992 39.752499
8.0393381 -16.593025 39.752499
2.1748624 3.4661312 39.752499
9.9378119 -14.504005 39.752499
4.354167 -4.0941896 39.752499
16.032476 -16.547218 39.752499
-1.3468221 -17.926632 39.959
0.78968024 -7.4503207 39.752499
8.6888132 -8.2977543 39.752499
3.9568174 -3.6978831 39.752499
-0.69840068 -0.23715463 39.596298
10.938028 -9.4028196 39.752499
-4.2593808 -16.226618 39.752499
-5.0028849 -10.477772 39.752499
13.17066 -19.008896 39.752502
2.5603538 0.78370082 39.752499
2.9231634 -13.761452 39.752499
-0.6978597 -1.1853788 39.596298
12.962536 2.2551689 39.752499
-7.1733499 -1.388557 39.741684
-1.6961194 -19.630793 39.731758
3.1023707 -16.883358 39.752499
11.160106 -1.6345985 39.752499
7.2564673 -6.2460566 39.752499
12.427892 -13.941573 39.752499
-1.6558659 -18.270473 39.959
0.75355357 -10.100575 39.752502
-0.65695375 -18.838251 39.731773
0.4011277 -10.41111 39.752499
0.64759809 3.1713705 39.596298
9.8931084 -14.516846 39.752499
5.9557691 -8.3488827 39.752502
1.6545409 -19.247757 39.949387
12.495855 -3.0629544 39.752499
-3.546087 0.59959006 39.596298
2.3361216 3.353457 39.752502
16.798172 -16.585478 39.752499
6.129859 -1.6920512 39.752499
-5.6361542 -2.752393 39.752499
8.4667273 -3.9699636 39.752499
-4.3912692 -17.150331 39.752499
5.577167 -11.446685 39.752499
2.1468356 1.8505216 39.752499
11.160189 -14.233174 39.752499
2.0213435 4.8428564 39.790054
1.5414017 -6.0141697 39.752499
3.7700279 -2.6311855 39.752495
1.572477 5.8385983 40.009102
2.0598578 -8.6137447 39.752502
-1.0514513 -20.826582 39.73177
1.7762744 -1.9639604 40.009102
2.4277682 -18.472263 39.752499
16.226725 -7.2676282 39.752502
0.39702809 -0.39443612 39.596298
8.0894604 -14.541077 39.752499
6.7673807 -18.309906 39.752499
0.72812343 -0.026551478 39.596298
-0.56556314 -0.014330268 39.596298
-6.0485468 -11.968613 39.752499
-0.89513195 -22.506222 39.731773
-4.427865 2.7887778 39.596298
-4.0743332 -1.4501123 39.596298
0.35560051 -7.587553 39.752499
-1.8364131 -18.510798 39.731754
-4.0578136 -12.785902 39.752499
-3.4138639 -6.0324779 39.752499
1.8485712 2.8896036 39.962357
11.445686 -3.0577037 39.752499
3.2238138 -4.7357221 39.752499
-1.1255921 -4.8131056 39.752499
8.7274942 -3.0429797 39.752499
-2.220381 -17.841633 39.959
16.846323 -10.902875 39.752499
7.7630005 -9.6276302 39.752499
15.206192 -7.3452792 39.752502
7.4656162 -20.827154 39.752499
10.566536 0.36005712 39.752499
-0.045806408 -2.4236841 39.997952
3.9399922 -21.626417 39.752499
-2.3491373 -20.591421 39.731747
-0.064530134 -13.882077 39.752499
3.5622067 -13.661768 39.752499
4.8790369 -8.6361647 39.752499
0.077620983 -15.567816 39.752495
17.33378 -9.880887 39.752499
5.3510246 -13.703427 39.752499
4.9388204 -8.4068298 39.752499
8.5581417 -19.38061 39.752499
10.347876 1.3839092 39.752499
-4.1279593 -1.3218278 39.596298
0.55325752 -17.892426 39.959
6.3513775 -0.45181584 39.752499
4.5111513 -15.908941 39.752499
0.49301082 -7.9880838 39.752499
11.235348 -2.627454 39.752499
-0.11011112 -6.83815 39.752499
14.248023 -17.017612 39.752499
7.7189794 -16.28064 39.752499
6.0453796 -20.294025 39.752499
2.8455195 -19.238535 39.752499
8.1300259 -12.133573 39.752499
-1.4563133 -2.7553415 39.752499
-3.8893318 -11.29749 39.752499
-3.9801095 -0.95708883 39.596298
16.664663 -12.590797 39.752499
1.1417493 -0.08947248 39.596298
-1.6925011 1.3723462 39.596298
-1.8625059 -15.085746 39.752499
-2.1196387 3.1409907 39.596298
0.31275684 2.9631569 39.596298
-2.3955834 -20.714045 39.731747
11.187451 -19.23386 39.752499
0.63450474 -21.743418 39.731796
-6.579915 0.85416555 39.748745
-5.4887848 -3.1901069 39.752499
1.4763187 -8.4001656 39.752499
13.500257 1.7827109 39.752495
13.498247 -0.57127595 39.752499
-4.7413344 -17.047323 39.752499
-1.7991445 -16.035702 39.752499
12.941678 -12.994979 39.752499
8.5365219 -15.161317 39.752499
12.430334 -9.1994867 39.752499
8.4862823 1.799553 39.752499
3.4359591 -0.26712358 39.752499
16.118464 -17.035637 39.752499
16.595606 -0.15750766 39.752499
-1.2420912 -17.599953 39.878517
-2.2196467 4.9556184 39.596298
16.341286 -17.773949 39.752499
-3.1780369 -11.626624 39.752499
16.769768 -17.284361 39.752495
1.2323033 0.13483036 39.71125
16.103752 -11.064334 39.752495
6.3586922 -16.723616 39.752499
-0.5237962 -17.511105 39.822098
-6.0356913 -8.2426825 39.752499
-3.0348024 -3.2361901 39.752499
5.7127318 -16.477568 39.752499
-3.9144182 3.8366833 39.596298
9.0953465 2.5043902 39.752499
-0.55559736 -3.1069212 39.752502
10.608063 2.8669538 39.752499
-2.1036379 -12.657338 39.752499
-4.9512329 -3.0868835 39.752499
-4.3110313 -20.128345 39.73172
9.4489317 -13.833613 39.752499
9.3886051 -12.616509 39.752499
2.15218 -17.494465 39.752499
9.8068647 -19.86161 39.752499
-4.5430217 -4.7225752 39.752499
10.357697 -4.4151945 39.752502
6.5587587 -5.0454893 39.752499
15.002625 1.7360182 39.752499
0.83260769 -5.9146166 39.752499
13.534708 -0.92806339 39.752499
10.34432 -0.52342415 39.752499
1.7137641 -19.080664 39.911777
1.6976233 -6.042273 39.752499
16.058525 -0.48241031 39.752495
-1.0410237 -5.3378334 39.752499
-4.7079444 -3.3569477 39.752502
8.0485573 -13.547577 39.752499
11.173602 -1.7667226 39.752499
15.99513 -8.5947647 39.752499
15.243057 -4.2055311 39.752499
10.883222 -5.3512287 39.752499
13.554734 -5.4514551 39.752502
-3.1225739 -6.8507586 39.752499
-5.3315315 1.1844304 39.596298
-5.5035019 0.56789017 39.866547
5.017724 -2.6985528 39.752499
4.7787924 -7.0535517 39.752499
15.769129 -16.519844 39.752499
9.3178711 -2.6242273 39.752499
3.1493247 -2.5263019 39.752499
1.5675187 -19.912703 39.959
15.958714 -13.469826 39.752495
-0.24708551 -8.971035 39.752502
-4.0207644 -16.215733 39.752499
-4.2180967 0.34575689 39.596298
13.433888 -10.000312 39.752499
3.2720633 -3.28372 39.752499
-4.8146429 0.39844322 39.596298
1.3352813 3.8202567 39.9543
-2.7906363 -15.973316 39.752499
-5.3387589 -0.78385597 39.596298
-4.9169436 -15.735623 39.752499
2.5408139 4.559865 39.752499
9.0764637 1.080224 39.752499
-4.5724316 -12.331493 39.752499
-3.8252451 3.116724 39.596298
5.345634 -13.545892 39.752499
10.001052 2.3836949 39.752499
-1.8974974 -17.32476 39.752499
0.016117215 3.7238731 39.596298
-0.43511504 -4.9732404 39.752495
17.627302 -3.2643855 39.752499
13.764454 -8.4954081 39.752499
-4.6520538 -3.2572684 39.752499
0.30636314 -16.302349 39.752499
9.2171888 -13.239871 39.752499
5.9068971 -13.18535 39.752499
4.3189926 -11.751443 39.752499
2.3345823 -7.0556636 39.752499
-1.2233615 -9.7720175 39.752499
4.0730143 2.5616472 39.752499
4.04491 -4.019341 39.752499
9.759944 -7.4073563 39.752499
9.724061 -0.99725175 39.752499
-5.4067793 -9.9542675 39.752499
3.0252333 -12.138928 39.752502
0.64580232 -8.0678511 39.752499
14.99828 -12.941615 39.752499
2.9265614 -12.79351 39.752499
2.554857 -16.798269 39.752499
14.564075 -12.120402 39.752499
0.76900291 -10.518883 39.752499
15.286345 0.08006978 39.752499
11.074011 -1.6804664 39.752502
-1.4729352 -5.7934418 39.752499
-4.8787327 -7.5667648 39.752502
-6.4061513 0.95086724 39.750813
-1.6230252 -13.911309 39.752499
-3.4116001 -12.468698 39.752499
4.2167773 2.2060518 39.752499
6.6714396 3.1837134 39.752499
15.760316 -0.13853145 39.752499
11.50843 1.1290164 39.752499
4.1922598 -6.9054623 39.752499
-3.30229 1.5620567 39.596298
1.4564555 5.9274364 40.009102
7.4797363 -19.449062 39.752499
6.0316811 -14.300759 39.752495
8.5463114 -3.5846603 39.752499
10.267003 -8.1686344 39.752499
4.6657043 -9.4394321 39.752499
-1.9420941 -6.0607195 39.752499
13.487577 -4.1152363 39.752499
10.824115 2.0848351 39.752502
0.12116459 -6.806457 39.752499
-7.2900033 -1.8759042 39.740303
6.2596893 -2.6115155 39.752499
-3.2137837 -4.62889 39.752499
-0.43343371 -22.163557 39.731777
-2.0729463 -15.374394 39.752499
11.897919 -0.2302599 39.752499
0.85198528 -15.688449 39.752499
7.79284 -7.3563571 39.752499
-7.0711265 -3.1505129 39.742905
15.072005 -0.66966641 39.752499
3.7433939 -8.6629171 39.752499
0.040895462 -11.528962 39.752495
6.9387465 -7.3391089 39.752495
7.9375563 -13.666768 39.752499
16.972652 -4.0394602 39.752499
7.5744004 4.1983089 39.752499
9.5591612 -15.47175 39.752502
0.59883094 5.8201976 39.596298
-5.5272722 0.34106779 39.922653
5.5054893 -18.847097 39.752499
8.9411278 0.14625764 39.752499
-0.46619225 -0.3732138 39.596298
10.483767 -8.9269695 39.752499
2.2731969 -21.799465 39.752499
9.2712574 -16.521124 39.752499
10.171992 -7.0727706 39.752499
-5.2820768 0.844643 39.596298
0.96234632 2.8812678 39.596298
12.36862 -0.21117806 39.752499
1.4033126 0.58131945 40.009098
-1.0873938 -18.572077 39.73177
7.4280519 2.2594693 39.752499
7.8033905 -0.52441001 39.752499
1.0980762 -3.4336398 39.752499
9.9081001 -2.1471574 39.752499
1.5994965 -2.6597164 39.762554
11.461073 -7.2998996 39.752499
0.41504264 -6.584434 39.752499
-2.6001537 -9.8740091 39.752499
14.430359 0.24374461 39.752499
-5.714354 -5.2883539 39.752499
-2.5369561 -1.6596624 39.596298
-6.0441847 -0.1563195 39.972118
7.5621996 -10.406627 39.752499
2.4300086 -14.247397 39.752499
-2.9591446 1.0234725 39.596298
1.7410973 5.8968477 40.009102
8.9525118 -17.549458 39.752499
11.332654 -0.52573967 39.752502
-5.5833445 -6.4387083 39.752499
4.3847308 -14.153245 39.752499
17.147884 -12.337013 39.752499
4.9646087 -15.733719 39.752499
15.476387 -18.141258 39.752499
8.5497837 -19.507996 39.752495
-3.7238145 -3.3917477 39.752499
1.9235899 -10.767881 39.752499
2.0139487 -7.5955696 39.752499
6.4859395 3.9317045 39.752499
-1.1445631 -20.955757 39.731766
17.034266 -5.6036992 39.752499
-4.90769 -1.8650491 39.763046
1.1728299 -4.5218048 39.752499
6.5932879 0.29170251 39.752499
-2.6418443 -6.9365363 39.752499
5.9920015 0.58336306 39.752499
3.9547608 -6.0865631 39.752499
7.1498308 -2.3492823 39.752499
0.90096533 -10.314638 39.752502
15.105842 -3.3308849 39.752499
13.738535 -10.605425 39.752499
16.727018 -10.742656 39.752499
3.5248237 -9.4699087 39.752502
8.5731888 -13.929122 39.752499
8.1523027 0.22473025 39.752499
4.2743683 2.4186172 39.752499
8.6371164 -16.402088 39.752499
0.032346547 2.4497552 39.596298
3.9587896 -3.6610365 39.752499
14.913405 1.8081229 39.752499
15.41317 -13.335277 39.752502
1.2112446 -0.55285168 39.661549
14.63338 -16.333755 39.752499
1.0811006 -10.48759 39.752495
-7.2623162 -1.8623501 39.740631
13.83915 -1.2607771 39.752495
11.699574 -10.840648 39.752499
3.4755793 2.1415715 39.752499
0.76348484 -7.6620674 39.752499
-5.3672614 -3.9449368 39.752499
6.811223 0.20152688 39.752499
-6.8767285 -1.5397248 39.745216
3.8224592 -10.008338 39.752499
1.0681626 -14.37949 39.752499
-6.258153 -9.0109844 39.752495
2.9797654 -15.080731 39.752499
16.577267 -1.7803575 39.752499
-1.6344228 -8.472086 39.752499
9.1252403 -0.71961749 39.752499
10.616423 3.0168011 39.752499
8.0552521 -5.59062 39.752499
2.3453698 -16.467062 39.752499
1.8646247 3.3949566 39.94635
4.3031478 -2.5972641 39.752499
14.679254 -1.7638059 39.752499
5.3683357 -19.407154 39.752499
12.529993 -13.367946 39.752499
9.7157612 -8.1940022 39.752499
-6.2677445 -0.26511729 39.752464
-5.4584489 -5.2615433 39.752499
-0.99401295 2.5086749 39.596298
10.328003 1.7369962 39.752499
3.3536985 2.1209202 39.752499
-3.5465698 -12.013209 39.752499
16.159805 -12.969181 39.752499
-4.2547379 0.61530554 39.596298
0.3270551 -17.506248 39.819016
0.29953158 -1.9061273 39.860001
8.8870068 -0.23272908 39.752499
16.725376 -5.8172326 39.752502
-6.8658028 0.40357572 39.74535
-3.8228652 -6.0573602 39.752499
-6.0365796 -9.9499464 39.752499
-0.75832951 -22.664543 39.731773
4.2126141 -4.6163692 39.752495
11.276654 -15.091218 39.752495
4.7116299 4.4209423 39.752495
-5.7173815 -12.29393 39.752499
-3.538904 -7.1317997 39.752499
3.4160957 -9.6897354 39.752499
10.377199 -12.909015 39.752502
10.783013 -10.368905 39.752499
-2.4723701 -0.2882089 39.596298
1.040113 -22.445137 39.899826
10.059717 -4.3115106 39.752495
3.4729819 1.4015306 39.752499
-2.8265057 -17.574198 39.862164
11.839479 -16.48316 39.752499
8.9110374 -2.828347 39.752499
16.128761 -11.228354 39.752499
12.942924 -3.6664419 39.752499
11.758254 -15.250825 39.752499
10.944834 -8.9060888 39.752499
7.3973737 -11.962156 39.752499
-2.296942 1.695852 39.596298
10.65005 -10.533693 39.752499
-3.5303102 -19.381365 39.731731
-5.4731154 -15.031228 39.752499
11.50509 -5.1098375 39.752499
-5.5365229 -6.9728098 39.752495
5.6446242 -9.5137405 39.752499
-5.4656868 0.83597934 39.777298
0.30089608 -5.2450924 39.752499
-5.1680303 2.6493487 39.596298
4.931663 -18.38798 39.752499
5.8125424 2.5148315 39.752499
-0.36945802 1.4103642 39.596298
9.4603624 -18.88283 39.752499
-1.575227 -22.421844 39.731758
17.127464 -5.5647712 39.752499
6.9579902 -1.7949278 39.752499
-2.854044 -20.263685 39.731739
9.0443468 3.4643588 39.752499
10.779919 -7.5220828 39.752499
-6.4620948 -2.4729326 39.750145
13.720268 -1.4850999 39.752499
1.8365475 -2.2600632 39.974346
6.2392545 -13.263804 39.752499
11.305306 -12.428047 39.752499
16.635223 -16.752117 39.752499
-3.3293097 0.52354276 39.596298
2.2852869 5.7682047 39.752499
3.4773681 3.2344124 39.752495
-2.5318182 -15.169823 39.752499
10.725742 -14.209111 39.752499
0.070120245 -6.7721419 39.752499
3.9096861 -5.8392143 39.752499
13.285961 -7.5493107 39.752499
4.3224931 3.0562863 39.752499
-2.160984 0.99597406 39.596298
16.020723 -9.8514595 39.752499
10.28517 -17.438858 39.752499
0.56161726 -3.6900601 39.752499
-1.6429536 -15.651617 39.752499
2.0894477 4.9708791 39.752495
-2.9423306 1.374077 39.596298
9.116374 0.52538371 39.752499
5.8944631 -6.6833572 39.752499
1.3819175 0.56716716 40.009102
6.266571 -18.465553 39.752499
8.8741131 -7.3011236 39.752499
12.550785 -12.758193 39.752499
-5.3081026 -8.1530256 39.752502
8.3954077 -0.8597753 39.752499
12.207747 -1.7734772 39.752502
16.224909 -10.709717 39.752499
12.157874 -4.7868099 39.752499
-1.4673611 -5.3192511 39.752499
-4.6882834 -19.069118 39.731712
16.421213 -8.1685762 39.752499
8.0582447 -2.1663632 39.752499
-2.8425574 -0.31210124 39.596298
0.75550699 5.7268319 39.596298
16.541958 -2.4862688 39.752499
-3.6776056 2.8701282 39.596298
7.671731 -15.664593 39.752499
15.785668 -16.077276 39.752499
12.848866 -11.043283 39.752499
1.3524102 -1.3054255 39.994728
5.5851903 2.645577 39.752499
4.7748909 4.6990824 39.752495
-5.9802947 -10.089429 39.752499
9.6273479 -9.6180716 39.752499
13.919701 -13.026471 39.752502
3.6549137 -11.630419 39.752499
1.3861436 -17.061436 39.752499
0.59073818 -1.8965788 39.837463
-1.4015759 -7.2494822 39.752499
-6.0037065 0.072528929 40.009102
0.43419915 -21.479868 39.731792
13.56554 -16.286562 39.752502
6.1917057 -9.1241293 39.752502
3.2560744 2.4512413 39.752499
-2.4901919 -17.712559 39.95002
15.103963 -14.048913 39.752502
1.3997655 -11.668628 39.752502
8.234808 -7.8504004 39.752499
14.494829 -16.745235 39.752499
14.944018 -5.6251621 39.752499
3.8979118 1.3044014 39.752499
-2.783884 -20.991703 39.731739
-5.1094561 -12.191411 39.752499
-4.6427121 -7.6507521 39.752499
2.05373 -15.666306 39.752499
-0.23065817 -10.678728 39.752495
10.936073 -8.1071424 39.752499
5.4999733 -3.39744 39.752499
13.026302 -12.351871 39.752499
0.54771918 -20.429581 39.731796
16.538786 -16.572763 39.752499
1.3847779 1.0155638 40.009102
-4.9314013 -3.7330494 39.752499
8.2507362 -2.8201492 39.752502
-3.2309387 -2.6082549 39.813881
-0.44276953 5.5189366 39.596298
-4.6647568 -4.9717975 39.752499
10.845448 -1.2823309 39.752499
0.40287656 -6.7474704 39.752499
-0.34706277 1.504241 39.596298
-5.0137825 -6.9507012 39.752495
3.9842019 -6.9094191 39.752499
-1.905648 -19.02631 39.731754
-4.0557275 -10.177431 39.752499
-2.8451018 -8.0638695 39.752502
-6.5692377 -6.4257574 39.748909
5.841239 -17.764492 39.752499
12.131812 -4.8855801 39.752495
11.399698 -7.9856019 39.752499
9.7954006 0.61961055 39.752499
11.596927 -2.8586922 39.752499
8.2615147 -3.5860994 39.752499
6.6490817 -17.350134 39.752499
6.9547644 3.995429 39.752499
-0.59583127 -21.250278 39.731777
-2.4010992 2.7946186 39.596298
3.2499647 -7.9824381 39.752499
3.3982532 0.18743038 39.752499
-6.5782547 -7.5245409 39.748814
0.2665413 -17.879047 39.959
17.078333 -17.79785 39.752495
0.62583166 1.6624613 39.596298
13.233047 -1.4990389 39.752502
3.3832262 0.9520216 39.752499
8.5229645 1.5988972 39.752499
3.6593804 -2.6283813 39.752499
-1.4841015 -7.1554031 39.752499
8.7300119 -3.6537538 39.752499
17.296515 -10.376565 39.752499
-4.7034035 2.3847752 39.596298
6.9603806 -18.994215 39.752499
2.160486 -13.60477 39.752499
14.276257 -13.595884 39.752499
-0.8178913 -6.7555051 39.752499
13.219622 -2.8836637 39.752495
-3.1682625 2.8874741 39.596298
-2.1841965 -8.7379732 39.752499
10.96294 -10.743835 39.752499
-5.9387798 -3.4701438 39.752499
12.551568 -14.286062 39.752499
12.511208 -9.5458956 39.752499
-4.6384287 -12.039094 39.752499
-1.7126651 -16.119785 39.752499
1.2328439 -21.542061 39.959
1.8912177 -16.817816 39.752499
-0.3959192 -8.5186939 39.752499
0.68461025 1.510251 39.596298
11.617821 -1.9340494 39.752499
17.498447 -4.6635389 39.752499
13.124681 -7.0234966 39.752499
10.631104 -11.38493 39.752499
-3.6383018 2.7604282 39.596298
-0.16106391 -13.204344 39.752499
5.186923 -21.592518 39.752499
-5.3073092 -12.672278 39.752499
4.6231709 1.0379567 39.752499
1.3215413 2.8175592 39.921871
6.0327873 3.9943857 39.752499
7.2520094 -10.394869 39.752502
10.504072 -7.5777206 39.752499
-0.68513912 -9.3519945 39.752499
-1.2209623 -0.71260279 39.596298
-6.0890112 -5.037467 39.752495
3.4667571 -0.35807514 39.752499
-2.0378361 1.2487757 39.596298
-0.57266927 -18.967211 39.731777
13.503347 -16.125082 39.752502
7.1534224 -0.40160561 39.752499
-5.6765604 0.81566691 40.009102
13.363544 -9.9129028 39.752499
4.3375516 -11.752225 39.752499
16.589403 -15.506088 39.752499
-2.9783111 -13.39482 39.752499
5.4050579 -18.844019 39.752499
-5.1579905 -2.3794832 40.009102
14.715853 -0.31961131 39.752499
3.2393172 -15.841456 39.752499
-7.2841625 -1.2456464 39.740372
7.4771843 -18.612003 39.752499
-0.8132953 5.677742 39.596298
16.215715 -2.4271111 39.752499
5.1401362 -2.7392557 39.752499
2.9152303 2.2277496 39.752499
-4.1075053 1.028623 39.596298
0.12270999 -8.0215101 39.752499
-2.8211856 -5.0263309 39.752499
11.423369 -2.3033304 39.752499
3.3816803 1.9161119 39.752502
5.0046411 -16.898201 39.752499
16.91778 -8.6759739 39.752499
12.294724 -12.709257 39.752499
-6.2348514 -4.3565125 39.752499
0.62938857 -11.532173 39.752499
-1.8091565 -20.363405 39.731754
13.151816 -5.954082 39.752499
2.6859393 5.7567 39.752499
-2.241982 -9.5468788 39.752499
11.288283 -14.920884 39.752499
-4.2203717 2.8188207 39.596298
17.611469 -3.0930305 39.752499
8.8547907 -3.5865717 39.752499
12.402358 -13.713937 39.752499
13.376539 -8.9648504 39.752495
-3.7658877 -11.163819 39.752499
-4.5540566 1.3130084 39.596298
16.669083 -16.621283 39.752499
7.4807053 -12.768147 39.752499
14.95143 -12.561456 39.752499
11.293814 -15.555651 39.752499
0.49991888 4.2492557 39.596298
10.018777 2.5792096 39.752499
-3.2164373 -1.8736262 39.783291
12.264782 -16.743441 39.752499
4.5754056 -21.47217 39.752499
10.76709 2.1660008 39.752495
0.17447956 -19.027401 39.731792
-0.36093518 -16.782421 39.752499
0.72032171 -15.496489 39.752499
8.1626663 -20.492203 39.752499
3.2550819 -6.6260548 39.752495
13.355012 -13.547002 39.752499
-2.2616134 -15.938366 39.752499
7.9745607 -0.95194256 39.752499
5.6358008 -13.865088 39.752499
4.6871891 -18.021425 39.752499
6.2330537 -16.69507 39.752499
1.8966756 -14.902194 39.752499
4.0251179 -16.594414 39.752495
-4.9857783 -3.017601 39.752499
12.497583 0.77903271 39.752499
2.3277955 -22.276091 39.752499
-3.326395 -9.1255522 39.752495
-4.9069538 -5.8928566 39.752499
7.0751715 -12.004788 39.752499
5.8475547 -1.128446 39.752499
9.6283112 -8.8160906 39.752499
-3.4582329 -18.387089 39.828575
13.853859 -18.029793 39.752499
16.960598 -11.27725 39.752495
4.7978377 2.6522989 39.752499
-0.89292556 -3.1969295 39.752499
-3.0825136 -20.179918 39.731739
3.6227031 -9.411767 39.752499
14.036683 1.6293049 39.752495
12.361345 -7.0899363 39.752502
6.6653185 -16.68638 39.752502
1.1232482 -14.328504 39.752502
-2.3754361 -6.3078389 39.752499
2.1092012 -6.8449144 39.752499
-4.9774261 -6.5423875 39.752499
1.307209 -6.4602175 39.752499
-1.493565 -0.54337662 39.596294
-0.36549947 -3.8887258 39.752499
-0.21933281 -8.4397268 39.752495
5.7743306 -6.8887959 39.752499
9.8388138 -16.998346 39.752499
9.809824 -12.41956 39.752499
5.344924 -9.604373 39.752499
4.3003511 -10.640942 39.752499
-3.714741 -9.8149996 39.752499
-4.070488 -3.9142346 39.752499
8.000596 -6.2775135 39.752499
0.40278876 -2.1533573 40.009102
-4.6516891 -10.033233 39.752499
-6.4497204 0.47144598 39.750294
16.257286 -6.0830398 39.752499
1.3621767 -9.9492722 39.752499
-0.67996466 -15.21418 39.752499
10.352933 -6.6271462 39.752499
9.3427534 -18.852089 39.752495
8.5844212 2.7603874 39.752499
12.349925 2.0944846 39.752499
-5.3874912 -15.540608 39.752499
-3.0623782 -2.4346867 39.986977
4.496995 -2.4957807 39.752499
1.6875538 -14.742588 39.752499
9.7642174 -4.4390612 39.752502
-4.5827885 -14.14508 39.752499
-4.1997461 -14.952565 39.752499
16.698402 -5.8928895 39.752502
3.7370586 -20.132751 39.752499
-1.8362811 -16.319914 39.752499
-2.0658016 -3.9907866 39.752495
16.89374 -12.484304 39.752499
3.3826427 0.82563841 39.752499
1.1667354 -16.465704 39.752499
-5.4601688 -1.0428935 39.764275
1.2907063 1.2402072 39.849091
-3.9997838 -9.8300924 39.752499
5.609519 -13.388138 39.752495
16.420408 -7.5091929 39.752499
7.0006337 -3.5569515 39.752499
-0.48208338 -22.692154 39.731781
-2.624161 -12.06941 39.752499
-7.5937414 1.1686056 39.736687
0.72206199 -22.758438 39.731796
9.3116999 -1.3103544 39.752499
-4.7379379 -9.4872942 39.752499
5.9088526 -13.201633 39.752495
16.514996 -14.808639 39.752499
7.8587389 -3.0149074 39.752499
6.7081299 -4.1925402 39.752499
15.363257 -5.0784979 39.752499
2.4259157 -18.61075 39.752499
-4.9856114 -6.2385902 39.752499
1.0330276 -20.274546 39.891571
-3.6963458 -13.820934 39.752499
5.3403678 -10.598225 39.752499
-1.2395374 -12.195945 39.752499
12.552345 -2.1546366 39.752499
-4.0869155 -9.9302893 39.752499
6.5206623 -0.85525143 39.752499
0.3187426 -22.24815 39.731789
-0.94627661 -17.781559 39.959
3.5307658 -20.224489 39.752499
8.8011084 -20.206007 39.752499
8.9288712 -19.545485 39.752495
15.015873 -2.6688554 39.752499
16.915674 -4.414145 39.752499
6.1049776 -7.0534954 39.752499
6.8466311 2.4975419 39.752499
-6.5839438 1.0065538 39.748699
-3.2725339 -3.7722039 39.752499
-4.2669606 -0.15195906 39.596298
-5.658936 1.1530737 40.009102
1.0982602 2.2103615 39.596298
-5.0172544 -12.314781 39.752499
-0.72441202 -20.916904 39.731773
4.8601627 -12.45169 39.752499
14.492384 2.2225308 39.752495
-7.5969286 -2.441829 39.736649
11.625967 -10.013107 39.752495
9.1809835 0.89909875 39.752499
-2.5868208 -11.289083 39.752499
-4.7075572 -10.198641 39.752499
13.660479 -16.12187 39.752495
1.540128 0.10559952 40.009102
3.9963326 -6.856781 39.752499
3.7490497 -13.549734 39.752499
10.276511 -12.358207 39.752502
16.631214 -10.789623 39.752502
15.890314 -10.503294 39.752502
-2.8029211 -7.4421906 39.752499
0.28152823 3.0632951 39.596298
-0.17807817 -5.615901 39.752499
6.0945697 -17.770781 39.752499
0.48035067 -0.091385536 39.596298
16.212212 -10.275059 39.752499
2.809474 -7.1667757 39.752499
2.8860064 -5.7371602 39.752502
3.4235592 -8.9381638 39.752502
9.4381008 -7.7499042 39.752499
2.5916815 -6.7888422 39.752499
0.035177767 -1.5900127 39.596298
-2.4081993 -15.164226 39.752499
1.4115632 5.7773409 40.009102
4.1697035 3.9211903 39.752499
4.9145818 4.0061455 39.752499
-4.6768479 2.6734877 39.596298
6.7741823 -17.095129 39.752499
6.99964 0.17934394 39.752499
14.837974 -14.964417 39.752499
12.661177 -13.316488 39.752499
9.9800797 -1.1387297 39.752499
-2.702477 -8.3336382 39.752499
6.1302681 -9.2996387 39.752499
2.1933126 0.07874155 39.752499
-4.3727641 -1.8419173 39.70845
6.2056742 -12.239182 39.752499
-4.0720229 -17.904484 39.959
16.312199 -6.7266483 39.752499
-2.7970777 -15.245945 39.752499
16.47765 -12.566689 39.752499
12.190767 -19.181498 39.752499
1.0014417 -1.8683383 39.770813
2.5184045 2.673213 39.752499
2.0659671 -21.793724 39.752499
15.837824 -18.649483 39.752499
-3.3145921 -7.2374315 39.752499
-2.3442354 -7.8261046 39.752499
9.2566023 -9.7110071 39.752499
3.9641244 -13.698419 39.752495
1.2900634 -22.583475 39.959
16.455103 -16.463003 39.752499
9.6071758 -9.5508928 39.752499
6.4978485 1.7841665 39.752499
2.8308632 -15.941389 39.752495
15.96748 -4.915484 39.752499
6.3320704 -3.5286102 39.752499
2.2897997 -1.548939 39.752499
1.9854329 -19.835533 39.752499
-5.8672085 -12.588717 39.752499
-0.96208692 -5.7587795 39.752495
4.3207884 -2.0962341 39.752499
7.9613695 -16.282227 39.752499
16.791662 -11.124118 39.752499
11.949422 -18.038904 39.752499
-5.3212657 -1.5402486 39.596298
12.209524 -13.988945 39.752499
-1.2042153 -13.382649 39.752499
12.730986 -7.6224084 39.752499
7.9540977 -14.791731 39.752499
6.4188967 -13.724825 39.752499
9.4935179 -19.325756 39.752499
-6.5046024 -2.3538601 39.749641
9.8209934 -17.129723 39.752499
-2.2290163 -18.940285 39.731747
-3.3790038 -20.413795 39.731731
11.873572 -2.8103938 39.752499
14.667108 -7.284266 39.752499
15.199735 -15.270839 39.752502
10.808069 -2.6663966 39.752499
12.428448 -0.79647136 39.752499
-1.1550558 -7.9066763 39.752499
13.475164 1.4259264 39.752499
3.1017179 -7.0312123 39.752495
5.7803326 -17.640556 39.752495
14.729902 -5.7255764 39.752499
0.4008913 -12.193372 39.752499
0.06512171 -10.317825 39.752499
8.8351364 -12.26556 39.752499
14.945359 -13.949886 39.752502
9.5559492 -0.18025303 39.752499
14.783567 -6.5633869 39.752499
-3.8960469 -14.270256 39.752499
-1.5224254 -9.792367 39.752499
4.1194582 -17.959461 39.752499
11.194189 0.29435658 39.752499
10.71921 -7.5525799 39.752499
-0.39261109 -19.204472 39.731777
-0.19082826 -0.039101809 39.596298
0.48255146 5.8314929 39.596298
16.891867 -0.56708467 39.752499
9.9447184 -0.43413186 39.752499
14.978222 -11.200218 39.752499
-0.066600412 -21.943014 39.731781
17.695599 -1.0946256 39.752499
14.238641 -16.034405 39.752499
15.592207 -5.0017171 39.752495
5.692019 -20.807972 39.752495
-2.7380085 -13.853852 39.752499
16.550259 -10.533945 39.752499
-1.1558993 -13.770252 39.752499
6.5962691 1.3376286 39.752499
9.4084806 -5.7531662 39.752502
2.4846642 -1.4343901 39.752499
-0.44729757 -4.1431594 39.752499
3.6482151 -1.6157795 39.752499
10.052774 1.9777381 39.752499
-3.6522534 -4.0084419 39.752499
9.3973894 -1.2099626 39.752499
-4.446979 0.083156705 39.596298
5.6517253 -10.892135 39.752499
-3.6324275 0.77906525 39.596298
-0.82899457 -1.7757807 39.596298
0.2961356 -0.88452917 39.596298
16.798838 -12.181044 39.752495
-2.2369196 -7.8147211 39.752499
5.1474013 -17.356955 39.752499
10.984998 -0.30135751 39.752499
6.1244388 -9.8895969 39.752502
7.6486535 -17.958118 39.752499
6.9459038 -20.29908 39.752499
4.735127 -20.41403 39.752499
9.1736774 -19.826431 39.752502
3.6190538 -6.5062456 39.752499
-0.24247289 -0.53070521 39.596302
13.840768 -4.0007586 39.752499
10.386265 -6.2241635 39.752499
1.7494559 0.61446846 40.009102
2.517556 -14.772659 39.752499
3.3111243 -20.513155 39.752499
0.75607711 -17.044901 39.752499
15.331207 -12.789829 39.752502
11.389156 -3.4824429 39.752499
-4.7815967 0.23118508 39.596298
-0.31021535 -13.93128 39.752499
0.046779454 -7.1422443 39.752502
0.96931142 5.5418949 39.596298
1.9438355 -5.6008019 39.752499
-0.8297956 -22.869505 39.731773
-4.2289295 -0.90960187 39.596298
1.5295246 -15.177783 39.752499
4.3244443 -3.2569275 39.752499
10.438138 -3.3027468 39.752499
12.327398 -9.5605698 39.752499
-5.4936152 -1.4998477 39.843216
15.254445 0.73263741 39.752499
9.5873671 -2.1603031 39.752499
-1.3090615 -6.8889008 39.752499
17.341438 -3.878207 39.752499
16.801964 0.84104323 39.752499
0.38177466 -9.8425131 39.752499
2.1777756 -16.021265 39.752499
-1.6329824 -9.8505802 39.752499
16.559116 -6.1811862 39.752499
8.8244343 -13.911373 39.752499
-5.2120285 -16.873909 39.752499
9.7244473 -7.7574892 39.752499
16.404381 -18.269703 39.752495
5.7156777 -15.110838 39.752495
-2.8821414 -10.347811 39.752499
3.7431366 -13.232059 39.752499
2.0456221 -16.403677 39.752499
3.9324849 -12.338422 39.752499
-3.519527 -16.656836 39.752502
5.284739 2.3953676 39.752499
-6.0055971 -11.902472 39.752499
-3.7035849 -21.539959 39.731728
-1.302995 -3.7424686 39.752499
5.7891378 -17.344713 39.752499
15.895905 -14.599377 39.752499
9.7042007 3.6561575 39.752499
8.4507866 0.21767545 39.752499
2.8588619 -14.112741 39.752499
13.062431 -5.3340406 39.752502
0.19138411 -19.56148 39.731785
12.731274 -6.6095085 39.752499
-2.1708825 -10.310968 39.752499
7.2063947 -0.94011271 39.752499
15.822577 -18.811489 39.752499
5.8831367 4.3056312 39.752499
4.1801195 -11.868349 39.752502
6.3431392 1.9010726 39.752499
15.027439 -2.8645911 39.752499
2.6676161 4.8496771 39.752499
-7.1788344 -1.6958015 39.741619
-2.5545425 -0.87517977 39.596298
9.1864109 -7.2718143 39.752499
13.783824 -16.317591 39.752499
6.3370047 -7.2161951 39.752499
-0.9758774 2.7586951 39.596298
-4.733077 -1.8549678 39.739254
7.755414 -7.3562565 39.752499
6.4092903 3.6682315 39.752499
-4.0797024 -12.229274 39.752499
6.3310118 -5.6203113 39.752499
-1.4775409 0.63415152 39.596298
5.3173513 -4.3363051 39.752499
12.614707 -18.130365 39.752502
7.5193253 3.7007418 39.752499
2.1338408 -10.546437 39.752499
-2.9103849 -6.3022385 39.752499
12.772242 -9.6561947 39.752495
8.2496958 -17.583485 39.752499
3.7759218 -8.4800215 39.752499
8.4667492 -18.482029 39.752499
-4.2927127 -10.824091 39.752495
11.804245 -18.510435 39.752502
8.0643377 -0.60312891 39.752499
8.3397598 -0.38982165 39.752499
8.4823484 1.6353444 39.752499
14.557775 -4.5737295 39.752499
5.3761296 0.043992281 39.752499
5.3409705 -2.6290138 39.752499
-5.0439234 -3.0741374 39.752499
6.5682125 -10.13551 39.752499
0.10301263 -19.308329 39.731785
5.1564465 -10.098687 39.752499
0.14201981 6.1391416 39.596298
11.944085 -8.0875225 39.752499
-4.9252739 -18.449953 39.755299
12.113414 -1.7057869 39.752499
-2.6773226 -22.254639 39.731743
8.8259258 -3.3968282 39.752499
5.5880542 2.664655 39.752499
3.2905509 -14.066486 39.752499
16.608589 -18.049887 39.752499
3.9324806 -19.570177 39.752495
13.221999 -3.8272986 39.752499
3.9559155 -6.8109469 39.752499
5.4607458 4.3508129 39.752499
4.5724096 -6.4363871 39.752495
12.464776 -6.8614726 39.752499
16.164404 -2.6730845 39.752499
7.1636543 1.3033201 39.752499
13.371291 -4.4605227 39.752499
12.741306 -18.237368 39.752502
11.646145 -8.9471483 39.752499
-0.16931781 -18.823177 39.731781
8.1156473 2.0752234 39.752499
-4.3250666 -12.914514 39.752499
8.1704283 -16.257147 39.752495
6.810029 -8.3178387 39.752499
13.998454 0.4874146 39.752499
13.357516 -5.0546679 39.752499
10.651965 -2.5056691 39.752499
-6.5598068 -2.8138657 39.748989
6.2197881 -6.6876717 39.752499
-5.0489197 -9.2211294 39.752499
-3.7132616 -3.4870954 39.752499
-0.96119517 3.9162993 39.596298
-4.6630154 -5.5266666 39.752499
-5.4638519 1.8734334 39.772968
2.7416487 -12.769714 39.752499
-2.2310965 0.95195436 39.596298
13.93749 -12.835316 39.752499
13.469976 -10.098391 39.752502
1.6216428 -7.3644876 39.752499
0.59046113 3.2961547 39.596298
7.1143341 4.431366 39.752499
2.6082776 -20.85866 39.752502
5.2684126 -20.245842 39.752499
10.396105 -7.281013 39.752499
-2.8589997 -1.8505375 39.728794
0.3983413 -10.61656 39.752495
0.048895419 -7.1914449 39.752499
0.56807482 -2.6685917 39.7537
11.811241 -11.39639 39.752499
-6.5116467 1.3298153 39.749557
4.8437924 1.8449061 39.752499
7.6773863 0.3083477 39.752499
14.223948 -3.3243768 39.752499
8.8821449 -5.449368 39.752499
-5.7377067 0.92714489 40.009102
14.62467 1.1335125 39.752499
10.900448 -18.924133 39.752499
7.2256751 -18.61808 39.752502
10.578319 -19.592426 39.752499
-3.3171406 -10.89005 39.752499
11.702806 -18.053419 39.752499
8.9332533 -20.534378 39.752499
14.717485 -0.087785006 39.752499
-3.8634026 -5.4332294 39.752495
3.9306424 3.0495381 39.752499
2.5355811 -18.536873 39.752499
8.4394064 -16.536507 39.752499
16.63076 -4.3042583 39.752499
-7.2273607 0.2722494 39.741043
13.684206 -14.318913 39.752499
12.089782 -0.66387689 39.752502
11.744077 -0.30068982 39.752499
15.228832 -15.261519 39.752495
-3.0411325 -14.88551 39.752495
2.8699048 -14.0948 39.752495
9.7591143 -7.5919943 39.752499
12.153736 -15.379423 39.752499
11.639492 -8.5579062 39.752499
16.991264 0.58109832 39.752499
0.941872 -9.1916065 39.752499
-1.7413268 5.1082082 39.596298
4.0668321 -16.858252 39.752499
9.4786129 -17.439926 39.752499
-2.5394065 -17.99366 39.959
3.5540018 2.2319806 39.752499
-5.8374996 -12.884048 39.752499
-2.7238894 -7.6180277 39.752499
-1.3397702 -16.627213 39.752499
4.6503534 4.6244178 39.752499
13.785441 2.1384482 39.752499
4.9318995 -16.893955 39.752502
9.1936321 -5.844182 39.752499
6.0134788 -19.586832 39.752499
14.766987 -9.0969534 39.752495
5.9064775 -0.71849346 39.752499
11.353063 -13.205699 39.752499
-1.7810639 -3.7041378 39.752499
12.501135 -12.085309 39.752499
0.43806237 3.162339 39.596298
-2.7744095 -4.1606917 39.752499
14.296389 -17.666788 39.752499
12.842985 -4.3489418 39.752499
12.71497 -9.6235971 39.752499
13.263536 -5.8213921 39.752499
13.693966 -7.1874175 39.752499
9.8927383 -2.8145452 39.752499
15.736651 -0.044309616 39.752499
12.487629 -4.7151604 39.752499
6.6997161 -17.297974 39.752499
16.60322 -13.524663 39.752499
13.419025 -13.829547 39.752499
0.71420717 -6.273766 39.752502
2.4480453 -8.1705742 39.752495
13.969809 -6.5110736 39.752502
-3.3558524 -8.6938095 39.752499
-2.2390857 3.7444758 39.596298
0.097174153 -4.9094419 39.752499
3.4451482 -22.064499 39.752502
16.17939 -14.653328 39.752499
-2.0149472 1.9774795 39.596298
12.861454 -19.375565 39.752499
4.3980575 -9.8643751 39.752499
15.834615 -6.3149619 39.752495
-5.1597538 1.413409 39.596298
12.567147 -0.96271312 39.752499
0.71713078 5.3993216 39.596298
7.5009818 -11.343958 39.752499
0.57838523 -8.4639091 39.752499
0.11098564 -19.852825 39.731789
1.4870659 -21.62114 39.959
14.002335 -17.055729 39.752499
-1.8881642 -2.7698674 39.752499
-2.6147592 -3.3823786 39.752499
4.5985637 -15.60349 39.752502
11.300219 -16.879892 39.752499
-5.3662963 -3.6508632 39.752499
4.2984467 -17.434776 39.752499
-1.4740751 -15.643918 39.752499
-2.3520589 -8.2309523 39.752499
2.0279021 -1.6529756 39.783512
-1.8597579 -19.684587 39.731758
16.275358 -8.289176 39.752502
14.435347 -7.0776119 39.752499
6.5470004 -1.9213552 39.752499
17.559673 -0.98736 39.752499
-1.5938262 3.191174 39.596298
4.3948278 -0.40407896 39.752502
2.5652769 -20.315554 39.752499
8.1039238 -5.2383242 39.752499
4.4145079 -12.196557 39.752499
16.65333 0.74002624 39.752499
14.069023 -8.8734474 39.752502
7.2258615 -11.438362 39.752499
7.6024532 -4.6206274 39.752499
-4.988143 -7.8900213 39.752499
7.3369823 2.9306488 39.752499
-5.3218622 -4.3188372 39.752499
-3.4470112 -10.001554 39.752499
1.3574226 -22.603252 39.959
11.13129 -11.142477 39.752502
-1.3259687 -3.8796902 39.752502
0.26245421 -18.964588 39.731789
4.6653852 -10.495304 39.752499
12.777426 -2.9357927 39.752495
8.1449718 -14.740893 39.752499
-2.0347826 -16.113247 39.752499
15.776191 -14.915923 39.752499
9.6139278 -20.412401 39.752499
10.132328 -4.4804974 39.752499
7.9000793 -19.42325 39.752495
13.544497 -14.699332 39.752499
3.0440779 -5.1925392 39.752499
15.135551 -4.8018627 39.752499
-5.7560863 -9.1078043 39.752499
5.1838436 -17.287542 39.752499
14.617748 -3.1066601 39.752499
8.1341438 -11.974679 39.752502
17.053652 -1.8735783 39.752499
-4.0598202 -7.2474737 39.752499
-4.7664204 -12.414569 39.752499
-4.4443107 -20.765635 39.731716
9.8902922 -4.7991652 39.752499
9.2674103 -7.587657 39.752499
11.000308 -3.2443647 39.752499
11.593727 -7.5128021 39.752502
15.987132 -1.1131492 39.752502
3.4653525 -17.172888 39.752499
2.1409881 -5.0480633 39.752499
-0.56065768 -5.9964013 39.752499
10.262482 1.156659 39.752499
14.03656 -7.6412835 39.752499
4.3337021 -20.329416 39.752499
14.816317 -16.806192 39.752502
8.8439531 3.3059065 39.752499
-3.1127353 -16.220839 39.752502
-5.2074022 1.558213 39.596298
0.68912208 -15.315892 39.752499
11.867407 -19.205511 39.752495
-0.3550154 1.6743003 39.596298
16.29233 -11.719653 39.752499
13.137285 -10.910288 39.752499
2.0774755 -21.519188 39.752499
16.954145 -13.295429 39.752499
0.04436487 5.5389519 39.596298
-6.1967754 -0.70182836 39.819939
-0.43289798 0.93314064 39.596298
-3.5243468 2.447639 39.596298
-0.26470289 -17.455709 39.786919
9.6675634 -0.7050693 39.752499
1.1341666 -2.1820011 40.009102
4.6901555 3.6750751 39.752495
14.978371 -10.651359 39.752499
6.8276758 -17.275484 39.752499
-0.73284185 -6.7665071 39.752499
-1.0593054 -17.514198 39.824062
4.9855518 -5.3223767 39.752499
-4.2263212 -12.17021 39.752499
8.4888592 -5.8307672 39.752499
3.3861365 -14.841036 39.752499
3.8136082 2.9823465 39.752499
8.1632681 -19.845932 39.752499
-3.9852254 -17.404058 39.754124
17.713512 1.1779091 39.752499
-7.6777248 -1.3221203 39.735687
-1.940874 -1.003386 39.596298
1.3785039 -3.2159407 39.752499
17.408598 -8.6333475 39.752495
0.69997764 -11.79667 39.752499
0.72173047 -19.679592 39.731796
-2.8589497 -12.885523 39.752499
7.6048117 -9.4976788 39.752499
0.12716183 -16.585766 39.752502
8.7882023 -4.973999 39.752499
6.3121362 -16.175888 39.752499
0.38366807 -12.540621 39.752499
13.156975 -17.736506 39.752499
-4.3781586 -17.942223 39.959
-4.3426361 -3.8778753 39.752499
13.694409 -5.2137814 39.752502
-2.7213638 -20.264008 39.731739
-3.0570009 1.06056 39.596298
8.3063955 1.2299753 39.752499
9.1906357 -5.2267876 39.752499
-6.6948161 -5.0098166 39.747406
-2.4201148 -17.011179 39.752499
9.2412844 -10.923018 39.752499
7.9094439 -5.6421623 39.752499
-1.9168341 5.0918188 39.596298
14.740378 -0.88648272 39.752499
-0.56443769 -15.775179 39.752499
4.8498755 -2.0191648 39.752499
-6.8212099 0.30137187 39.745876
-2.8311868 -0.34043717 39.596298
7.2548399 -2.3328974 39.752499
-3.3423045 -0.78844821 39.596298
10.046807 -4.0999722 39.752499
-1.467731 2.1485217 39.596298
12.977126 -2.0682135 39.752499
-6.0322351 -3.7531652 39.752495
10.268371 0.21490002 39.752499
-3.6414423 -7.905385 39.752502
7.4152632 -15.166442 39.752499
-1.8021517 -15.819035 39.752499
-5.4877291 -3.7703967 39.752499
15.142553 -12.647483 39.752495
-3.1277413 -13.528374 39.752499
2.5047572 -4.12432 39.752499
0.12234187 -11.303137 39.752499
11.536474 -10.462685 39.752499
15.228825 -4.8044291 39.752499
-4.0935707 -0.99125874 39.596298
-2.5015872 2.2889819 39.596298
2.1219018 0.95537877 39.752499
0.7567513 -11.815119 39.752499
11.938343 -8.2156601 39.752499
10.598055 -0.90303636 39.752499
15.631234 1.7281098 39.752499
13.45825 -5.4034052 39.752499
-0.11366524 -3.8044839 39.752499
-0.40274835 -11.740523 39.752499
-2.1166918 -0.70313728 39.596298
12.479855 -11.698534 39.752499
1.5367253 -10.991426 39.752499
15.768729 -0.035914421 39.752499
-2.2272811 -6.857028 39.752499
1.2314128 -0.2992394 39.709145
3.5610352 -0.72951388 39.752502
16.317587 -8.5686932 39.752495
2.7395453 -14.101885 39.752499
11.832775 -19.353178 39.752502
15.598845 -7.701983 39.752499
-1.7230471 -14.518922 39.752499
5.2465878 -21.164955 39.752499
8.1523972 0.070181608 39.752499
-3.4897559 -9.426321 39.752502
-0.4217732 -10.902833 39.752499
-2.0085976 -21.212101 39.731754
10.438547 0.06014061 39.752502
15.422682 -14.278255 39.752499
2.3224978 3.600141 39.752499
-1.7891961 -20.175404 39.731758
-0.85700011 -11.826937 39.752499
-0.63969105 -4.2925749 39.752499
14.070143 -18.453396 39.752502
13.480743 -2.6782286 39.752499
-4.5018182 -13.986936 39.752499
-2.891489 -3.9220252 39.752499
9.7727613 -1.3870727 39.752502
7.6342731 -1.0145729 39.752499
13.866407 -5.5514975 39.752499
-3.841553 -6.551651 39.752499
-0.63136649 -8.5590668 39.752499
-1.3136879 -11.647622 39.752499
9.9019899 -11.463104 39.752502
16.987713 -2.2349362 39.752499
16.08032 -1.8114064 39.752499
12.939698 -2.4293051 39.752499
13.529018 -5.3768158 39.752499
12.245673 -7.5722914 39.752499
1.7727365 -16.765844 39.752499
-6.0596905 -2.8137698 39.752499
3.1388717 -14.710727 39.752499
6.187396 -19.79817 39.752495
14.546222 -15.60993 39.752499
10.104999 -15.825582 39.752499
1.8414639 -2.4012187 39.969448
14.794259 -11.704516 39.752499
1.6878188 -14.153753 39.752499
16.327358 -4.6717119 39.752499
2.4469435 -15.38799 39.752499
-3.5534449 -1.9385576 39.936543
12.334328 0.69133902 39.752499
3.3790858 -21.159645 39.752502
10.63359 -18.250431 39.752499
13.487309 -14.858301 39.752499
