# .PCD v0.7 - Point Cloud Data file format
VERSION 0.7
FIELDS x y z
SIZE 4 4 4
TYPE F F F
COUNT 1 1 1
WIDTH 1495
HEIGHT 1
VIEWPOINT 0 0 0 1 0 0 0
POINTS 1495
DATA ascii
-14.490751 -2.4662092 -13.807549
-14.307226 4.0032873 1.3617096
-14.306004 3.3637071 4.7462215
-21.17704 -6.1217127 -3.7759476
-14.30966 5.0767727 -5.399291
-20.951077 -6.1659861 -2.8543611
-14.387909 -6.6552877 -13.880355
-14.1245 6.2250643 -17.089409
-24.45896 -7.8575311 2.1171389
-14.309267 1.5215366 -4.3460407
-14.316214 -5.196579 -15.173889
-22.459202 -7.4357548 2.8466864
-25.702003 -7.4289451 -8.1738186
-26.322075 -7.6066399 -7.1872034
-14.385299 -1.9048983 -11.817098
-21.300335 -6.1955376 -12.147547
-14.307808 -0.22309494 -0.32087517
-14.1245 0.019252777 -13.449236
-17.651489 -6.1806579 -12.093982
-14.1245 7.351018 -11.64204
-14.306629 -2.6062884 2.9173503
-16.874977 -5.7936468 1.5261986
-14.310307 -2.165056 -7.2503452
-14.308859 -0.74366343 -3.2484608
-14.1245 3.9738533 -11.849571
-14.308098 0.67162156 -1.1137912
-24.635416 -7.2127976 -2.4267018
-14.1245 1.4072111 -15.34156
-23.957897 -7.1342592 -1.7567794
-14.305936 4.7388878 4.9548726
-14.313099 -3.4997554 -14.980395
-23.736221 -7.4012856 0.38519859
-16.739574 -5.7180958 1.2744088
-14.314321 3.1313281 -18.345015
-22.644695 -7.4810734 2.8197131
-14.308027 -2.2576299 -0.96207225
-14.219453 10.137308 -12.818224
-20.275074 -6.5745316 -13.572943
-14.345126 -4.2623019 -8.0430794
-14.309937 0.49604344 -6.2422667
-14.1245 -1.3602983 -11.103861
-14.914435 -5.03687 -7.7959828
-15.672831 -6.177846 -12.084698
-14.301558 5.0967698 -17.486917
-14.321417 -2.9954391 -4.5976934
-16.187674 -4.9288039 -7.3889103
-14.415548 4.8211756 -17.535213
-25.509319 -7.3740358 -8.8203382
-19.789867 -6.1137924 -1.1648239
-14.310073 9.554143 -6.5053263
-14.310339 1.5120181 -7.3379755
-14.306623 -2.0809484 2.9461298
-14.311147 7.5650115 -9.5444183
-15.46577 -6.8031607 -14.435543
-18.984848 -6.1039796 -11.804863
-14.311248 -2.5254383 -9.8207607
-14.305653 -2.4174633 5.6354327
-14.307829 4.5465012 -0.30371583
-14.307598 5.769577 0.35466719
-14.306432 -1.0159651 3.4928279
-14.124499 -0.56881642 -15.704475
-14.310874 8.6316519 -8.7915602
-14.305725 3.0272081 5.5160489
-22.512356 -6.511045 -9.0114431
-25.15184 -7.2662358 -3.4776621
-22.967552 -6.6454597 -12.666739
-14.325421 -3.4786625 -9.5066328
-23.67433 -7.79146 3.0564239
-14.339161 -5.479075 -11.962954
-14.1245 -1.0349973 -15.532729
-15.571939 -4.9814997 -7.5874062
-14.305869 -1.2559909 5.0495358
-17.064283 -5.725925 0.86543489
-14.31009 0.8623246 -6.6576443
-14.310668 9.8704386 -8.1877203
-14.354836 -5.2775183 -8.8263454
-14.1245 4.6305132 -11.24357
-23.885406 -7.6488791 1.7504351
-20.406851 -6.6488104 1.2696395
-24.973919 -7.2154927 -4.0297723
-14.1245 9.8271942 -13.529981
-14.317359 -2.952276 2.2256458
-21.726068 -6.6250219 -1.1955507
-14.1245 6.1683035 -12.283636
-14.305625 7.51582 5.8640943
-14.30724 -0.71462238 1.246026
-25.199709 -7.4382124 -1.9336815
-14.31041 1.9256434 -7.5325632
-19.116154 -6.8531971 4.5780916
-15.820004 -5.5092254 1.3418362
-14.311295 -2.7934828 2.7022223
-17.597494 -6.4011598 4.0637751
-14.318318 -4.4050989 3.6632032
-14.310987 7.4408817 -9.1068983
-14.5373 2.2324674 -10.425611
-14.309552 0.06068182 -5.1780162
-14.314419 3.6645353 -18.616863
-20.994223 -6.0718651 -6.8729005
-14.307014 3.9877601 1.9519473
-21.918909 -7.014502 1.0252763
-14.306187 7.8098221 4.3095727
-14.309175 5.923069 -4.0228276
-14.310729 0.88746083 -8.4055691
-14.309495 7.67873 -4.8934717
-14.30698 -1.0670481 1.9706223
-14.308845 3.2350585 -3.1485071
-14.1245 -0.50544822 -16.64291
-14.33171 -3.3252454 0.79926562
-14.314353 1.9976797 -18.43796
-20.063671 -6.7658339 -14.292233
-16.067772 -6.8908925 -14.764958
-14.306055 5.7542458 4.6420326
-14.309411 6.257617 -4.6783009
-16.010817 -4.781024 -3.3050599
-14.30582 2.9469533 5.2522388
-15.79389 -4.5717793 -4.3086619
-25.855949 -7.4689703 -3.4138708
-14.307205 5.8604207 1.4497137
-19.747341 -6.4199696 0.9207654
-21.004019 -7.4692311 5.5335264
-14.306683 6.7044072 2.9091012
-14.310725 8.2561836 -8.3742046
-14.317348 -2.9538698 2.4190519
-14.306069 1.0890591 4.5284438
-14.1245 -0.032262616 -11.164485
-14.316305 -2.9296575 2.8206422
-14.1245 -0.90262902 -17.198122
-14.30831 7.6430049 -1.5910159
-16.411121 -6.1715498 -12.060548
-14.1245 2.7079687 -15.463358
-14.305655 6.8991275 5.7699623
-14.308378 8.7411461 -1.7639487
-23.324789 -6.7451954 -9.1872606
-18.056227 -6.4857464 -13.240622
-14.1245 7.4478407 -11.559546
-14.311241 -1.3943642 -9.8037643
-15.733077 -5.7474394 2.8553236
-14.304586 -5.0314026 3.5134537
-14.306217 1.8825939 4.1316619
-20.798246 -6.2363091 -2.1249518
-14.315641 -4.4800138 3.8531632
-14.310479 -2.0379322 -7.7268114
-22.231201 -6.4307017 -9.7098742
-14.310438 3.4560888 -7.6100059
-14.311129 -0.3166796 -9.4969082
-24.579414 -7.1020784 -4.2597704
-14.306557 2.3710761 3.194345
-14.441238 2.6894743 -17.546099
-14.307659 7.9623361 0.21801639
-14.31013 10.115794 -6.6579003
-25.705132 -7.4268918 -4.9137945
-14.306692 1.3801403 2.8036327
-14.305744 9.6334639 5.5651398
-14.1245 3.8920169 -14.647048
-21.371958 -7.2380266 3.4508128
-17.00872 -5.963048 2.3286302
-14.308615 0.59039426 -2.5475771
-14.310605 5.6926279 -8.0647793
-18.919949 -6.8641348 -14.662514
-14.309643 9.8098202 -5.2821312
-14.26976 5.3239827 -17.473446
-14.306934 -0.34452844 2.1045966
-14.1245 8.9879084 -14.769432
-25.999599 -7.5123787 -5.6600351
-14.1245 5.3715553 -13.12085
-14.309544 2.3334394 -5.1145945
-14.339127 -3.663373 2.9265273
-24.231308 -7.0035009 -6.1159925
-14.314151 -2.7570488 -8.9096527
-17.749512 -5.1919184 -8.3770065
-22.16186 -7.5114756 3.8644853
-14.311083 2.8575802 -9.3674831
-26.769855 -7.7361317 -7.7675986
-14.1245 -0.45210022 -11.774159
-14.316816 -4.0110636 -12.236995
-14.30822 9.4789419 -1.3157264
-20.224556 -5.9042797 -11.053336
-14.425091 4.7457142 -18.159416
-14.305944 9.3470478 5.0054631
-18.338642 -5.3736796 -3.4863577
-14.306058 3.4168236 4.5972672
-22.353258 -6.4671769 -11.168769
-14.529081 -4.5599995 -6.003561
-17.02322 -5.4576612 -0.64438438
-14.347115 -5.5009422 -10.668236
-14.310102 1.2958711 -6.6923685
-14.306795 2.925854 2.5425167
-14.30652 -1.487763 3.2366867
-17.87352 -6.2489414 2.7879033
-20.107048 -6.1400161 -1.5477103
-14.310841 3.5883086 -8.7116394
-14.349263 -3.8775346 -0.10553217
-14.1245 2.6091294 -16.605537
-14.527798 -1.965274 -12.186132
-25.393627 -7.3390627 -6.9962068
-24.956709 -7.8187318 0.99110591
-21.196308 -6.7702074 0.68532109
-14.308002 4.3303566 -0.79125172
-14.311272 2.5102692 -9.886013
-14.306433 -1.1210251 3.4865191
-21.122017 -6.1077948 -5.9055691
-14.1245 5.5064631 -11.331409
-14.328665 -3.1842723 -5.2561498
-14.439061 -6.7206764 -14.126131
-14.312084 -3.247334 -12.156254
-14.308064 0.16633272 -1.0268136
-14.424782 -4.3182392 -3.6626227
-14.310133 -1.3821834 -6.7800202
-14.310005 7.2155046 -6.3476076
-14.310129 6.432097 -6.7117977
-14.1245 4.2422543 -16.684784
-14.310507 4.8282185 -7.799984
-16.644432 -6.1368065 -11.929788
-21.085173 -6.0980749 -6.8895793
-14.307405 0.30190945 0.80994308
-14.306609 -1.1025454 2.997072
-20.915064 -6.3161554 -12.601229
-22.291307 -6.4491382 -10.951972
-14.350676 -3.7977066 -3.1913669
-14.305739 4.2635779 5.4954252
-14.337912 -3.4800088 -0.47683978
-14.307664 2.8596659 0.1285876
-14.5373 3.8464663 -10.542395
-18.414577 -5.5567837 -2.4165254
-23.622953 -6.8262558 -3.8735433
-14.306935 -1.6566758 2.0829673
-14.310558 7.4752836 -7.912271
-14.306284 8.3252468 4.0456214
-14.310349 7.7735863 -7.3134203
-20.257969 -5.8633413 -10.765455
-14.34162 -3.5244479 -6.1712151
-14.315268 -2.8484163 -2.6708879
-24.588715 -7.1068463 -6.5653362
-14.308743 10.129405 -2.7590673
-14.1245 -0.8705315 -17.127113
-14.307579 9.1585016 0.46072006
-19.552929 -7.0211692 4.9478126
-14.32596 -3.9958687 -10.651953
-26.700884 -7.7128754 -4.0244346
-19.968267 -6.9422636 3.9051814
-14.30654 8.7759829 3.342263
-14.310619 1.7780806 -8.1035843
-14.307384 3.0939569 0.90502179
-21.429983 -6.1977186 -7.2579556
-14.449353 5.2999067 -10.701742
-18.071768 -6.7330246 5.3385234
-14.309574 9.9778185 -5.0816679
-14.311295 1.143127 -9.9465446
-14.318214 -3.8579414 -11.634014
-14.306942 5.1644301 2.1673148
-15.769368 -5.8725805 3.5356331
-19.682449 -5.6957617 -8.7535372
-14.327946 -4.4164968 1.6752782
-14.307911 -0.28150296 -0.6076408
-14.348843 -3.8282557 0.20782137
-14.1245 6.2966585 -13.404678
-17.173615 -4.9710898 -6.4405584
-14.308249 5.0624185 -1.4620419
-14.5373 5.5948191 -10.35675
-14.310226 5.2097216 -7.0055208
-14.309114 5.8573551 -3.8535244
-22.167604 -7.6228108 4.5857415
-14.451443 4.6369457 -18.129002
-14.308916 8.5634527 -3.2623034
-14.312958 -3.9406819 -14.602625
-14.1245 0.48905528 -14.257715
-14.1245 -1.4223809 -11.631461
-14.306223 -1.1298507 4.0694847
-14.310347 3.982276 -7.3582048
-14.307015 3.2232547 1.9348103
-14.461433 -0.67718661 -10.696627
-16.060177 -6.1286077 4.6242247
-14.308701 9.6528177 -2.6469121
-23.804537 -7.9523678 3.8854771
-14.306652 6.3469324 2.9913647
-14.335001 -4.1007195 -9.3715372
-14.30555 6.8327112 6.0614676
-25.280144 -7.3058691 -6.4361229
-15.964174 -4.6214952 -5.0499396
-26.794289 -7.7431116 -7.7033796
-14.1245 -1.002589 -17.114834
-19.153358 -5.8954439 -1.4850284
-16.948887 -5.8075848 1.5041323
-14.30771 1.8057187 -0.01702714
-20.891653 -6.0405998 -4.9698987
-14.31008 1.1618389 -6.6313696
-14.1245 8.5368471 -15.63591
-19.902576 -6.9355898 3.9581776
-14.328354 -3.2808039 5.5443354
-17.75705 -5.7927723 0.28441072
-16.419907 -5.6919651 1.5693951
-18.242271 -6.6815066 4.7987628
-14.309778 8.0295315 -5.6934366
-14.305932 5.2828641 4.9760199
-14.307343 7.1414766 1.0858166
-18.371815 -5.7320089 -1.1906943
-14.327068 -3.130717 -6.3259821
-19.091829 -6.1969585 0.60318398
-14.338066 -3.4905491 0.17964125
-14.310755 6.8366671 -8.473877
-20.663063 -6.0979176 -2.7973914
-15.660006 -6.3342528 -12.672677
-14.30917 9.2538767 -3.955215
-18.549086 -5.9227695 -11.123932
-14.1245 4.9743567 -13.465577
-23.95731 -7.7191067 2.0858824
-14.1245 4.9845948 -13.582645
-14.1245 5.661109 -17.299295
-14.313012 -3.8680551 -14.749081
-26.728207 -7.7210522 -4.3635974
-14.311111 4.0501108 -9.4494734
-14.5373 -2.3787074 -11.647659
-14.337172 -3.4775655 1.3252254
-16.007858 -4.7298179 -6.6409903
-16.827559 -4.870183 -5.0748043
-14.521582 -5.2131243 1.4301543
-14.340094 -3.4823697 -6.2649298
-14.1245 4.8646612 -14.07078
-14.307226 -1.3484484 1.2768714
-14.5373 9.4157476 -10.310955
-14.341518 -5.2683687 -11.059734
-14.307386 4.2607951 0.91917038
-14.307338 10.158477 1.144454
-14.307396 -1.4624672 0.80672532
-14.1245 0.43366611 -14.190686
-26.218798 -7.5733447 -3.2688289
-14.313555 -3.1476243 -16.236734
-14.306141 8.7704906 4.4510865
-14.517163 -1.9607682 -13.011484
-14.307637 -1.1846944 0.13897005
-14.309969 9.0076494 -6.2187357
-22.218767 -7.1381044 1.3123537
-21.564936 -6.2375546 -8.3261166
-16.24276 -4.7023749 -5.7604074
-16.521267 -4.7820797 -5.1984501
-14.307336 -0.50911856 0.98661554
-14.310901 0.28333259 -8.8767738
-19.182451 -6.7361431 3.8013673
-21.677223 -6.2687283 -7.0382085
-14.1245 -0.69149375 -13.20538
-15.170463 -5.5700784 -9.8002777
-17.755854 -5.9251204 -11.133286
-14.926613 -5.2680936 -8.6652021
-18.076986 -5.8080416 -10.692949
-19.214066 -5.5755587 -3.6924818
-22.936211 -6.631125 -6.808444
-14.307848 1.6147757 -0.40463871
-14.1245 7.439517 -11.942129
-14.1245 5.7156892 -13.172632
-14.1245 4.1120992 -11.17385
-14.308215 6.1025801 -1.3548577
-14.309141 7.9391193 -3.8960953
-14.310495 4.0897517 -7.7674646
-14.336687 -3.4178548 -3.4817417
-14.308199 -1.0660267 -1.4187741
-24.463703 -7.0684199 -3.8927851
-16.637035 -6.616818 -13.734273
-19.512177 -6.9302759 -14.910772
-14.306355 -2.4221327 3.6807292
-14.311013 -1.4958813 -9.1799393
-14.314579 3.9801824 -19.070843
-22.810417 -6.5925217 -4.1904655
-25.220354 -7.2895565 -7.4366865
-14.306711 -1.4347602 2.7073596
-17.763569 -6.0385413 -11.559659
-21.530027 -6.2305498 -11.691258
-14.1245 6.8760233 -16.08358
-14.30714 2.3769598 1.5772884
-14.307663 8.3552494 0.21476841
-14.332512 -4.225657 -10.091806
-19.206055 -5.5543823 -4.1494575
-23.227146 -6.7134819 -5.2245774
-18.542528 -6.3713717 -12.810343
-14.309679 3.5869327 -5.4817171
-22.445042 -6.4875374 -4.4651003
-14.1245 3.8485518 -16.971695
-14.1245 1.4326825 -10.971949
-14.3062 9.2394342 4.2919855
-14.339304 -5.0127096 -10.823542
-14.392517 -2.3975515 -10.0564
-20.961252 -7.4112587 5.2547159
-14.1245 3.9671268 -16.883133
-14.1245 -0.0190152 -11.19311
-14.352282 -3.8265069 -5.7890892
-22.542822 -6.9266105 -0.64403677
-14.305919 9.0603685 -10.762479
-23.957443 -7.4804802 0.51820505
-14.30616 2.287158 4.2939429
-22.562853 -6.5292978 -13.104976
-14.295916 -5.3005562 4.0059767
-16.28701 -5.8846836 2.8814518
-24.338261 -7.0362997 -8.3173256
-14.349988 6.1605692 -10.007963
-16.403265 -5.9099178 -11.077017
-14.306841 5.3177495 2.4496465
-14.313342 -4.5457373 -15.687057
-14.305914 4.9091311 5.0175562
-14.788009 -4.3433881 -4.0395269
-14.309903 0.27697515 -6.1494651
-14.308904 9.7574062 -3.2117777
-16.970455 -5.7408838 1.084229
-17.098057 -6.3401003 4.4064393
-16.51902 -5.1791439 -8.3297825
-14.1245 -1.1439239 -17.403744
-14.5373 4.1473365 -10.331121
-22.273758 -6.4398313 -6.2589097
-14.308685 3.8428566 -2.6938419
-14.308305 -2.0223575 -1.7301234
-14.308512 0.26090288 -2.270267
-20.01461 -6.8988953 3.586905
-14.305773 3.3851714 5.3860483
-14.311192 3.5907574 -9.6659851
-14.347689 -3.7276509 -2.1156087
-14.309723 4.4470572 -5.5922751
-24.642986 -7.1193204 -3.0811429
-18.828785 -5.4686718 -3.7202575
-14.307752 -1.3391784 -0.17777976
-16.476637 -5.5122004 0.43968439
-22.024797 -7.0509882 1.0796113
-14.30554 7.1194081 6.0914516
-26.107262 -7.5450315 -7.4750595
-14.308534 -2.0231338 -2.3628674
-14.3066 10.238195 3.1965983
-16.944897 -5.5607142 -9.7639217
-14.310442 1.9167858 -7.6210127
-14.328039 -3.2292178 1.0994349
-14.341326 -3.5939457 1.7785802
-14.307984 9.793045 -0.65372276
-17.195677 -6.5244193 5.346611
-25.164579 -7.2694979 -3.0287888
-19.890331 -6.6941051 2.4711897
-15.196747 -4.4840775 -5.7177181
-14.310396 4.3289919 -7.4960194
-14.1245 -0.77533209 -14.86338
-14.30891 9.726182 -3.2334199
-20.923542 -6.8636327 1.7763933
-16.118603 -6.8394794 -14.57165
-14.309317 9.5138645 -4.3612943
-26.91662 -7.7776074 -6.8899183
-14.1245 9.0219641 -15.166048
-16.054932 -6.0947518 -11.772078
-14.307528 -0.96591854 0.44444299
-15.074668 -6.1436472 -11.956525
-14.309633 1.3883673 -5.3876429
-14.334682 -3.5292916 4.4423561
-14.312103 -2.7656629 -12.193932
-14.1245 5.6914005 -15.04398
-18.780869 -5.8636799 -1.0417418
-14.402451 5.1699429 -10.721601
-18.525948 -5.7762518 -1.1698476
-14.1245 5.2357259 -12.85747
-19.265095 -5.5732422 -6.1974454
-18.781109 -6.6117573 3.6366792
-14.310425 7.1229677 -7.5390744
-19.304411 -6.3077626 0.95895147
-14.1245 5.880331 -16.587101
-14.309919 6.371449 -6.1203284
-23.554031 -6.8095169 -7.3086619
-18.726868 -5.6438713 -10.075371
-14.172732 -0.36354566 -10.818876
-14.1245 9.4457808 -10.935075
-14.310629 2.5783076 -8.1309948
-14.535493 0.39478469 -10.219242
-20.810865 -7.1650758 3.953665
-14.1245 9.0616131 -11.05188
-20.249825 -5.8587976 -8.3399181
-18.874245 -6.4865494 -13.243109
-14.1245 8.570488 -13.506274
-14.1245 2.6921186 -14.644369
-25.010015 -7.2716656 -2.6956534
-14.444281 2.4947155 -10.115356
-24.394573 -7.6134939 0.62685025
-14.1245 3.906173 -16.74148
-14.1245 -0.66215622 -16.319149
-20.48687 -5.9240394 -4.9954004
-14.307353 -2.430846 0.9091025
-14.308544 -0.45758522 -2.3710144
-16.078817 -5.7714176 2.5112479
-14.310097 -0.52796793 -6.6804128
-14.313309 -5.1206236 -15.484152
-22.21418 -6.6146812 -2.1177833
-14.1245 0.62069398 -10.867744
-16.689514 -5.6613412 1.0129261
-14.309469 3.6684017 -4.8830061
-15.361516 -4.4477639 -4.8754001
-18.760098 -5.7087035 -10.31907
-14.310392 7.1032567 -7.4490585
-21.142864 -6.1157737 -8.0838814
-14.1245 0.59033132 -13.371254
-14.337705 -6.4448824 -14.518955
-14.310095 7.3660135 -6.6006832
-14.307379 8.6540079 1.0113242
-25.027151 -7.6351027 -0.33837295
-14.1245 3.4657862 -10.990889
-18.990297 -5.6473198 -10.088163
-23.114567 -6.6870027 -11.784949
-22.822952 -7.8392715 4.8605862
-14.638699 -4.8634868 -0.77659678
-18.831846 -6.9179935 -14.865038
-14.342916 -3.5793817 -4.1395979
-14.1245 7.2248707 -13.325432
-14.1245 2.9881852 -11.065807
-14.308279 8.9942894 -1.4894887
-26.34881 -7.6107755 -3.2539392
-14.31088 9.9773149 -8.7886677
-16.233423 -4.9927778 -7.6293707
-14.316259 -4.0367422 -12.392567
-14.362553 -4.3730836 -5.3566656
-14.307348 2.3607292 0.99646497
-23.091221 -7.0756497 -0.62487602
-16.62043 -4.8111238 -5.7330232
-16.544174 -4.8381596 -3.8632565
-14.308285 7.6894469 -1.5247122
-14.1245 5.6905236 -14.794539
-19.056171 -6.5976534 3.1690814
-17.708096 -5.1366954 -3.9394169
-14.353354 -3.8522625 -5.0006924
-14.308907 -0.25008869 -3.3742428
-14.308038 -0.64537537 -0.96587032
-23.046162 -6.6666689 -11.08839
-26.453907 -7.6441946 -6.7299166
-14.1245 9.7971439 -12.201146
-14.309111 6.7261353 -3.8338993
-20.825201 -6.0244136 -8.228941
-14.307841 9.9398689 -0.2545197
-18.843693 -5.9742231 -0.42558193
-14.308752 8.8456078 -2.8056886
-14.407409 3.2388322 -10.073361
-14.310169 -0.53476644 -6.875957
-14.33864 -4.1547585 -8.8845272
-14.306498 -0.88822973 3.3095341
-14.483045 10.248926 -11.43317
-14.310484 0.063510895 -7.7371745
-14.309878 0.92660773 -6.0815835
-14.308231 9.3566275 -1.3519703
-21.080051 -6.1345954 -3.2862918
-19.002796 -5.9410782 -0.92175758
-14.306333 -0.40006089 3.7742789
-14.309904 -1.6074176 -6.1517978
-14.1245 3.7811127 -17.405888
-14.1245 5.0618973 -16.707954
-15.8646 -5.8782663 3.4354918
-14.313469 -3.3167062 -16.001383
-14.1245 -1.7414273 -15.888525
-22.775719 -6.5843744 -6.2279463
-14.30572 1.8266773 5.509872
-14.308639 -0.91722059 -2.6387813
-19.033648 -5.5072417 -6.9246588
-14.30877 4.2725272 -2.9254131
-17.132114 -6.8832293 -14.735458
-14.1245 6.5548811 -13.431618
-14.334527 -5.9921999 -13.974453
-14.305628 3.0596786 5.7883148
-15.733038 -5.5567188 1.7411003
-14.307961 2.1342578 -0.70734149
-14.310347 -1.0198039 -7.3618307
-18.481867 -6.5521808 3.7076588
-19.479252 -6.4403992 1.5241756
-14.1245 3.4949956 -12.385845
-14.307828 -2.0568495 -0.40289766
-14.305883 8.75632 5.1679301
-14.1245 2.9694293 -12.736093
-14.34119 -3.7244267 2.2279582
-21.533379 -6.6340384 -13.795826
-14.1245 9.7254267 -13.290746
-14.308645 4.6584334 -2.5734115
-14.307129 7.1216397 1.6813464
-14.310997 5.6434221 -9.1358519
-20.989326 -6.3613338 -1.6381491
-16.853403 -6.4202085 5.2170758
-14.124501 1.2512296 -15.671684
-14.360567 -4.0711637 -4.9711695
-14.1245 3.3836961 -13.81362
-14.348026 -3.6996245 -5.9179845
-14.306924 -0.75414813 2.1277001
-14.310972 4.5953369 -9.0688419
-14.1245 4.9989018 -13.3798
-18.049477 -5.2217689 -4.6967735
-19.300106 -6.4827909 2.1161811
-14.330305 -3.8504815 -9.568428
-14.1245 2.8490152 -16.180651
-14.351068 -5.3544078 -9.6480618
-14.306127 -1.9184303 4.3271914
-21.673904 -6.741559 -0.33876252
-14.324296 -3.0843182 -3.4395084
-21.991692 -6.8821526 0.028538942
-14.1245 4.7830648 -13.169849
-14.308283 -2.0195694 -1.667835
-14.258145 -1.8510244 -11.423403
-14.1245 1.3134375 -13.345196
-14.308298 8.7079544 -1.5435926
-14.5373 5.0512815 -17.635941
-14.305893 1.2740502 5.0224681
-14.309172 8.6460161 -3.9689164
-18.299177 -5.4809513 -9.4631948
-14.310617 2.8302684 -8.099699
-18.857893 -5.4554267 -5.6056223
-14.124499 1.3182039 -17.263363
-24.058968 -7.4788408 0.32974792
-14.326485 -3.8908544 4.4103832
-14.1245 6.0052824 -11.39418
-14.1245 7.2159219 -14.221951
-14.307613 9.8765745 0.3730309
-14.308753 8.6287603 -2.8086197
-14.313551 -2.8085239 -2.0110574
-14.310313 10.660099 -7.1658649
-14.309128 3.0650678 -3.9371767
-14.313299 -3.6178164 -15.539225
-14.342975 -6.5197878 -13.805478
-27.040911 -7.8124666 -5.8553634
-14.1245 8.733201 -14.388348
-20.426147 -5.9118209 -10.811069
-22.426752 -6.4872055 -9.9120426
-14.307865 8.4868174 -0.34647417
-14.310602 2.2664964 -8.0603447
-14.305992 2.1991973 4.7607269
-14.32673 -3.6572413 -9.7119083
-14.3325 -3.3263383 -1.2850392
-17.479582 -6.2569089 3.386117
-14.310571 8.071599 -7.9369659
-14.856909 -4.569437 -2.8001463
-21.128992 -7.2601466 4.0213575
-19.482426 -6.535161 -13.425455
-21.60988 -6.2559948 -12.374618
-14.309417 3.7676072 -4.7304363
-14.1245 1.3509887 -13.684815
-14.124499 -0.91525942 -13.277727
-16.422886 -4.7852116 -3.9987688
-14.1245 -0.75845176 -13.891287
-14.309167 6.5326242 -3.9898107
-14.1245 -1.2229879 -16.130924
-17.040382 -6.8143535 -14.476595
-25.733469 -7.4379921 -8.1564617
-14.316763 -4.4689908 -13.341002
-14.319255 -4.3591428 -12.656204
-14.174671 5.4433899 -17.433157
-14.310928 2.1141157 -8.9492598
-14.305631 -1.376935 5.7071028
-16.213331 -5.3287268 -0.26352668
-14.309423 3.5268834 -4.7561255
-14.309125 6.1485972 -3.8808174
-14.309736 3.9958591 -5.6367941
-21.357977 -6.1791902 -9.697504
-14.1245 -0.14775072 -10.936346
-14.339834 -4.3603497 -9.1738014
-21.078346 -6.0974169 -8.3329163
-22.555174 -7.306087 1.82698
-20.125114 -6.6821489 1.9817328
-24.063425 -7.2416906 -1.2357984
-16.832943 -4.8721204 -5.5013881
-14.308619 9.3994474 -2.4236312
-20.428082 -6.9123626 2.96365
-14.307898 2.5697451 -0.52824765
-17.750256 -5.6598892 -0.57655096
-14.308901 8.9137068 -3.2166157
-25.491707 -7.367651 -7.3725896
-14.310566 1.8674996 -7.9584436
-16.83474 -5.2239799 -8.4981289
-14.1245 7.8014102 -13.710758
-14.313 -3.3138878 -14.698637
-21.9891 -7.0885968 1.3891261
-22.727417 -6.5694132 -5.069829
-24.136711 -6.9777656 -7.7814088
-14.5373 4.5389833 -17.826366
-17.413401 -5.6490116 -0.072821617
-14.309278 6.0649128 -4.3102698
-18.097486 -6.4483919 -13.100172
-25.139908 -7.2663031 -7.3445725
-15.18426 -4.3963637 -4.4918222
-16.825508 -6.1593199 3.7319067
-14.333795 -4.3646946 -10.207088
-15.827743 -4.8569102 -7.1188774
-21.161535 -6.1210299 -7.9504161
-25.957016 -7.4986086 -3.9985642
-17.235519 -4.9885283 -6.0095029
-14.30792 0.0078952312 -0.62978107
-14.307467 4.3305321 0.6937598
-23.154392 -6.6940961 -6.9543476
-14.311021 10.45721 -9.1797838
-16.007874 -4.6344404 -5.4468398
-14.592811 -5.9462891 -11.21492
-14.430211 -4.2762055 -4.9367743
-24.277172 -7.0521073 -2.855207
-14.306251 -2.6626656 3.9705279
-14.124499 6.652647 -13.004744
-14.307276 5.7031121 1.2510705
-14.307995 2.4637051 -0.79674077
-14.5373 1.3018091 -10.287493
-16.647377 -5.9239383 -11.129564
-14.307316 7.5392842 1.1648335
-14.311276 0.33618736 -9.8976021
-14.311415 -4.5816088 4.2307072
-14.1245 5.8887906 -13.407511
-14.308598 -2.6297081 -2.5511377
-16.824282 -5.0855293 -2.7286317
-14.1245 2.1539876 -12.501411
-14.436697 1.8708895 -18.146023
-14.306063 4.8993969 4.6065516
-14.364096 -4.2106237 -4.7068505
-16.554096 -5.8431635 -10.825974
-25.711052 -7.4276786 -3.8996651
-14.305899 -0.36879992 4.9830003
-21.298918 -6.1609645 -8.3561802
-14.1245 4.3408442 -10.87778
-14.1245 2.3265543 -16.034719
-14.5373 -2.3035922 -13.262139
-14.307108 -0.86426961 1.6127106
-14.30867 4.1785913 -2.6490154
-14.30941 4.8748302 -4.6956172
-14.1245 1.2949585 -11.672029
-19.652288 -6.8971577 4.0841389
-14.309043 7.0938759 -3.6395707
-14.30868 -0.11616898 -2.7416856
-14.1245 3.847707 -10.921391
-19.789675 -5.7232251 -4.9801993
-14.30577 -1.0813074 5.3274441
-17.533087 -5.6784477 -10.206127
-19.014206 -6.3361282 -12.677548
-14.307821 3.3363171 -0.30511749
-14.1245 2.8112638 -14.364916
-14.311172 3.9193077 -9.6139231
-23.669086 -6.8447018 -9.5677757
-14.327657 -3.1567082 -5.2986851
-14.309366 3.4817042 -4.5962915
-17.890518 -6.6002598 4.8166709
-14.1245 2.0639019 -14.358801
-17.749683 -5.9171219 1.0226831
-23.82338 -7.7999382 2.8512444
-25.001186 -7.5117865 -1.1029441
-18.47613 -5.3467402 -7.0040784
-14.1245 6.808526 -14.171167
-14.28442 -5.6568451 4.661366
-16.74329 -4.8452954 -4.393703
-14.340236 -6.3412366 -13.842471
-14.306135 8.1775789 4.4580226
-14.309917 3.8743076 -6.1541128
-14.309188 9.3650646 -4.0056024
-14.308863 7.4275966 -3.1349721
-14.309797 8.065855 -5.7417836
-26.360703 -7.6150932 -4.2384591
-23.844662 -6.942461 -2.8184407
-14.327585 -3.5553703 5.7475176
-14.313273 -3.0829318 -15.451633
-14.1245 3.4945431 -16.535095
-26.682062 -7.7073903 -3.9533877
-14.153386 -1.806639 -11.055114
-14.1245 -1.016618 -11.584887
-14.305832 6.2441273 5.2677474
-14.306147 6.5273781 4.400733
-14.35194 -3.8165998 -4.7493305
-14.403055 -4.3695712 -3.3322921
-23.779671 -6.8718572 -4.3869152
-19.71467 -5.8771076 -2.5878999
-14.1245 -1.7239939 -11.853155
-19.346041 -6.4784174 2.0070531
-22.912491 -6.6405134 -3.1703026
-17.249596 -6.1351261 2.9966726
-14.308458 6.1098328 -2.0311594
-14.306887 0.93829346 2.2572312
-14.311269 -2.3286159 -9.8774977
-14.453318 3.6489794 -17.551216
-14.31026 0.51763201 -7.1211443
-14.309522 -1.098386 -5.1084676
-14.324841 -3.1330943 0.07790947
-14.30765 5.4276013 0.20869303
-14.307246 9.7745094 1.3917129
-14.1245 2.2372351 -17.354979
-14.310155 7.397512 -6.7702942
-14.308464 -0.36351669 -2.1448996
-14.30576 9.0124836 5.5103927
-14.30977 -1.0194901 -5.7841811
-14.308012 5.9513783 -0.794294
-20.336529 -6.9816532 -15.103373
-14.305307 -4.9498081 3.7476077
-14.306076 7.3442969 4.6075516
-14.31127 4.7078867 -9.8808794
-14.1245 6.5519528 -15.077866
-20.760473 -7.1155677 3.7166634
-15.891553 -6.2157502 5.3694849
-18.276232 -6.395 3.0772982
-14.513968 -6.2152066 -12.2259
-14.345937 -5.7706828 -11.512534
-23.029709 -6.66014 -9.1121521
-14.1245 0.045488 -14.100256
-14.309658 1.5453631 -5.4518633
-14.307714 -2.191586 -0.093052417
-14.308115 4.8147993 -1.0979047
-15.103969 -5.3693762 -9.0458317
-19.683308 -5.9115973 -2.3064606
-14.310897 -0.55859601 -8.8630362
-18.711298 -6.0713005 0.44380617
-26.55814 -7.6728659 -5.240521
-14.310423 10.211933 -7.4840918
-14.1245 -1.4215691 -11.347013
-19.299145 -6.9517784 -14.991741
-25.62883 -7.6764646 -1.1197526
-22.433022 -7.5422263 3.591876
-14.442945 2.7080736 -10.113835
-14.311146 -2.4633508 -9.5421104
-14.309115 -2.3435364 -3.9842188
-15.040815 -5.9686241 5.1170135
-14.537299 9.3850212 -10.291482
-23.643209 -7.2556038 -0.40893769
-14.308983 0.95040321 -3.5683298
-16.243069 -6.2717743 5.2045517
-23.878223 -6.9037619 -8.2720289
-14.307157 -2.159379 1.4582226
-14.1245 -1.7850405 -16.504747
-18.050114 -5.2235579 -6.4686995
-15.690619 -4.5562568 -4.2210479
-24.406612 -7.0520067 -3.9252434
-14.310497 2.5144911 -7.7718916
-14.309525 6.824707 -4.9894843
-20.472425 -6.027699 -2.9249706
-14.310371 7.9432425 -7.3766537
-14.307836 1.5814686 -0.36986357
-14.3113 8.187706 -9.9631004
-14.307383 4.3474565 0.93422711
-24.912916 -7.7526946 0.63398278
-17.347174 -5.7857018 0.81852889
-24.575649 -7.106164 -9.964694
-14.329204 -3.7817624 -9.5907927
-14.1245 2.1130943 -11.919722
-14.309081 8.9069881 -3.7155919
-14.311142 6.7532268 -9.5298538
-20.972242 -7.2030392 3.9205875
-14.310694 1.973013 -8.3092489
-14.307671 7.1908789 0.17372084
-18.523561 -6.3846188 2.6702936
-18.321112 -6.7661858 5.1830935
-18.178558 -6.6407037 -13.823064
-14.30811 0.48432231 -1.1469214
-14.305683 -0.67301106 5.5774417
-26.38884 -7.6267343 -8.1419535
-14.306023 3.0916858 4.6913319
-14.311296 -1.9717716 -9.955492
-14.310809 9.0929813 -8.5994453
-21.378918 -6.1843004 -8.6806784
-16.429749 -5.7095733 1.6584911
-17.543726 -6.2355862 3.1717143
-14.309839 3.4771416 -5.9369059
-14.310673 8.5682268 -8.2204943
-20.287971 -6.5758047 0.99816132
-26.095837 -7.6557679 -2.0730705
-26.146011 -7.5528755 -3.8146973
-14.30814 6.4045825 -1.1443568
-14.540791 -4.2538486 -4.2012753
-24.215931 -6.997324 -4.1861486
-14.306032 8.7644472 4.7497792
-14.305561 3.6709757 5.9806919
-15.943678 -6.2140765 5.2867098
-14.306934 0.17227936 2.1120839
-17.435381 -6.3715448 4.1177711
-21.003441 -6.4137449 -12.968034
-14.333454 -6.1565928 -14.549419
-23.049173 -6.6644263 -7.6547837
-25.174433 -7.2766447 -7.7841129
-14.310644 7.4809852 -8.1598253
-14.308329 9.7628727 -1.6139628
-22.061138 -6.3841801 -12.424696
-17.99736 -5.2087283 -6.8707385
-26.335098 -7.6079979 -4.547008
-14.124499 8.0476208 -13.159387
-14.305884 -0.53075624 5.0200295
-19.031574 -6.0788746 -0.067001343
-17.606434 -6.1370964 2.5084789
-14.309539 -1.6922654 -5.1539321
-27.272848 -7.8793821 -5.9808655
-14.310387 4.4389801 -7.4710894
-14.33976 -3.5619383 2.8326402
-14.310003 0.01227808 -6.42278
-25.073805 -7.787755 0.58268952
-17.310656 -6.3393397 -12.690727
-17.870972 -5.3614035 -2.7484703
-14.307764 10.684577 -0.027901649
-14.327196 -4.9245958 -12.663313
-14.1245 2.4336753 -12.920211
-14.308264 2.7432883 -1.5420047
-15.577269 -5.515914 1.720834
-17.296808 -5.2003288 -8.4089155
-14.308216 5.8767357 -1.3584938
-14.307992 0.52340555 -0.82141811
-14.1245 4.3173771 -17.020233
-14.307985 8.2206116 -0.68350434
-14.424852 -4.6915727 -1.4815338
-16.404673 -6.8566961 -14.636185
-17.812435 -6.1272049 -11.892935
-14.307269 2.4865577 1.2217692
-14.305958 9.3292103 4.9682212
-14.309935 5.3389096 -6.1796241
-14.308505 0.54695511 -2.2464769
-14.308532 -2.4930568 -2.365386
-14.5373 -1.5450603 -10.340923
-14.306604 10.337095 3.1884532
-14.309488 4.2764692 -4.9286337
-14.335285 -5.572052 -12.841689
-14.310449 2.2371459 -7.6406398
-14.305634 0.37440014 5.7283721
-14.684346 -5.0107756 0.020011663
-21.468189 -6.6071281 -0.86174273
-23.274395 -6.7286053 -6.896853
-14.309511 3.4899223 -5.0075016
-14.30859 -1.6385186 -2.5137222
-17.964489 -5.3775282 -9.0746155
-24.568878 -7.599309 0.22859669
-14.308497 3.7663884 -2.1736562
-14.306322 0.12499976 3.8151436
-14.585417 -5.8419285 5.0145283
-14.307482 3.4065192 0.64071345
-21.521431 -6.2274451 -10.99756
-21.615196 -6.2487059 -4.657208
-14.483763 -5.5404487 -9.6893377
-14.336092 -3.5475054 -7.8639145
-14.281076 5.1289101 -10.772999
-21.903553 -6.3629131 -12.776358
-14.124499 -1.0516191 -14.411156
-21.522346 -6.2228456 -5.6302772
-14.305702 3.5890875 5.5877738
-14.1245 3.1167235 -16.917803
-16.591042 -6.2399101 4.5310917
-14.1245 8.8624153 -13.213128
-14.1245 -0.77482891 -10.848902
-14.37719 2.4352551 -18.214708
-14.30961 6.7806215 -5.2349324
-14.30607 1.6500235 4.5348558
-22.027973 -6.3665376 -3.4946616
-14.5373 8.2046309 -10.380333
-14.310663 9.8294039 -8.1745291
-18.235899 -6.5025139 -13.303538
-23.764814 -6.873168 -10.556268
-14.307512 6.1277285 0.59647608
-17.990788 -5.6619835 -0.98378277
-14.306395 1.2343197 3.6303115
-14.1245 0.93132889 -14.850672
-20.515913 -5.9372034 -10.290755
-14.31059 -1.9271562 -8.0254068
-17.356485 -5.0218887 -4.3770447
-14.308996 -0.0098955631 -3.6188352
-24.100401 -6.9645224 -4.7069449
-14.5373 6.0152726 -10.55197
-14.1245 9.1632071 -13.942686
-14.230441 0.06499958 -10.794441
-18.200979 -6.2112956 -12.208799
-14.310452 2.684835 -7.6486111
-14.1245 5.1735277 -14.285754
-14.1245 3.9777048 -11.749746
-19.112576 -5.6184635 -3.2330315
-14.311231 7.5784965 -9.7737484
-18.529406 -5.3622928 -7.2342877
-14.341404 8.1328087 -9.9981861
-14.1245 1.4259474 -11.194558
-25.770664 -7.4493051 -8.8189745
-19.66806 -5.6890373 -5.9060621
-14.1245 0.57729399 -11.963198
-14.306252 -0.89460504 3.9940035
-17.266167 -5.1359019 -8.1667404
-16.398165 -4.8120646 -3.7791111
-25.291019 -7.3096404 -7.1404457
-14.308846 2.9402976 -3.153964
-14.327158 -3.1266263 -6.9837289
-14.313658 -4.2455978 5.3406653
-14.310178 -1.0107031 -6.8992004
-14.334068 -5.1802535 -12.110813
-19.140142 -5.5403094 -9.5689383
-22.104853 -6.4969835 -2.6995404
-18.244608 -5.5526891 -9.7329082
-18.251806 -5.4572945 -9.3742924
-14.307333 -1.5987797 0.97535527
-14.339428 -3.4786162 -4.8259287
-14.1245 5.5984974 -14.585258
-14.1245 4.6759548 -12.455841
-14.308814 5.2518091 -3.0313716
-14.308891 8.6890326 -3.1904221
-14.306911 2.2208176 2.2095423
-14.1245 0.64300901 -12.072611
-16.751875 -5.4569597 -0.26848984
-14.306551 1.5502641 3.1985726
-14.1245 7.8289318 -11.16526
-14.475231 -5.5082502 -9.5683031
-14.1245 8.0054522 -15.167583
-18.056444 -5.2878833 -3.5560098
-14.310234 2.8591366 -7.0557022
-14.346449 -4.8469868 -9.2170868
-22.651657 -6.5474124 -4.870234
-14.30769 8.4401445 0.1409173
-14.292665 -5.4185443 4.1109581
-18.423563 -5.3299179 -5.1468
-15.438927 -5.7055244 3.0223584
-14.309252 4.2351909 -4.2620587
-21.633011 -6.9438534 1.0616053
-20.764435 -6.0314083 -11.530891
-14.307789 -2.0624356 -0.29724804
-14.307304 -0.16770411 1.0780349
-14.326525 -3.125567 -5.3622279
-14.1245 2.2527721 -14.140202
-14.310093 2.6182728 -6.6681728
-19.700314 -6.7375841 -14.18627
-14.337909 -3.43084 -5.520875
-18.141592 -5.2478132 -4.1600733
-14.308866 5.6288414 -3.1687398
-21.2416 -6.1406384 -4.1416984
-14.324659 -3.0528786 -7.6304264
-14.317368 -4.4082079 3.8395383
-14.308013 -0.43890107 -0.89097404
-17.583071 -5.088346 -5.6990662
-14.5373 -2.2646306 -13.024521
-14.309738 3.1917582 -5.6537571
-14.308028 6.3805928 -0.83218277
-14.312717 -3.662811 -13.929085
-14.305957 -2.2435369 4.7907996
-14.323969 -3.4435604 -9.6684589
-14.338052 -1.8848801 -14.245697
-19.849171 -5.9883327 -2.0927167
-14.311132 -2.2703023 -9.5074692
-14.310337 2.6129603 -7.3326435
-14.5373 -2.1922851 -13.05421
-14.306992 0.74655628 1.9627829
-14.1245 5.5153012 -17.0257
-15.000244 -5.2357931 0.89228916
-14.309793 2.4469182 -5.8231001
-20.348572 -6.2100568 -12.202745
-22.910902 -6.622057 -4.8458261
-14.1245 3.5744214 -16.970261
-14.1245 -1.1706008 -14.042847
-14.306995 9.0551195 2.0819042
-14.1245 4.2520761 -16.053457
-14.310421 7.905745 -7.517375
-14.329773 -5.502111 -13.607906
-14.30608 8.1875582 4.61095
-14.309348 2.6087008 -4.5559154
-14.53475 5.4426799 -18.032843
-14.333368 -3.5202234 -8.2599363
-24.534344 -7.4468107 -0.71266222
-14.380594 6.9229107 -10.042822
-14.305758 8.9988756 5.519208
-22.719584 -6.5741839 -12.825119
-22.090946 -7.3918614 3.2028999
-14.313223 -4.7636466 3.0216582
-14.310973 7.3143563 -9.0706129
-15.004736 -4.8858738 -7.2282929
-14.310669 8.9478703 -8.2045479
-14.307484 6.731657 0.68723464
-14.324259 -4.3734097 -11.842703
-26.609558 -7.6877661 -5.3411622
-14.1245 6.315392 -13.484477
-21.445614 -6.4829884 -1.6376584
-14.310717 1.5158373 -8.366436
-26.18565 -7.5654931 -5.1407514
-23.192205 -6.7636724 -2.8508854
-19.668234 -6.8221273 3.6234522
-14.1245 3.4845946 -13.226094
-14.1245 -0.74581528 -12.324586
-19.168501 -5.9856787 -11.36002
-14.308102 6.5928898 -1.0309625
-14.307256 -0.19498777 1.2145584
-14.1245 2.7104039 -14.247309
-14.475559 -5.9744444 -11.320841
-14.328321 -3.1839447 -4.3471327
-16.698858 -5.7525606 1.5327868
-14.31077 3.9205394 -8.5164003
-15.252844 -4.7122593 -2.5201735
-21.705898 -6.2758598 -5.7942991
-14.308809 0.70126104 -3.0889726
-15.46674 -5.0833116 -7.970211
-14.525121 -1.9641398 -14.978618
-14.31009 1.5530541 -6.659411
-23.281462 -7.8031521 3.8208394
-14.459644 -5.2406926 1.6779606
-14.309175 10.380841 -3.9553521
-14.310791 5.7518334 -8.5738325
-14.999836 -6.5083632 -13.327629
-23.457579 -6.7783966 -3.6210184
-22.313805 -6.4567733 -12.227444
-14.310633 -0.47701216 -8.1403131
-20.944176 -6.390542 -12.880848
-19.780407 -6.5580788 -13.511415
-19.631332 -5.6768317 -4.1093559
-23.296726 -6.7320714 -3.6240866
-19.478127 -6.1255484 -0.54198408
-14.309767 -1.0371605 -5.7779012
-24.391434 -7.3732181 -0.94593775
-14.313137 -3.155499 -15.077551
-23.358963 -7.2815328 0.25887799
-14.1245 -0.28264144 -13.534012
-14.308229 8.7004776 -1.3506178
-14.306909 5.5536795 2.266664
-14.30813 -1.7372863 -1.2383298
-14.307363 9.8952732 1.0727966
-14.1245 0.5602423 -13.679207
-20.063517 -5.8053532 -8.5761995
-14.1245 -1.4425716 -11.288139
-14.1245 4.9315395 -16.239269
-22.63051 -6.547792 -12.010782
-14.311296 10.469328 -9.9525938
-14.1245 7.5086284 -16.466629
-14.339239 -4.0176673 1.2583869
-14.328579 -5.2474999 -13.201231
-22.828272 -6.601182 -8.0724678
-14.342402 -2.6346817 -10.706675
-17.062786 -5.4803224 -0.56738949
-14.311006 2.5001016 -9.1572647
-14.309444 3.3909116 -4.8183928
-20.153263 -7.2319813 5.3387833
-24.340057 -7.5236983 0.13242865
-14.310825 1.2673804 -8.6681633
-14.365116 9.1404028 -10.737412
-14.306974 -4.8522234 3.8661427
-16.052784 -5.4708071 0.79139876
-14.1245 6.7355142 -16.045351
-14.309414 -0.58592224 -4.7975368
-21.037897 -6.394619 -12.896112
-17.508341 -6.7440763 -14.212103
-14.337429 -5.5847015 -12.508762
-14.31096 -1.8144665 -9.0343628
-14.341408 -4.6879878 -9.690733
-16.130096 -6.600913 -13.674814
-14.1245 1.6563563 -14.179686
-21.191191 -6.1316519 -10.247005
-17.86993 -6.5378132 -13.436474
-14.306026 -0.37138462 4.6281543
-14.306569 2.1218238 3.1573122
-14.311972 -2.7949474 -11.833075
-14.308409 -0.97734678 -2.0023201
-24.762632 -7.5053711 -0.72755539
-18.075924 -5.4686279 -2.4028616
-18.529964 -6.3655739 2.5500529
-19.89983 -5.7551661 -5.216783
-14.124501 0.68344241 -12.340134
-14.310873 6.9948716 -8.7976246
-14.308556 0.54736567 -2.38675
-14.306207 5.8541794 4.2211394
-14.1245 5.7955599 -15.313247
-17.350372 -5.4846883 -1.0274925
-19.987389 -7.1537266 5.1138716
-14.30652 6.4739103 3.3617671
-18.419611 -6.3372231 -12.682049
-15.793242 -4.5726833 -5.5130181
-14.30629 -1.0104492 3.8847883
-16.841665 -6.8961449 -14.784198
-17.995005 -5.9632802 -11.276582
-14.670868 -5.1877923 1.073097
-14.308039 3.3033519 -0.90872055
-14.1245 8.0782795 -13.002436
-14.307947 5.1039338 -0.62737274
-24.305191 -7.024106 -5.3708673
-17.351048 -5.1117859 -8.076026
-14.320391 -4.9240589 0.83581781
-14.309767 -1.9000216 -5.7783928
-17.801884 -6.0440207 1.6909811
-14.306062 6.9066582 4.64186
-14.306147 8.662879 4.4319696
-14.306446 5.5417089 3.5515509
-14.308996 6.6573906 -3.5160048
-14.1245 8.2759609 -12.247513
-14.311033 5.2246747 -9.2353058
-14.30835 -1.9678094 -1.8502634
-14.5373 10.367455 -11.778475
-23.773321 -6.8697634 -4.0947552
-14.310062 1.9490237 -6.5848708
-14.309158 0.3770082 -4.0617299
-14.307935 10.489863 -0.50718236
-14.297216 -5.2565069 3.9490566
-21.598331 -7.4488935 4.4397097
-14.31124 10.256591 -9.7984371
-18.137104 -5.2641582 -3.8530278
-14.306568 10.484147 3.2869868
-14.1245 4.0949287 -12.451321
-14.307545 5.7100964 0.50280762
-14.305668 1.0114632 5.6435523
-14.1245 3.5992699 -13.696003
-14.308749 2.3842497 -2.8959002
-14.307451 1.742609 0.70106506
-14.328423 -3.1664152 -6.4032907
-16.449802 -6.3306894 5.2592583
-14.307878 -1.8781027 -0.54205132
-14.308737 9.1937256 -2.7570937
-17.498449 -5.0633392 -4.9989223
-14.328239 -5.6667171 -14.261349
-22.524977 -6.5160241 -10.495298
-22.74897 -6.5743766 -3.695899
-20.016445 -7.2388825 5.5707045
-18.825733 -5.4484644 -8.1446896
-14.31267 -2.8252938 -13.772058
-14.1245 9.7463579 -13.481459
-14.1245 -1.5887989 -12.748167
-23.257893 -7.3857474 1.1203166
-14.1245 6.8429217 -14.530709
-14.337246 -3.7436752 2.9313693
-14.1245 6.6918974 -16.912676
-14.305779 6.815546 5.4241562
-15.603604 -5.8180437 -10.732158
-16.457184 -5.0602789 -2.2519841
-19.598988 -6.5585194 2.0904999
-14.307954 -1.5545561 -0.7433266
-19.526913 -5.8910322 -2.1678207
-14.308821 8.0520144 -3.0090404
-14.1245 0.52143091 -12.730656
-14.310608 6.7597504 -8.0627985
-14.307939 -0.45323265 -0.68706632
-18.61743 -5.388629 -8.3193598
-14.1245 1.7395456 -11.915544
-26.276447 -7.5901995 -3.5465674
-20.739136 -5.9973774 -5.7480512
-14.1245 -0.37630308 -17.043653
-14.309493 -1.8949587 -5.0299163
-14.307182 0.176054 1.4249632
-17.267269 -5.1938558 -2.7924066
-14.360878 -4.2056308 -5.2399502
-14.311857 -2.7595234 -11.513943
-14.1245 2.2345271 -13.907306
-21.309837 -6.2092371 -3.1981792
-15.291706 -5.7266655 3.3520401
-19.944374 -7.1385202 5.0852633
-14.311167 8.3787785 -9.6004086
-23.707039 -6.8548779 -8.7343607
-23.321905 -6.7467732 -11.845576
-14.307509 -1.4825972 0.49305558
-14.311814 -3.1954637 -11.407384
-14.306778 4.9575238 2.6181915
-25.149115 -7.6494002 -0.45791698
-14.309862 9.8736582 -5.8988862
-14.5373 -0.44648254 -10.45393
-14.359351 -4.18609 -3.565784
-14.306288 6.8649244 4.0145578
-17.880001 -6.2451468 2.7566607
-15.375086 -5.7447815 -10.456897
-14.309425 8.5208387 -4.6853027
-14.32349 -3.104023 0.82995439
-23.893995 -6.9078755 -7.7983389
-14.391759 -4.9223981 -0.086601257
-21.100737 -6.1029968 -7.3740277
-14.305738 2.33267 5.4701309
-16.601711 -4.8051534 -5.093926
-14.307115 -0.40645766 1.6017025
-14.325195 -3.3086586 -9.138176
-26.880955 -7.7674417 -7.0082259
-19.055313 -6.8125362 4.4257345
-14.356058 -1.3557661 -10.741247
-18.766296 -6.4721193 -13.188932
-20.896044 -6.4228745 -1.070647
-14.309351 0.46531868 -4.5966473
-14.309425 9.9516764 -4.6586485
-20.063187 -5.8091307 -3.6443973
-14.317432 -4.1835718 -12.545184
-14.1245 -0.8336429 -16.109798
-14.1245 2.8117595 -11.823744
-14.30579 -0.96240938 5.2737207
-16.044472 -6.3506799 -12.73418
-20.743471 -6.0018363 -9.2908783
-22.473532 -6.4958324 -4.5626669
-14.305899 3.8804584 5.0457797
-20.563265 -6.1990972 -1.9581113
-14.306849 -0.32709301 2.3397658
-14.975635 -4.5791941 -6.0754271
-14.308494 -2.2653265 -2.2541862
-14.308699 8.2881365 -2.6626203
-14.306059 3.1703577 4.5907302
-21.321175 -6.1653218 -6.0899973
-17.717402 -5.2407532 -3.2721865
-16.548328 -5.4332285 -9.2849302
-19.98535 -6.0167141 -2.1446352
-21.579742 -7.5449491 5.1031995
-20.275564 -6.1402369 -11.940323
-14.307333 0.74505925 1.0125563
-20.26376 -5.8604517 -5.7351904
-14.348166 -3.934243 -6.7439818
-14.1245 4.1463232 -14.564949
-20.073008 -5.8059282 -6.1941853
-14.334642 -3.5737014 4.2441483
-20.949345 -6.0559578 -3.5821588
-23.440052 -7.693223 2.8211789
-14.1245 4.7258558 -16.900412
-20.775551 -6.6787963 0.82129645
-17.004578 -5.3042493 -1.6075048
-19.227715 -6.5312176 2.5407071
-17.721455 -5.3657455 -9.0304832
-14.307642 3.5973234 0.19983542
-19.002806 -6.219471 -12.23901
-14.314504 3.6817169 -18.857323
-16.100382 -5.0907779 -1.4955621
-14.310408 8.5766697 -7.4687023
-15.449984 -4.4919472 -5.7471366
-26.856163 -7.7604246 -7.1440001
-14.310092 5.9938927 -6.6147618
-25.541845 -7.7090321 -0.7535938
-14.311207 4.3304062 -9.7099438
-15.680038 -4.5401063 -5.5424867
-19.376083 -5.6031346 -3.9088612
-20.167164 -6.8484063 3.0002105
-19.866049 -5.7462273 -6.0903435
-14.310165 6.8794069 -6.8082142
-14.310204 1.8931779 -6.9699831
-17.24535 -6.1382551 -11.934846
-14.314646 2.810833 -19.256191
-14.352152 -5.001112 -8.620018
-14.1245 0.43265915 -16.684053
-14.323633 -4.4116564 2.5642822
-14.1245 10.028871 -12.296906
-21.793386 -6.9216528 0.63508213
-14.34046 -4.4713936 -1.0945852
-14.309301 7.5912523 -4.3460627
-18.664097 -6.1151705 0.81458545
-14.30611 -2.4223938 4.3641381
-14.336971 -3.7341132 3.0309651
-14.1245 6.8952312 -11.131193
-17.634109 -6.3252654 -12.637608
-22.794008 -7.4288626 2.2154293
-22.646492 -6.5506597 -10.095766
-16.211388 -4.8480124 -3.2160828
-23.012545 -6.6547689 -8.63978
-14.317146 -5.3488598 -15.379759
-16.839981 -5.3469324 -1.0390561
-22.413918 -7.1131153 0.80665112
-14.310852 8.6308508 -8.7279739
-25.28487 -7.4677658 -1.888603
-14.306589 0.36060476 3.0750089
-14.351583 -4.3711033 -2.8641186
-14.307516 1.4269495 0.51355004
-14.308613 7.5089035 -2.4357245
-15.563558 -4.5067663 -5.7711687
-14.352005 -3.8279285 -5.8394761
-14.308902 -2.6374378 -3.3970034
-17.39502 -6.0533552 2.3152826
-14.307642 -2.671876 0.31670785
-18.34305 -6.3124228 2.5012755
-22.411495 -6.479126 -5.8449516
-14.1245 10.059155 -13.093452
-21.55027 -7.2447705 3.1830227
-14.309671 1.0830538 -5.4958963
-15.81771 -5.6770773 -10.202091
-14.322025 -3.0883307 3.2836468
-14.311022 -2.0720041 -9.2000475
-22.314342 -6.4513373 -6.057292
-14.1245 -1.3966733 -11.500956
-14.1245 3.2930074 -11.325997
-14.309721 -0.23058069 -5.6543007
-22.437588 -6.4846058 -3.5981708
-14.308598 9.7810221 -2.3627088
-22.724821 -7.6400309 3.7236075
-17.065666 -6.4507875 5.0984845
-14.309058 -1.5034237 -3.8132839
-14.308617 5.6802421 -2.4745014
-19.902245 -6.2167444 -0.68526089
-16.232084 -6.4384046 -13.063838
-14.31011 7.6071181 -6.6392069
-20.30788 -6.812109 -14.466033
-14.307323 5.0266376 1.1077871
-14.310892 9.9511414 -8.8223295
-14.311296 -0.67638123 -9.9558582
-14.1245 1.872862 -11.880606
-22.414864 -6.4825926 -8.5998554
-14.342936 -3.5735159 -4.7907014
-14.310041 5.8582025 -6.471168
-14.1245 2.0420811 -11.877002
-14.31116 8.1411228 -9.5838413
-25.308716 -7.489666 -1.7864926
-14.305629 2.1654549 5.7701311
-14.1245 4.4818988 -16.317186
-14.310411 5.3050213 -7.5306597
-14.309345 -2.7382274 2.4239504
-18.46328 -5.3409142 -4.658349
-14.310633 1.3943881 -8.14221
-18.054766 -5.5745792 -1.6698782
-14.31077 7.0548935 -8.5148125
-23.656916 -7.5696011 1.6296049
-14.308723 9.8946419 -2.7110534
-14.305996 0.0025072098 4.7149649
-14.175501 7.9584179 -10.817703
-14.308934 -1.6920335 -3.4721181
-22.437393 -6.4907036 -10.389082
-14.307098 3.6917763 1.7098827
-14.308333 -2.6023648 -1.8171998
-22.553642 -7.7962656 5.0494485
-14.309609 -0.63861406 -5.3466349
-19.014935 -6.5759993 3.1003218
-14.284384 10.164803 -10.934401
-17.71497 -5.7372847 -0.0064127445
-14.306465 0.87704897 3.4279873
-14.309155 10.586602 -3.8949673
-17.088425 -6.2624679 -12.401892
-14.307555 8.1087236 0.51189876
-18.071461 -5.2275314 -4.0687509
-14.307451 5.8526278 0.76562858
-14.536688 -4.4858894 -2.8398433
-22.03093 -6.3727856 -9.4498329
-14.1245 8.2319136 -12.171099
-14.308061 -2.5866575 -1.058857
-14.305774 -0.23985028 5.3305826
-14.5373 -2.2889161 -16.328459
-18.594004 -5.381536 -7.937633
-14.309439 -0.49022341 -4.8625431
-20.728378 -6.1279101 -11.89369
-20.021801 -5.7890916 -3.8890648
-14.1245 1.528717 -16.482086
-25.387161 -7.3386354 -8.5812674
-14.310914 7.6175127 -8.9111614
-14.309787 0.52099991 -5.8325491
-14.306591 3.3036332 3.112891
-22.198069 -7.2701192 2.2157352
-14.307926 0.67041254 -0.63711333
-14.310604 -0.78796351 -8.0637674
-14.31114 9.0075388 -9.5283804
-16.503529 -5.2554836 -1.0978339
-23.046036 -6.9105606 -1.6302018
-14.311213 -1.0013936 -9.7220583
-14.1245 4.4719386 -15.78502
-14.30887 5.0607414 -3.189218
-14.306443 8.2211485 3.6021743
-18.334013 -6.0906591 1.2182837
-21.762463 -6.7205153 -14.120766
-14.306995 -1.5631635 1.9156462
-14.1245 7.7347088 -11.842611
-20.29052 -6.8374052 -14.56114
-23.955921 -6.9238725 -5.7687111
-19.048756 -5.5104046 -5.6134892
-14.310335 4.9766908 -7.3183923
-17.107477 -6.1893072 3.5122435
-14.1245 0.55514872 -16.269062
-14.305745 3.0286202 5.4606361
-17.068308 -5.3765955 -1.2438347
-14.5373 -2.3628576 -11.635166
-14.30809 4.9113092 -1.0253215
-14.306892 -2.3119204 2.1895657
-15.994367 -4.9399552 -7.4309559
-19.453817 -6.3771715 1.1533737
-18.586012 -5.4072084 -9.1857891
-14.308344 3.8369608 -1.743883
-25.692417 -7.4221573 -3.7293031
-14.309395 8.7393808 -4.5923395
-14.307011 2.8109457 1.9417894
-14.349081 -4.8775182 -8.8443422
-14.1245 -0.65367723 -11.524283
-14.308205 10.360503 -1.2611601
-14.30722 3.3335114 1.370629
-23.245705 -6.7224236 -9.1936979
-14.309438 -0.42236269 -4.8585787
-15.642708 -4.6518807 -6.3482409
-20.019981 -5.7884073 -3.7122469
-14.1245 -1.2917273 -12.19261
-21.856987 -6.3209953 -7.5835032
-14.124499 -1.4714496 -14.937757
-14.307331 8.9039478 1.1478004
-24.33688 -7.0373068 -9.8675518
-26.017406 -7.5151706 -3.0807347
-26.43696 -7.6367674 -3.9191778
-14.305689 7.3520217 5.6826043
-14.30578 5.6932459 5.4041147
-14.306404 0.73701096 3.5955873
-14.307516 -1.1288675 0.47825721
-14.1245 3.8044136 -16.320065
-23.024387 -6.6580105 -8.4535322
-14.309124 -1.5992018 -4.0004854
-14.310049 9.2498245 -6.4417982
-14.321525 -2.9689453 -7.5762382
-18.057808 -5.4891634 -2.2362692
-14.306587 1.8018961 3.1027381
-14.124499 1.2942264 -15.513317
-14.306576 8.8683119 3.2445474
-22.147644 -7.4277992 3.3397336
-15.297892 -5.4592848 1.7812123
-14.307569 1.356905 0.36654437
-14.398469 -1.9104782 -13.370159
-14.308444 8.4987211 -1.9523106
-24.332672 -7.0351343 -8.8076906
-14.665657 -5.7915878 4.6080475
-14.308627 -1.5582035 -2.6157188
-14.1245 7.8773165 -15.452156
-17.664215 -5.1119995 -6.0110703
-14.306875 7.8312812 2.396821
-24.318193 -7.0331397 -11.208399
-23.955917 -6.9262795 -8.4280615
-14.306926 1.3975863 2.1565237
-14.5373 -2.394196 -12.085424
-14.307828 1.3336678 -0.35458958
-14.321041 -3.0519938 2.271208
-14.350486 -4.0977015 -6.7418442
-14.5373 3.310503 -17.977489
-14.1245 0.88326156 -12.987156
-14.30843 9.9752207 -1.8907275
-14.310755 4.6847916 -8.475379
-14.30868 3.9497604 -2.6793766
-14.307207 7.4367256 1.4617815
-14.306621 8.8688354 3.117902
-14.306373 -1.3586684 3.6506107
-14.1245 0.5062688 -13.795317
-20.553537 -5.9464035 -8.4861412
-15.337884 -5.11163 -0.30594945
-24.850763 -7.5650539 -0.48977947
-16.761986 -4.9497995 -7.4674625
-14.788482 -5.8484049 -10.846825
-14.25725 10.153313 -12.764378
-21.582703 -6.4512529 -2.0860491
-19.769701 -6.9832134 -15.109606
-14.311016 6.9293089 -9.1899338
-14.854718 -4.5938439 -2.6544809
