# .PCD v0.7 - Point Cloud Data file format
VERSION 0.7
FIELDS x y z
SIZE 4 4 4
TYPE F F F
COUNT 1 1 1
WIDTH 1474
HEIGHT 1
VIEWPOINT 0 0 0 1 0 0 0
POINTS 1474
DATA ascii
-13.62369 -41.335091 -22.551035
-6.1810184 -40.122955 -29.397917
-15.181173 -41.731567 -22.4179
-14.316977 -23.628283 -25.926216
1.6047134 -40.759232 -29.387438
-2.6577487 -43.334801 -29.393175
-9.993351 -27.586609 -30.022848
-2.5244758 -34.258125 -29.992897
-18.030766 -34.941177 -22.640162
-13.623697 -46.727711 -22.541908
-14.316493 -31.411591 -24.714176
-5.2348738 -32.573185 -29.982815
-4.4377065 -45.305447 -29.395571
-9.7285528 -31.756199 -30.019934
-14.31842 -31.224413 -30.035927
-0.69827271 -38.014679 -30.000687
-5.2246008 -24.669926 -30.184399
-2.1592131 -22.362986 -29.9296
-14.31732 -32.139595 -26.986906
-8.2347631 -27.022667 -30.003614
-2.6109285 -29.564543 -29.9296
-13.340394 -41.557976 -28.812115
-18.580347 -29.804337 -22.640366
-5.3966808 -37.421005 -30.036367
-10.033313 -41.213112 -29.403103
-7.2393513 -22.887642 -29.992718
-3.1642494 -37.572781 -30.031143
-0.10051653 -25.479965 -29.9296
-0.52151728 -36.287781 -30.00893
-5.7527995 -44.263123 -29.397341
-10.45291 -47.511406 -29.403666
-16.905529 -40.087479 -22.4179
0.79973793 -36.675674 -30.009102
-14.503644 -27.681774 -22.638996
-13.569496 -40.566246 -28.125385
-13.772384 -28.89447 -30.064171
-14.905405 -39.505634 -22.4179
-10.805296 -31.376785 -30.03171
-14.31764 -31.458296 -27.866728
-14.317448 -36.233223 -27.400967
-8.3421383 -30.472448 -30.004776
-14.043007 -29.878803 -30.067129
-13.444016 -32.269714 -30.060564
-14.177571 -26.617373 -30.068615
-2.1564329 -28.485155 -29.9296
-9.3079529 -46.74778 -29.402124
-12.625866 -26.548765 -30.051643
-15.743378 -25.33404 -22.639421
-13.622497 -40.60265 -23.992855
-13.623336 -38.784302 -22.979084
-13.623112 -38.563725 -23.248743
-5.571908 -38.223061 -29.729258
-3.4659128 -39.300926 -29.394262
1.8912243 -35.004448 -29.987446
-7.8791142 -29.0361 -29.999718
-9.728385 -34.81078 -30.021162
3.0960741 -28.732569 -29.9296
-16.382372 -45.850395 -22.4179
-8.0070677 -44.825237 -29.400375
-14.317492 -32.999886 -27.477367
-13.623636 -45.206783 -22.615788
-18.216707 -35.277237 -22.640226
-9.4839258 -25.543535 -30.017288
-14.318357 -29.16993 -29.830542
-14.318254 -36.720467 -29.646727
-14.282706 -29.260542 -30.069752
-14.31778 -24.746761 -28.170198
-17.405554 -38.19529 -22.544151
-4.824944 -22.327488 -29.982651
1.2022918 -23.902441 -30.184401
-2.0790486 -39.260838 -29.392395
-13.622861 -48.276012 -23.553402
-10.494381 -41.199619 -29.403721
-9.3521519 -27.32703 -30.015839
-0.84019303 -33.840733 -29.983133
0.038350105 -46.447433 -29.389547
-14.318096 -36.944828 -29.208868
-0.61205673 -46.444206 -29.390425
-13.622372 -46.312035 -24.143179
-2.1483028 -28.710209 -29.9296
-7.7353272 -26.250082 -29.998148
-1.3301353 -41.407188 -29.391388
-16.510424 -28.942513 -22.639669
-4.2871017 -22.164017 -29.929581
-8.4766054 -45.015362 -29.401007
-14.31811 -23.645031 -29.072613
-4.8043242 -23.061148 -29.94128
-0.90191269 -45.704453 -29.39081
-12.487784 -36.022301 -30.050091
-18.076035 -29.263998 -22.640196
2.9554858 -24.073734 -30.184401
-11.408041 -28.675383 -30.038315
-16.295458 -40.129932 -22.4179
-3.2279742 -21.707514 -29.929592
-11.186766 -35.459087 -30.035862
-0.8690176 -43.496719 -29.390766
4.6301231 -25.408623 -29.9296
2.015332 -23.575832 -30.003603
-1.1951332 -27.354233 -29.9296
-9.693943 -48.259007 -29.402645
-13.785956 -23.356014 -30.064348
-13.62324 -41.888939 -23.094202
-14.652685 -25.858482 -22.639053
-10.766737 -37.599552 -30.054884
-15.090228 -45.58604 -22.4179
-11.399782 -26.534153 -30.038235
-14.317401 -26.90036 -27.142765
3.2382207 -26.07649 -29.9296
-10.421213 -48.274044 -29.403622
-1.815223 -29.261734 -29.9296
-8.7682333 -32.825062 -30.009422
-16.116625 -48.252548 -22.4179
-12.314719 -25.204479 -30.048246
-3.1172223 -45.239464 -29.393793
-14.316993 -32.164211 -26.080807
-11.751479 -30.560013 -30.042063
-13.622562 -48.049786 -23.913757
-14.315905 -34.139404 -23.153553
-0.68898439 -28.558485 -29.9296
-13.62289 -46.828636 -23.517899
-14.322825 -33.943974 -23.032694
-13.924072 -42.844215 -22.4179
-13.62075 -46.179798 -26.103586
-14.314619 -37.99102 -24.023102
-14.317875 -34.662071 -28.564182
-7.4194384 -21.656616 -29.99469
0.33430856 -24.353882 -30.184401
-16.026979 -36.895203 -22.639482
-3.5667543 -33.620964 -29.989136
-18.460007 -26.731688 -22.640335
-3.1966867 -40.149593 -29.3939
-6.9867764 -43.844902 -29.399002
-12.438821 -23.045551 -30.049614
-14.31815 -37.421078 -29.365858
-3.6786771 -46.197227 -29.39455
-15.076639 -44.421249 -22.4179
-10.004952 -42.66523 -29.403065
-0.54572201 -45.37812 -29.390333
-3.2112823 -40.521805 -29.393919
0.83214617 -28.430771 -30.184401
-2.5397367 -23.800514 -30.184401
-13.402062 -36.619221 -30.060083
-5.0480909 -32.178391 -29.978001
-4.0489678 -29.576658 -29.9296
-14.316099 -32.005882 -23.655563
2.7061691 -30.113037 -29.9296
0.18992661 -33.720757 -29.978643
-7.860199 -38.34465 -29.569468
-13.789185 -38.427586 -23.067698
-14.316035 -35.133976 -23.516064
-2.4400177 -32.959774 -29.978428
-10.966816 -45.939693 -29.404358
-19.024391 -27.622559 -22.640522
-5.8307447 -47.434437 -29.397446
-1.8855784 -39.937515 -29.392138
-5.3947134 -33.906376 -29.997898
-12.870649 -39.537727 -29.179184
-6.8703532 -39.924339 -29.398846
0.49100399 -43.503197 -29.388937
-11.050689 -34.038807 -30.034382
-11.020275 -47.985142 -29.404428
-4.99578 -39.033054 -29.396322
-13.43906 -37.819527 -30.065535
-13.619501 -45.565067 -27.61113
-13.622473 -44.07407 -24.022346
-16.00206 -25.910202 -22.639509
-3.6753516 -31.457722 -30.184401
-5.7601614 -39.239979 -29.39735
-13.640213 -35.59697 -30.062695
-11.249683 -48.346153 -29.404739
-14.317483 -29.77076 -27.410238
-14.316278 -31.894154 -24.140039
-13.619609 -42.695007 -27.481766
2.0435195 -26.427441 -29.9296
-14.317659 -35.002071 -27.967861
-3.8387866 -34.096348 -29.995178
-14.317142 -30.840782 -26.480024
-12.514949 -26.260094 -30.050432
-13.582749 -44.529781 -28.085663
-3.7958493 -42.83469 -29.394707
-2.9142177 -32.454288 -29.978001
-1.0092382 -47.410187 -29.390957
1.3830522 -26.751348 -30.184402
-9.0364056 -40.224068 -29.40176
-0.76332939 -33.880146 -29.983326
-14.315778 -37.062645 -22.8414
-13.162762 -39.502121 -29.082188
-14.317999 -37.71957 -28.952881
-8.8020487 -33.284466 -30.00979
-11.390973 -35.599388 -30.038095
-1.931015 -47.224937 -29.392199
-13.623042 -39.012321 -23.333727
-6.9416227 -36.14534 -30.027172
2.4654317 -36.360813 -30.000519
-5.5583882 -23.811777 -30.170387
-13.121965 -43.271893 -29.095734
-10.520823 -23.822191 -30.028635
1.0514755 -37.755959 -30.020149
-13.582113 -46.242939 -28.087568
1.0908127 -35.679798 -29.997305
-13.622128 -42.301411 -24.43821
-11.940617 -39.196655 -29.405668
-5.9897561 -33.147652 -29.99143
-2.8853917 -35.763107 -30.010479
-16.440157 -41.410988 -22.4179
-11.742861 -35.268269 -30.041946
2.1825342 -38.434994 -29.427597
-4.8451061 -21.007856 -30.023092
-12.660852 -35.565666 -30.051987
-17.829308 -26.996912 -22.640121
1.831411 -22.823505 -29.9296
-13.622229 -39.092381 -24.317732
-16.128805 -35.649876 -22.639519
-5.0041656 -28.702694 -30.184401
-8.7500534 -25.35993 -30.009253
-14.432123 -25.611979 -22.967167
-12.701559 -44.553131 -29.235332
-14.446177 -27.733988 -22.638977
-18.23877 -31.43755 -22.640245
1.5196335 -30.024824 -30.184402
3.2578917 -25.242655 -29.9296
-14.316932 -30.409832 -25.888018
-14.316862 -37.559628 -25.790401
-13.619725 -48.218422 -27.342655
-13.621694 -39.75655 -24.961918
-13.619984 -47.008457 -27.029972
4.0615888 -24.911041 -30.071585
-1.0601511 -48.449306 -29.391026
-13.311366 -41.031197 -28.89913
-2.4445634 -41.30183 -29.392887
-10.280731 -25.82556 -30.026001
-14.317665 -31.107079 -27.934811
-14.316347 -31.83519 -24.323936
2.482167 -27.100449 -29.9296
2.58284 -33.590004 -29.978001
2.7372086 -33.201389 -29.978001
0.07923758 -23.671242 -30.177374
-11.629799 -25.61499 -30.040756
2.2606955 -23.501572 -29.9296
0.10201216 -31.777054 -30.075504
-14.31646 -24.854307 -24.55698
-14.408037 -23.971081 -23.377592
-4.1025214 -34.328568 -29.998533
-15.823942 -48.460812 -22.4179
-7.1914768 -30.530724 -29.992191
-1.0441313 -43.9445 -29.391003
2.0763664 -34.132874 -29.978001
-14.269986 -38.927162 -22.4179
3.3465674 -24.85338 -30.176605
-12.979237 -24.616837 -30.055519
-6.1997552 -27.67219 -29.98134
2.7000771 -34.2939 -29.978001
-12.487935 -32.975712 -30.050104
-1.127474 -23.692814 -30.184402
1.4068773 -29.512556 -30.184399
-5.9178295 -26.010168 -29.978252
-4.326385 -39.771942 -29.395422
-9.2774658 -35.73188 -30.029852
-4.3503342 -26.696781 -29.9296
-13.576775 -41.851784 -28.103569
-14.355534 -23.906889 -23.872181
2.6229186 -27.225721 -29.9296
-13.622962 -45.245804 -23.43079
-13.532094 -44.684685 -28.237497
-15.888828 -33.65263 -22.639446
-6.7446251 -31.551865 -29.987299
-14.443632 -26.530724 -22.755728
-0.32749858 -22.553438 -29.9296
-10.581286 -30.494591 -30.029266
-4.6974444 -40.703094 -29.39592
-14.316458 -24.518032 -24.545937
-14.316294 -35.031631 -24.213543
-14.31839 -27.288258 -29.896717
-7.6563697 -45.128548 -29.399904
-14.317038 -23.631496 -26.096115
-11.075247 -26.874119 -30.034683
-3.1225719 -37.027451 -30.025047
-14.317402 -23.482616 -27.10285
-16.42165 -30.174622 -22.639633
-4.8192935 -30.059366 -29.971317
0.34855336 -24.603447 -30.184402
-14.316872 -27.095707 -25.680389
-8.3018885 -29.432831 -30.004341
-14.576446 -26.528027 -22.639027
-14.318436 -24.318233 -29.98451
-13.623386 -43.864323 -22.918783
-13.623718 -48.577721 -22.516598
-7.6594152 -37.01704 -30.038927
-6.4916763 -36.834488 -30.033327
-0.28408909 -43.117653 -29.38998
-3.2737887 -39.758766 -29.394005
-14.193163 -38.077934 -28.718657
-3.654999 -26.627001 -29.9296
-0.47799206 -45.682045 -29.390242
-14.317635 -37.196529 -27.934002
-6.9975505 -47.015522 -29.399017
0.25224686 -41.670837 -29.389259
-14.317885 -34.399254 -28.591986
-6.6247058 -47.716862 -29.398514
-13.763198 -38.375763 -29.355629
-8.5660667 -29.93675 -30.007229
-16.960773 -40.549332 -22.4179
-1.9751053 -46.156219 -29.392254
-13.621595 -45.235435 -25.081863
-14.317828 -27.119017 -28.331543
-13.79499 -39.107182 -22.4179
-14.316313 -27.630722 -24.186533
-6.0422659 -28.536654 -29.979616
-13.846088 -37.666862 -30.065119
1.8368187 -39.739311 -29.387127
-6.1184926 -30.973858 -29.980452
-13.633879 -24.510113 -30.062679
-7.3084335 -31.405588 -29.993467
-13.451278 -44.734589 -28.479744
-12.869227 -38.81546 -29.179659
-13.622279 -48.138145 -24.256458
-13.622152 -45.762772 -24.408995
-14.093064 -46.113918 -22.4179
-5.0417061 -46.072952 -29.396381
-12.976909 -25.857082 -30.055489
-14.317017 -24.717499 -26.052488
-14.552638 -35.176228 -22.638988
-13.342737 -42.565804 -28.805092
-3.164284 -35.605446 -30.009615
-13.741842 -33.409962 -30.063816
-6.3551188 -35.508583 -30.018394
-0.58350641 -23.090364 -29.9296
2.2712064 -30.897476 -30.03701
0.53853321 -44.385799 -29.388874
-7.0494165 -23.566338 -29.990639
-14.317608 -35.630173 -27.834372
-13.622196 -41.3727 -24.35713
-17.925121 -24.574915 -22.64016
-0.73365593 -48.304337 -29.390587
1.761253 -30.32106 -30.063915
-10.904546 -29.653133 -30.032804
-11.887994 -42.80653 -29.405596
-13.623381 -45.682411 -22.925085
-8.2679625 -25.0415 -30.003979
-14.317714 -27.714659 -28.02277
-4.0279064 -38.707787 -29.39502
-14.317375 -36.392204 -27.20129
-14.573124 -35.213451 -22.638996
3.7995024 -29.955753 -29.9296
-15.7258 -41.874619 -22.4179
-11.553869 -31.144608 -30.039898
-1.984477 -40.987335 -29.392269
-14.737712 -40.883186 -22.4179
4.6064186 -24.778116 -30.184399
-6.2444434 -38.656803 -29.398001
-14.315808 -36.529839 -22.920643
-1.6371922 -26.231361 -29.9296
-0.88736105 -38.338184 -29.562763
0.54998887 -25.316422 -30.011835
-14.317216 -28.957333 -26.658886
-10.440033 -26.152969 -30.02774
-10.997268 -29.433945 -30.033817
-2.0825963 -31.332207 -30.184401
-4.801527 -25.443144 -29.935673
-13.61948 -42.40786 -27.637651
-13.619617 -39.59502 -27.472893
-8.4776583 -43.876884 -29.401007
-13.621167 -42.009415 -25.598705
-14.317059 -36.619164 -26.321457
-14.316917 -28.213968 -25.824924
-12.842447 -46.99155 -29.188549
-7.5618448 -48.430115 -29.399775
-3.1060109 -41.174255 -29.39378
-13.620866 -46.533428 -25.96336
-13.072349 -27.27599 -30.056524
-14.31709 -34.702457 -26.384405
-16.047873 -24.490593 -22.639526
-3.9059541 -32.844692 -29.981688
-9.718914 -44.001534 -29.402679
-6.5731125 -32.297302 -29.98542
-17.742704 -38.304611 -22.498249
-16.766068 -29.121426 -22.639755
-4.2142162 -28.58959 -29.9296
-0.024503589 -33.969707 -29.982029
-12.018522 -23.26687 -30.045017
-0.57121849 -46.693295 -29.390366
-2.8906293 -44.867401 -29.393486
-7.5956783 -24.945112 -29.996618
-14.938663 -35.578472 -22.639118
-18.781628 -29.076874 -22.640434
-3.4109707 -28.739388 -29.9296
-3.6735258 -26.439341 -29.9296
-14.716948 -26.190178 -22.639072
-13.291862 -45.873337 -28.957588
0.45272803 -36.065395 -30.003494
-14.316163 -28.717896 -23.792431
-3.4348774 -35.155144 -30.005522
-7.1565762 -38.210899 -29.749823
-12.19627 -35.377884 -30.046904
-14.316393 -37.302113 -24.505638
-14.388685 -26.346542 -23.286652
4.186769 -29.67025 -29.9296
0.93155861 -42.464977 -29.388346
-13.426853 -46.9786 -28.552954
-7.3006272 -26.004219 -29.993389
-17.543404 -30.986897 -22.640011
-10.244484 -30.167372 -30.025583
-5.6532841 -33.061218 -29.989447
-13.619708 -47.048264 -27.361486
-5.4428291 -41.980682 -29.396923
-11.692754 -48.603779 -29.405334
-2.9587452 -22.917284 -29.9296
-12.313194 -43.366047 -29.364296
-14.620152 -29.593945 -22.63903
2.6857779 -35.842384 -29.994164
-15.083874 -25.05159 -22.6392
-18.18663 -29.879595 -22.640232
-17.499983 -40.046799 -22.4179
-16.32708 -24.520578 -22.639622
-13.621449 -45.701199 -25.258518
2.9766364 -23.707357 -30.184401
-0.91835499 -46.403492 -29.390833
-9.6329241 -41.228069 -29.402561
-0.16126749 -28.116756 -29.9296
-9.1537476 -36.120804 -30.033728
-0.67158604 -42.940086 -29.390501
-14.316565 -31.364693 -24.904678
-10.278024 -45.535667 -29.403431
-5.3063226 -46.369957 -29.396738
-15.888005 -33.361973 -22.639446
-4.5008707 -28.03005 -29.9296
-13.623256 -45.889114 -23.075613
-13.893209 -34.799706 -30.065466
1.7116482 -25.795094 -30.163439
-14.31622 -32.007893 -23.983721
-12.125365 -34.379856 -30.046135
-13.713153 -38.413979 -25.293386
-14.317986 -24.346661 -28.736702
-4.5839896 -47.966232 -29.395767
-13.621565 -42.570793 -25.1185
-14.317537 -35.9081 -27.645952
-14.316869 -27.53256 -25.676888
-6.669848 -41.768921 -29.398575
-5.5038409 -47.067669 -29.397007
5.1835246 -24.399529 -30.184399
-14.317943 -35.702095 -28.769711
2.6106305 -23.565739 -29.985222
-2.8108249 -40.421917 -29.393381
-12.818259 -28.260538 -30.053741
-2.6384866 -29.144598 -29.9296
-14.367075 -29.453522 -23.133406
-0.93867636 -26.30072 -29.9296
-13.972363 -46.689617 -22.4179
-2.145165 -23.76516 -30.184399
-14.317295 -23.333874 -26.809113
-11.835342 -30.328321 -30.04298
-14.318224 -25.618666 -29.416477
-14.316388 -34.986702 -24.468842
1.0776262 -34.310467 -29.982361
-4.5477295 -25.326242 -29.9296
-4.9736977 -25.042761 -30.184401
-8.6124458 -45.717319 -29.401188
-7.993566 -34.743065 -30.015072
0.0029973984 -45.112724 -29.389593
-14.317201 -37.451073 -26.726011
-2.9898868 -25.27634 -29.9296
-0.98284429 -27.316422 -29.9296
-14.317813 -26.184198 -28.28001
-9.3787384 -31.175819 -30.016109
-18.807316 -25.709394 -22.640453
-13.619404 -45.173279 -27.728931
-17.007536 -42.282879 -22.4179
-11.283356 -27.24242 -30.036957
-13.692137 -32.297211 -30.063278
-2.5878727 -32.394218 -29.978001
-15.155221 -32.667442 -22.6392
-13.461304 -39.250393 -28.449696
-7.7534552 -43.046867 -29.400032
-3.4530859 -37.245918 -30.028458
-17.303465 -41.853138 -22.4179
-14.31779 -31.001808 -28.279812
-11.368338 -47.463615 -29.404898
-14.316447 -37.348778 -24.653429
1.7664899 -30.205225 -30.05341
-10.413301 -27.181355 -30.027443
-14.318132 -24.424124 -29.141094
-8.6501694 -38.019104 -30.014774
-14.317166 -35.566029 -26.608248
-0.33683169 -33.07901 -29.978001
-2.3782563 -41.440979 -29.392797
-13.623182 -40.595432 -23.164173
-8.2425346 -36.287605 -30.032742
-8.5642052 -22.270761 -30.007219
-5.3350511 -46.875008 -29.396778
-4.8295164 -27.40896 -29.991829
-7.6791787 -31.399088 -29.997522
-4.1257243 -43.118752 -29.395151
-1.8467293 -40.582214 -29.392082
-14.339822 -33.742432 -22.897907
-7.2927089 -23.41153 -29.993305
-13.620098 -39.228676 -26.890268
-0.30727547 -26.012951 -29.9296
-14.039173 -45.35825 -22.4179
-10.392698 -38.341736 -29.579838
-2.3368459 -24.081696 -30.184399
-13.620349 -46.209377 -26.587795
0.37891278 -30.681753 -29.9296
-14.315929 -35.687935 -23.23682
0.11485004 -46.289047 -29.389442
-14.318056 -32.355164 -29.037241
-13.621819 -47.188995 -24.812943
-9.4993782 -44.430649 -29.402382
-13.310632 -45.478439 -28.901329
-4.9006147 -33.144684 -29.988037
-10.239307 -47.956303 -29.403376
-9.6594267 -28.569107 -30.019192
-7.5333776 -37.14072 -30.03989
-11.003661 -43.016453 -29.404408
-9.4118404 -47.772377 -29.402264
-8.7358761 -28.371788 -30.009094
-4.8173208 -48.250618 -29.39608
-13.801614 -30.686621 -30.064484
-14.317675 -28.519581 -27.924738
-1.6404543 -43.830048 -29.391808
-8.7872887 -21.910877 -30.009661
-12.469234 -40.060822 -29.312481
-5.475791 -44.023712 -29.396967
-12.037189 -22.604658 -30.045225
-1.4385165 -21.602921 -29.9296
-14.26175 -42.660027 -22.4179
-7.736392 -44.720657 -29.400007
-14.045046 -24.210485 -30.067177
-3.5145249 -42.615623 -29.394327
-10.495794 -35.345573 -30.029381
-16.412106 -48.457909 -22.417902
-11.87023 -26.665047 -30.043381
-14.318075 -37.601482 -29.158092
-8.2051144 -41.725697 -29.400639
-5.8498249 -32.624615 -29.985273
-13.622258 -39.597672 -24.280981
0.28778729 -26.4758 -29.9296
-10.336579 -22.57328 -30.026617
-8.9024029 -27.496649 -30.010918
-13.62089 -39.628689 -25.934734
0.37139952 -33.33522 -29.978001
-14.316178 -31.628019 -23.864433
-11.078997 -22.73609 -30.034742
-0.79640418 -26.947884 -29.9296
-10.635879 -44.865208 -29.403913
-16.936987 -44.417034 -22.4179
-9.0158434 -43.871883 -29.401731
-12.73085 -38.221992 -29.748806
-3.5428922 -35.435398 -30.008923
-6.8015652 -44.093872 -29.398752
-11.999115 -32.103268 -30.044765
-0.74686122 -39.842014 -29.390604
-2.5760431 -30.978838 -30.184401
-11.643454 -25.187355 -30.040909
-14.31707 -23.994934 -26.190229
-3.0940876 -37.399979 -30.029037
-3.182354 -48.590427 -29.393879
-3.1566365 -27.493448 -29.9296
-14.343234 -25.485733 -23.806522
-8.0121231 -32.695862 -30.001156
-13.619978 -42.41066 -27.036148
2.4606917 -23.899914 -30.184401
-8.5736103 -38.154995 -29.829529
-14.316344 -37.42178 -24.375605
-14.318412 -34.93504 -30.061605
-13.62342 -39.446972 -22.878078
-5.209733 -26.017616 -30.184402
-13.265703 -40.036255 -29.036001
-14.316471 -36.584156 -24.707386
-1.6342046 -22.172832 -29.9296
-3.1452274 -48.00098 -29.393829
0.50649357 -38.853458 -29.388916
0.93113273 -26.504868 -30.184401
-7.5170574 -43.613865 -29.399715
-14.31268 -44.369049 -22.4179
-0.22036171 -39.444351 -29.389896
-5.6550813 -45.11153 -29.397207
2.2641006 -28.146511 -29.9296
-17.918028 -32.096348 -22.640135
-14.317273 -34.530972 -26.888931
-12.279832 -36.619335 -30.048822
-11.925936 -43.54628 -29.405649
0.81834447 -25.045696 -30.184401
-2.7070894 -23.444536 -29.9296
-10.571181 -43.450787 -29.403824
-10.29695 -39.410332 -29.403456
-13.621162 -39.53854 -25.605997
-6.3594732 -36.406021 -30.028229
-8.2830191 -31.431786 -30.004124
-7.118329 -42.296936 -29.399178
-14.384151 -25.739424 -23.397879
-0.24206734 -46.217087 -29.389923
-1.7588965 -21.183193 -29.9296
-3.3013587 -30.687481 -29.9296
-5.938436 -38.143963 -29.837894
-12.975193 -30.733318 -30.055447
-12.879242 -35.163727 -30.054375
-13.067192 -42.427059 -29.113922
-15.407882 -34.910198 -22.639278
-5.6585827 -34.353043 -30.003601
-10.741737 -22.567165 -30.031052
-1.6213307 -32.91069 -29.978001
-10.362603 -33.585007 -30.026859
-3.9095383 -43.568428 -29.394859
-5.991261 -38.370487 -29.530165
-8.0454683 -45.902229 -29.400427
-11.927322 -28.673431 -30.043995
-14.342018 -32.595161 -23.00816
-0.60225582 -43.239815 -29.390409
-7.9624796 -41.054729 -29.400314
-9.9041433 -35.864304 -30.033234
-8.6982079 -31.727364 -30.008663
-14.327115 -32.681736 -23.136621
-16.90299 -27.949707 -22.639805
-12.662699 -39.757484 -29.248238
1.4527473 -39.187122 -29.387644
-13.781863 -38.366585 -25.315189
-10.201509 -47.090866 -29.403326
-13.395783 -43.537994 -28.646088
-14.318203 -31.945854 -29.442183
-14.680947 -27.026592 -22.639057
-7.5671377 -43.616508 -29.399782
-0.48250598 -21.611816 -29.9296
-8.5925274 -45.093063 -29.401163
0.91174066 -32.766319 -29.978001
-1.2828722 -44.069996 -29.391325
-8.9729223 -44.882149 -29.401672
-2.2219489 -28.3606 -29.9296
-15.121289 -36.466644 -22.639177
-13.777699 -48.374714 -22.4179
1.7252725 -26.133736 -30.136105
-5.2063646 -21.213564 -30.184402
-2.6094985 -36.822739 -30.021225
1.3513179 -38.327919 -29.571869
-13.623081 -45.757904 -23.286175
-19.29681 -26.070284 -22.640617
-14.31636 -24.131676 -24.282827
-10.190082 -38.580376 -29.403313
-0.64392114 -29.941017 -29.9296
-0.95262718 -45.475849 -29.390882
-6.1542835 -33.844185 -29.999559
-18.061005 -30.941833 -22.640184
-1.4660559 -46.327049 -29.391571
1.5467362 -37.834042 -30.019474
-10.841954 -43.710316 -29.404188
-6.473659 -48.086342 -29.39831
-3.4671521 -24.752504 -30.184401
-16.968456 -28.435534 -22.639826
-1.4868754 -24.029963 -30.184401
-0.40212488 -34.505219 -29.989056
-14.316936 -30.195013 -25.896423
-13.621627 -44.225349 -25.043903
-14.065955 -38.167206 -28.094433
3.0880566 -25.930449 -29.9296
0.39088249 -44.4823 -29.389072
-14.317262 -33.408112 -26.844687
-12.567057 -33.312229 -30.050972
0.23068561 -30.417189 -29.9296
-13.623403 -41.785049 -22.897903
-13.628393 -47.124298 -22.4179
-14.31776 -37.416092 -28.28413
-17.685083 -36.200169 -22.640041
-14.317083 -30.580206 -26.312515
-6.0616846 -25.706032 -29.97983
1.3226414 -37.692612 -30.018618
-3.8902936 -39.112247 -29.394835
-14.385273 -26.181326 -23.337149
-5.9031219 -36.583733 -30.028769
-1.289879 -28.478529 -29.9296
-13.619524 -45.714008 -27.584282
-2.7949305 -44.525463 -29.39336
-12.296429 -38.330635 -29.59977
-13.543636 -47.307678 -28.2029
-5.1297116 -36.291702 -30.023186
0.81879479 -34.047905 -29.980284
-2.1429238 -37.495667 -30.027149
-5.7801428 -34.933979 -30.010334
-4.9473076 -44.89196 -29.396255
-3.9156756 -45.379375 -29.394867
-9.6110201 -43.81963 -29.402531
-7.826057 -39.09124 -29.400131
-7.2207866 -48.631962 -29.399317
-13.621168 -45.364914 -25.599106
0.30136776 -46.576347 -29.389193
-14.316574 -36.53091 -24.987432
-14.316774 -33.219879 -25.487453
-11.71381 -29.585558 -30.041655
-12.56558 -24.786015 -30.050995
-14.104216 -38.14053 -28.156721
-15.723216 -45.377403 -22.4179
-14.318155 -23.810469 -29.201771
0.28768823 -23.792671 -30.184401
-3.1038854 -28.482065 -29.9296
-9.4170103 -32.708996 -30.016521
-17.347057 -42.003555 -22.4179
-1.8967563 -21.4666 -29.9296
0.37118644 -30.644882 -29.9296
-11.585467 -41.614288 -29.40519
-14.316593 -26.382502 -24.931936
-14.596428 -42.080368 -22.4179
-10.670224 -45.876648 -29.403957
-0.22853337 -40.330112 -29.389906
-4.2883635 -43.105209 -29.395369
-11.982919 -41.193718 -29.405724
-1.0006639 -34.057251 -29.985998
-7.4733334 -27.589258 -29.995279
-14.316853 -35.812626 -25.740311
-0.27711993 -23.915506 -30.184401
-14.31718 -31.692394 -26.592272
-13.041607 -45.300766 -29.122417
-3.8373318 -46.700851 -29.394764
-3.7454758 -39.047825 -29.394638
-15.476927 -26.10284 -22.63933
-0.82558775 -32.011559 -29.978001
-0.20443642 -32.753883 -29.978001
-5.3194957 -23.095005 -30.184401
-10.796221 -23.838024 -30.031647
-7.6631603 -41.863567 -29.399912
-12.657337 -38.057301 -29.972889
-16.527592 -47.121418 -22.4179
-7.8050041 -35.251534 -30.020054
-14.366462 -27.366636 -23.376743
-0.42000389 -37.263092 -30.019291
-6.2913151 -25.274611 -29.982342
-6.2219067 -48.161129 -29.397972
-11.652207 -28.790226 -30.040985
-14.317661 -25.907629 -27.850166
-13.619486 -40.983017 -27.631388
-10.549372 -24.500961 -30.028946
-1.9675012 -36.217033 -30.012615
-12.448872 -33.912788 -30.049675
-13.069921 -45.460045 -29.113016
-14.316449 -31.314949 -24.596941
-14.318195 -25.468456 -29.330761
-14.318383 -30.300426 -29.921383
-14.323017 -29.32893 -23.556477
-9.3775787 -32.896194 -30.016088
-14.317763 -30.833298 -28.203018
-3.9660258 -45.806099 -29.394936
-12.105757 -36.925915 -30.051641
0.52097702 -38.849682 -29.388897
-1.2563314 -47.907825 -29.391291
0.34097052 -37.009445 -30.014168
-16.321861 -45.260963 -22.4179
-10.292373 -22.289951 -30.026134
-8.4519939 -34.069538 -30.009113
-15.788907 -38.545662 -22.417898
-9.7342043 -36.767963 -30.042599
-12.199068 -46.034164 -29.402191
-11.348391 -47.238697 -29.404871
-19.054005 -26.749069 -22.640533
-13.621964 -44.769714 -24.636507
-4.1744967 -37.22467 -30.030449
-13.573679 -43.560841 -28.112846
-18.20159 -31.510471 -22.640232
-14.317422 -27.551502 -27.211662
-9.0509148 -43.197716 -29.401779
-1.5735521 -44.516541 -29.391716
-16.232327 -40.248558 -22.4179
-5.1838369 -48.043381 -29.396576
-1.3371396 -37.031227 -30.019585
-9.1094522 -43.670094 -29.401857
-9.3575802 -45.575169 -29.402193
-16.981113 -36.467327 -22.639805
3.9343967 -24.69326 -30.184401
-13.596987 -46.585373 -28.042986
2.7195621 -30.931902 -30.099716
-14.317192 -29.647221 -26.601667
-17.2859 -27.695915 -22.639935
-5.8477216 -39.49535 -29.397469
-13.622018 -47.473595 -24.57151
-3.7875528 -40.060215 -29.394695
-8.8585596 -22.619579 -30.010441
-16.053223 -25.314236 -22.639526
-7.0229001 -32.735218 -29.990337
-2.3140306 -44.209869 -29.392712
-14.176501 -26.223005 -30.068605
-13.240544 -38.511951 -29.056356
-6.4591279 -47.41119 -29.398293
-13.620457 -44.971027 -26.45755
-14.317978 -37.976437 -28.896425
-15.689472 -25.365755 -22.639404
-13.286798 -31.687031 -30.058849
-16.346451 -43.64325 -22.4179
-14.317014 -34.904327 -26.172794
-14.317907 -26.528812 -28.545515
-13.619642 -45.167656 -27.441942
4.8375788 -24.055805 -30.184402
-6.9103298 -36.264702 -30.028381
-9.5071955 -26.206818 -30.017536
-13.463057 -40.555523 -28.444433
-7.0129538 -38.264885 -29.675945
-17.33152 -36.434593 -22.639921
-3.4787002 -31.150787 -30.184402
-14.336447 -32.026821 -23.124607
-14.317999 -30.321444 -28.850357
-6.3236561 -24.870098 -29.982697
-14.318407 -33.106201 -30.021751
-6.8111982 -26.409561 -29.988035
-1.1887453 -24.184235 -30.184402
-14.317582 -36.797646 -27.780373
-1.7094264 -37.514961 -30.026026
-14.317181 -31.35961 -26.592403
-7.4828763 -38.154266 -29.827763
-2.8424683 -22.861156 -29.9296
-6.1221976 -31.797216 -29.98049
-14.317043 -26.202873 -26.143873
-16.450401 -38.269066 -22.515821
-8.4758186 -33.744904 -30.006222
-7.2998505 -29.584566 -29.993382
-2.7949457 -43.641888 -29.39336
-14.316425 -33.191959 -24.552763
-13.373674 -37.285416 -30.059772
-7.753849 -28.066456 -29.998352
-13.623593 -48.075897 -22.668484
-12.361331 -28.486563 -30.048742
-7.4984016 -46.95562 -29.399693
-1.6616039 -27.330704 -29.9296
1.4836328 -25.206572 -30.184402
-4.3443723 -30.088678 -29.9296
-14.317693 -32.443916 -28.028133
0.62597704 -22.120533 -30.164291
-10.46004 -45.904282 -29.403677
-14.317311 -34.907833 -27.002197
-0.66380978 -40.614567 -29.390491
-14.318285 -28.192909 -29.618778
5.3422332 -24.547956 -30.184402
-13.995681 -28.996969 -30.066614
-14.374867 -33.039841 -22.652662
-5.1472373 -45.581375 -29.396523
-10.005575 -27.019888 -30.022985
-6.3113174 -21.794836 -29.982563
-12.015224 -40.542458 -29.405767
-13.619303 -44.73613 -27.852398
-13.623478 -39.156055 -22.808903
-4.5961161 -41.228203 -29.395784
-11.111191 -34.868896 -30.03504
-14.052677 -44.096958 -22.4179
-1.8651257 -25.478607 -29.9296
-15.372723 -38.12981 -22.575741
-8.560297 -35.862617 -30.029072
-5.4192929 -23.929974 -30.184401
-0.18727016 -31.987564 -29.978001
-2.2201986 -44.196548 -29.392586
-15.229054 -33.90591 -22.639221
-4.9586425 -36.624107 -30.026297
-6.1056795 -35.171722 -30.013939
-14.318052 -28.161648 -28.972095
-13.619488 -44.83424 -27.627815
-16.037512 -27.714458 -22.639515
-4.2447495 -39.701267 -29.395311
-6.8235474 -24.633186 -29.988167
-4.1836939 -36.06675 -30.017807
-14.12199 -38.125816 -29.819897
-6.0223274 -26.46965 -29.979401
-13.619922 -43.232895 -27.104506
-9.9608936 -41.660927 -29.403006
-9.7582464 -41.694443 -29.402733
-14.316957 -36.519344 -26.036669
-10.438889 -26.443012 -30.027725
-11.479254 -23.010208 -30.039122
-9.9363871 -30.646614 -30.022211
-6.6203847 -47.431816 -29.39851
-3.1844673 -40.244041 -29.393885
-1.3980927 -21.369917 -29.9296
-13.619783 -40.118187 -27.272341
-5.2377725 -28.072868 -30.184399
-2.4973345 -25.52203 -29.9296
-17.177622 -35.378746 -22.639874
-6.2603269 -31.179831 -29.982004
-8.9605331 -34.586903 -30.016342
-16.057255 -29.033886 -22.639517
-5.9768448 -40.279957 -29.397642
-0.73306704 -37.118675 -30.018677
-4.6011653 -23.838436 -30.184399
-14.317377 -33.085785 -27.16164
-5.9387693 -26.876453 -29.978485
-4.7853146 -21.230585 -29.929554
-14.316718 -36.792667 -25.377708
-2.8491993 -48.191143 -29.393435
-14.318175 -30.938435 -29.35183
-4.9497886 -34.351547 -30.0014
-0.41828299 -37.008232 -30.016499
-12.886497 -33.382584 -30.054462
-9.2656765 -37.663837 -30.050957
-13.223854 -46.71637 -29.061901
-14.316729 -24.193138 -25.277529
-13.03008 -35.464249 -30.056025
-12.721327 -26.81983 -30.052687
-13.622002 -44.089016 -24.590237
-7.2006326 -38.667976 -29.399288
-17.574797 -33.507751 -22.640015
-7.3951674 -30.375153 -29.994419
-12.408108 -47.555592 -29.332779
-1.9388356 -36.066059 -30.010876
-12.86834 -34.47086 -30.054258
-4.6652002 -22.965797 -29.92959
-7.7465739 -36.489277 -30.033419
-14.316771 -28.252525 -25.429642
-3.3917019 -30.094353 -29.9296
-6.9956226 -31.010643 -29.990047
-13.620049 -41.869839 -26.950447
-13.623577 -38.740677 -22.68854
-13.621906 -38.970169 -24.706919
-14.194288 -38.074547 -24.080685
-3.8393497 -38.139427 -29.83876
0.33556271 -23.956398 -30.184401
-13.622999 -44.929901 -23.38471
-1.2683975 -25.029392 -29.9296
-14.316084 -34.767994 -23.640823
-14.316697 -24.062853 -25.188917
2.386373 -30.453129 -29.929598
-2.9387367 -26.011806 -29.9296
-14.316702 -28.793381 -25.253429
-8.1884222 -28.629953 -30.003105
-14.317258 -30.432306 -26.794594
-14.318232 -26.468246 -29.444542
-14.316202 -37.440681 -23.991611
3.833488 -27.333282 -29.9296
-14.017827 -38.202312 -26.809998
0.25817347 -37.9184 -30.024372
-6.6143236 -31.654606 -29.985874
-14.316736 -25.857441 -25.315807
-17.889879 -28.003019 -22.640137
-9.7279053 -29.333529 -30.019938
-14.418541 -26.747934 -22.963858
2.4177823 -36.706398 -30.004448
-13.621843 -44.978542 -24.78256
-12.339751 -41.739822 -29.355476
-13.623131 -39.4678 -23.228306
-13.619569 -47.603771 -27.530617
-5.1572275 -30.573986 -30.184401
-15.643967 -41.879997 -22.4179
-14.316336 -27.386637 -24.24572
-0.70801425 -35.51646 -30.001066
-7.9177256 -26.360373 -30.000145
-10.221648 -35.769066 -30.033173
-7.4231434 -36.131683 -30.028511
-11.55506 -39.101444 -29.405149
-13.618301 -45.089638 -27.979092
-7.8400211 -47.488098 -29.40015
-3.2175071 -36.557327 -30.020197
-2.6654344 -25.157917 -29.9296
-4.3038721 -38.220749 -29.729197
-10.155941 -22.813782 -30.024639
-15.081085 -25.042267 -22.639198
-13.622092 -43.752609 -24.481394
-14.317008 -28.416151 -26.076939
-15.139707 -38.580456 -22.4179
-4.9896617 -20.939852 -30.184402
1.5196537 -33.590775 -29.978001
-14.317316 -34.312962 -27.008425
-15.57371 -27.448421 -22.639359
-15.625211 -45.983578 -22.4179
-13.83555 -26.651634 -30.064873
-1.7042747 -35.015579 -29.998657
1.1799011 -40.762363 -29.38801
-5.512939 -24.32901 -30.184401
0.98350501 -26.144951 -30.184401
-3.9518938 -37.688984 -30.034845
3.8285992 -30.746086 -29.9296
-1.9536667 -43.983231 -29.392227
-5.879024 -44.539577 -29.397511
-13.524599 -46.042301 -28.259966
-1.7763064 -29.385525 -29.9296
-0.47788 -37.097954 -30.017664
-6.0513244 -39.98333 -29.397741
-11.730026 -34.824581 -30.041807
-14.316755 -29.55164 -25.403761
-7.4408512 -26.424128 -29.994925
-14.317678 -30.121668 -27.957584
-0.19706059 -35.202515 -29.996052
-13.118423 -43.786663 -29.096909
2.4837155 -31.506876 -30.184399
-14.315911 -35.568012 -23.184605
-13.62039 -42.493423 -26.538658
-9.2003145 -29.620571 -30.014166
-8.445406 -35.458454 -30.024292
-16.814802 -45.866455 -22.4179
-16.473793 -46.164875 -22.4179
-10.640519 -42.155914 -29.403919
-4.8758712 -38.197029 -29.762936
-13.77149 -26.588251 -30.064173
-14.317524 -24.886686 -27.461262
3.9056718 -27.715191 -29.9296
-13.135171 -38.32132 -29.614578
-13.61978 -38.613899 -27.275463
-13.623277 -40.160019 -23.050661
-15.16241 -35.063599 -22.639196
-14.316816 -32.996037 -25.601818
-6.3580923 -33.969818 -30.001564
-12.941173 -40.923676 -29.155767
-15.057528 -47.826626 -22.4179
-6.4160557 -38.372375 -29.528509
-14.665063 -43.855747 -22.4179
-15.692363 -37.350681 -22.639366
-17.380262 -35.454899 -22.63994
-4.0549545 -37.228325 -30.030121
-13.378723 -42.822186 -28.697224
2.4516757 -23.012142 -29.9296
-16.693701 -25.949261 -22.63974
-4.961936 -23.773069 -30.184401
-18.071552 -27.132683 -22.640202
-9.2326765 -39.077427 -29.402023
-14.316393 -37.154552 -24.502728
-13.598537 -25.027802 -30.06229
-14.318075 -27.843037 -29.032761
-2.540055 -21.634029 -29.9296
-4.4389958 -42.562233 -29.395573
-13.619967 -46.473492 -27.049999
-0.61444664 -41.112179 -29.390425
-13.622564 -44.162701 -23.912243
-15.880182 -39.237823 -22.4179
-12.479574 -27.253548 -30.050041
-13.975498 -34.692017 -30.066364
1.3359666 -37.469494 -30.016136
-0.15014528 -27.568153 -29.9296
-4.8347669 -21.769444 -30.002357
-0.15776095 -30.994793 -30.184402
4.6263657 -25.578245 -29.9296
-1.5319138 -45.737125 -29.391663
-14.317899 -28.085306 -28.545294
-13.554626 -45.493507 -28.169962
-14.265169 -28.696426 -30.069561
-0.36585808 -46.531811 -29.390089
-0.00014543533 -37.174179 -30.017025
-14.317469 -36.700127 -27.46381
-14.31709 -30.577839 -26.332823
-14.317222 -35.63324 -26.762199
0.41329902 -34.146622 -29.982615
-16.396622 -44.620937 -22.4179
-13.620008 -44.570026 -27.000444
0.22644138 -41.723091 -29.389292
3.703362 -25.478615 -29.9296
-6.8020401 -35.242493 -30.016861
-8.1198769 -26.732927 -30.002356
-12.745483 -33.189713 -30.052921
-14.31536 -26.979134 -30.07012
-12.579475 -35.734394 -30.051094
-1.3862603 -24.888382 -30.112858
-14.317156 -37.111477 -26.596813
-10.56178 -29.892582 -30.029057
-16.349529 -41.499817 -22.4179
-7.5347142 -32.427349 -29.995935
-3.5227017 -39.992146 -29.394339
-13.61969 -39.951805 -27.38423
-1.987353 -33.238811 -29.980083
-0.82533407 -38.159561 -29.803715
-5.212132 -41.963581 -29.396612
-13.434766 -31.257946 -30.060469
-9.0301838 -27.365679 -30.012316
-5.861619 -25.628056 -29.996872
0.16108227 -45.154171 -29.389383
-14.318386 -23.982307 -29.841587
-16.943674 -25.785929 -22.639826
-15.170519 -29.127325 -22.639217
-11.332028 -24.164425 -30.037506
-13.922689 -45.648506 -22.4179
-6.7752252 -45.271259 -29.39872
-4.1277776 -24.825415 -30.184401
-1.5616292 -21.935061 -29.9296
-14.317389 -35.32481 -27.222569
-14.316457 -37.528095 -24.67808
-14.39568 -29.271235 -22.88868
-11.685118 -29.526358 -30.041342
-7.3530779 -46.851143 -29.399494
-13.511862 -44.75341 -28.298143
-14.336303 -34.898323 -22.798925
2.7725286 -35.367329 -29.988699
-9.9435234 -27.186626 -30.022305
-14.318365 -32.852959 -29.90287
-2.2876496 -35.539055 -30.006184
-5.9975848 -25.284592 -29.979128
-11.900908 -39.081127 -29.405615
-0.58446443 -24.978407 -29.948896
-13.533136 -44.157261 -28.234373
-4.3011303 -48.486332 -29.395386
-14.317118 -29.16156 -26.389605
-9.135993 -24.375954 -30.013477
1.448089 -40.381687 -29.38765
0.40112305 -37.860062 -30.023293
-8.5975103 -27.032604 -30.007584
-2.4642453 -45.216419 -29.392914
-14.316422 -33.026714 -24.543346
-1.6419215 -36.083122 -30.010147
-3.4593999 -26.386375 -29.9296
-15.681909 -24.428493 -22.639404
-14.317403 -31.180351 -27.205717
-14.317982 -30.547668 -28.807734
-16.50268 -28.318676 -22.639668
-14.318135 -24.183767 -29.146332
-2.3199015 -48.030708 -29.392719
-3.8395455 -29.992661 -29.9296
0.28794003 -46.355076 -29.389212
-9.3066254 -39.543446 -29.402122
-16.145525 -46.336853 -22.4179
-16.162125 -27.547106 -22.639557
-8.07658 -44.198055 -29.400469
-11.384398 -26.913694 -30.038065
-13.621922 -43.925629 -24.686813
-13.523358 -43.242851 -28.263683
-15.151129 -42.076778 -22.4179
-14.317186 -30.401663 -26.597563
-13.61953 -45.552956 -27.57814
-13.690495 -38.428314 -27.232359
-13.620949 -44.977947 -25.863014
-13.558578 -45.763611 -28.158115
-8.3330088 -45.975094 -29.400814
-14.317677 -36.9049 -28.041084
-2.8006482 -32.546043 -29.978001
-14.13522 -38.117561 -29.163635
-5.2198343 -48.640312 -29.396624
-14.318057 -26.299992 -28.958578
-10.433325 -32.340435 -30.027637
-9.1326027 -31.993065 -30.013414
-0.83791637 -35.629276 -30.002701
-14.316411 -33.803001 -24.51845
-13.220522 -41.217197 -29.063007
-7.896759 -38.218956 -29.740719
-5.990346 -32.316204 -29.982332
-16.134911 -40.880844 -22.4179
-6.7245855 -44.534901 -29.398649
-14.316467 -26.83485 -24.597908
-14.317535 -28.482601 -27.53838
-14.318023 -36.820473 -29.004269
-18.921257 -26.373936 -22.640491
-12.004439 -22.77747 -30.044865
-5.4978189 -46.620472 -29.396997
-1.3290098 -28.827457 -29.9296
3.3652563 -29.724552 -29.9296
-9.848217 -35.348396 -30.027414
-8.860363 -45.120678 -29.401522
-9.0894394 -21.947172 -30.012968
4.7241306 -24.266342 -30.184399
-13.620354 -39.566525 -26.58268
-13.6231 -39.605938 -23.264669
-0.31593904 -27.350668 -29.9296
-13.877871 -27.523129 -30.065334
-1.0295956 -22.862406 -29.9296
-14.384262 -37.05304 -22.638926
4.1063485 -28.710945 -29.9296
-14.317994 -32.356926 -28.86422
0.28523731 -45.485039 -29.389215
1.2077894 -42.100883 -29.387974
-8.2665977 -43.039898 -29.400723
-6.4314437 -39.342018 -29.398252
-13.621138 -44.565739 -25.63501
-14.317035 -29.470776 -26.163137
-14.317022 -37.555943 -26.233505
-5.8820424 -36.959877 -30.032818
1.1808732 -26.211561 -30.184401
-11.603271 -30.706926 -30.040443
3.3930733 -23.770428 -30.184399
-14.526959 -42.574131 -22.4179
-4.3385453 -32.642239 -29.980806
-3.2474284 -36.953007 -30.02462
-13.623246 -38.714481 -23.086058
-13.620995 -46.374969 -25.809547
-7.9864283 -26.842323 -30.000895
-10.974548 -27.348843 -30.033581
2.012409 -25.207594 -29.9296
-13.611506 -42.083046 -27.99946
2.9517989 -25.89537 -29.9296
-5.393796 -31.778267 -30.074806
-13.62163 -40.937988 -25.040979
-4.6424694 -33.010723 -29.985777
-17.595554 -32.130211 -22.640024
-14.215391 -36.472687 -30.068983
-14.318012 -26.420256 -28.837856
-5.9971657 -28.527458 -29.979124
-8.7011223 -22.89473 -30.008717
-14.317047 -27.179543 -26.170887
-9.8327446 -28.648912 -30.021088
-17.348606 -40.727192 -22.4179
-16.993404 -25.975634 -22.639841
1.8662535 -25.374548 -29.9296
-13.378706 -28.682842 -30.059868
-15.673823 -39.886616 -22.4179
-7.7758565 -38.889648 -29.400064
-13.620488 -40.630268 -26.419239
-3.5405726 -44.178856 -29.394363
-8.5332556 -39.046547 -29.401081
-6.1302514 -38.221619 -29.732628
-9.8115396 -37.323841 -30.04892
-14.317232 -23.865463 -26.642254
-13.620954 -45.79068 -25.8582
-13.621297 -40.461712 -25.441963
0.19531524 -33.969406 -29.981348
-14.317233 -32.822395 -26.75687
-14.31782 -29.989302 -28.347092
-18.379831 -34.018349 -22.640285
-13.882385 -38.294739 -28.098486
-13.621758 -39.078285 -24.884501
0.79251766 -38.997498 -29.388533
-11.667577 -44.955929 -29.4053
-15.780702 -36.688831 -22.639399
-13.620496 -40.351532 -26.409906
-1.7270198 -38.200504 -29.750246
-13.709636 -35.611084 -30.063456
-13.620517 -39.88274 -26.385284
-10.316578 -32.041592 -30.026361
-13.486751 -41.352741 -28.373415
-3.3718305 -33.935211 -29.991976
-10.258913 -37.287876 -30.049906
-18.206675 -30.846546 -22.640234
-17.073732 -25.90271 -22.63987
-11.177341 -47.775223 -29.40464
-13.840011 -38.323002 -28.929762
-9.4962101 -44.215965 -29.402376
-13.619734 -44.204605 -27.330278
2.971864 -33.244179 -29.978001
-16.009415 -42.740093 -22.4179
-14.415648 -43.426353 -22.4179
-8.3268909 -39.212112 -29.400805
-14.31705 -34.441471 -26.268826
-3.3520622 -36.179916 -30.016481
-13.62342 -41.917892 -22.878101
-5.3988819 -39.293476 -29.396864
-14.31708 -33.607113 -26.343176
-14.317474 -23.590967 -27.304392
-12.835262 -41.892822 -29.190937
-1.357872 -45.422256 -29.391426
-15.775416 -28.038237 -22.639423
4.7793307 -26.439678 -29.9296
-13.65231 -38.452717 -29.420237
-8.299819 -41.551765 -29.400768
-1.4162912 -48.270672 -29.391504
-1.4386792 -40.068691 -29.391535
-14.318326 -31.617546 -29.778328
-2.3736401 -36.689808 -30.019043
-0.88702059 -23.790464 -30.184401
-15.344764 -37.37608 -22.639252
-17.229576 -42.370922 -22.4179
-5.0737896 -46.573631 -29.396423
-11.913344 -38.134705 -29.865608
2.2881811 -30.962551 -30.155537
-3.1673045 -29.552933 -29.929602
-15.813957 -29.462107 -22.639433
-14.333311 -33.573914 -22.977516
-10.489686 -44.418495 -29.403717
-4.9923563 -27.873165 -30.184399
-3.4458375 -45.75835 -29.394236
-15.889774 -28.927038 -22.639458
-4.4170642 -23.157179 -29.9296
-14.31798 -34.788319 -28.857546
-13.620432 -42.440735 -26.487682
-5.7780623 -44.149036 -29.397375
-13.621508 -38.828957 -25.186924
-7.7922392 -33.081169 -29.998749
-3.0316362 -43.090645 -29.393679
-5.9365478 -33.427181 -29.994326
-15.418779 -36.799099 -22.639277
-13.571718 -41.243439 -28.118725
-1.0811634 -41.249744 -29.391054
-14.317239 -26.826994 -26.696198
2.4841325 -32.988152 -29.978001
-1.5723209 -23.069103 -29.9296
-17.05356 -35.348763 -22.639832
-14.317577 -36.03566 -27.757118
-5.0310459 -31.815733 -30.053364
-8.830863 -45.400352 -29.401485
-12.691114 -25.296314 -30.052362
-15.322784 -28.340601 -22.639271
-11.53354 -38.500233 -29.405119
-14.317112 -37.034405 -26.478161
-13.610849 -42.905586 -28.001431
-15.416468 -38.069832 -22.600414
-3.7918646 -29.203917 -29.9296
-6.8787594 -47.938522 -29.398855
-14.316077 -33.735352 -23.614655
-3.7503984 -26.860767 -29.9296
-13.622742 -44.957035 -23.696953
-12.802682 -39.075947 -29.201756
-12.756354 -39.964958 -29.21714
-14.316495 -24.76553 -24.650188
-11.393562 -31.867119 -30.038143
-13.863477 -39.9851 -22.4179
-16.063168 -30.068535 -22.639517
-13.343238 -26.731998 -30.05949
-10.309132 -28.441044 -30.026299
-13.620317 -40.923874 -26.625122
-15.790985 -28.083456 -22.639429
-14.316415 -36.999168 -24.562395
-11.389381 -42.042645 -29.404928
-10.017829 -44.589531 -29.40308
-11.633351 -34.389355 -30.040752
-13.619263 -42.034046 -27.900148
-16.44768 -30.279636 -22.639645
0.22995231 -29.038391 -29.9296
-14.31636 -25.616112 -24.292831
-13.384743 -30.695253 -30.059925
-3.9921966 -38.319649 -29.593777
-5.1598878 -45.487839 -29.396545
-1.6009169 -43.023823 -29.391754
-6.7258391 -31.27973 -29.987095
-13.389833 -47.310585 -28.663921
-7.410264 -39.784813 -29.39957
-18.246275 -24.855909 -22.640266
-12.848985 -46.598457 -29.18638
-8.14433 -26.275743 -30.002625
-15.986279 -33.10218 -22.639479
-13.909803 -34.951347 -30.065647
-15.779064 -32.637497 -22.63941
0.18855667 -46.175488 -29.389345
-1.8791596 -26.372581 -29.9296
-2.0447431 -28.678989 -29.9296
-0.62779236 -46.42366 -29.390444
-16.86245 -44.517326 -22.4179
-12.518121 -38.005527 -30.043041
-11.999041 -45.238186 -29.405745
-11.851782 -35.9072 -30.043135
-9.7433119 -40.287682 -29.40271
3.8039551 -28.135052 -29.9296
-15.815302 -43.026787 -22.4179
-13.620026 -48.552574 -26.978966
-5.7166934 -27.82832 -30.079803
-13.623466 -39.802002 -22.821802
-4.1450338 -25.427149 -29.9296
-11.872793 -24.806904 -30.043415
-14.317739 -35.695248 -28.199902
-13.42547 -44.83984 -28.557102
-13.621078 -38.883507 -25.705709
-10.247881 -31.353548 -30.025616
-14.317917 -25.963207 -28.563931
-9.4252663 -45.127464 -29.402283
-12.983628 -35.471577 -30.055515
-11.629424 -29.409615 -30.040733
3.4421494 -25.65815 -29.9296
-14.317465 -31.425297 -27.382513
-14.318232 -25.902496 -29.436802
-14.318008 -33.953045 -28.92371
-16.986996 -34.054901 -22.639812
-1.0521345 -47.506165 -29.391014
-3.535795 -21.229094 -29.929577
-10.616662 -36.933529 -30.047132
-1.1912379 -37.711845 -30.026581
-3.5256581 -41.378929 -29.394344
-14.316432 -35.226479 -24.593388
-3.5428009 -36.227859 -30.017593
-6.4498458 -45.185051 -29.398277
-14.318356 -28.442791 -29.81802
-17.31842 -28.259611 -22.639942
-18.198273 -27.675858 -22.640244
-9.7786274 -25.238867 -30.020512
-13.147347 -36.431427 -30.057301
-14.968943 -45.65596 -22.4179
1.5111557 -34.979935 -29.98835
-17.0853 -31.357222 -22.639856
-0.94715172 -22.844547 -29.9296
-1.1907711 -30.390085 -29.9296
-8.3875103 -39.730606 -29.400888
-15.086641 -47.511253 -22.4179
-13.622946 -43.912003 -23.450912
-4.9559507 -36.994083 -30.030338
-14.317427 -36.298904 -27.343561
-5.3611312 -38.457714 -29.412731
-0.46603155 -38.096703 -29.888411
-14.317617 -27.36874 -27.74988
-17.954903 -24.658867 -22.640171
-14.317926 -30.025635 -28.644234
-10.308747 -25.332329 -30.02631
-3.0737166 -47.988148 -29.393734
-13.62086 -38.585312 -25.970364
-10.078241 -43.866436 -29.40316
-13.62211 -48.560493 -24.459873
-5.8583655 -33.267944 -29.99234
-12.94682 -35.041859 -30.055115
-0.71287417 -30.599773 -29.9296
0.6085 -29.208246 -30.129227
-10.915524 -36.300537 -30.041126
2.3555474 -23.261435 -29.9296
-2.641355 -28.626131 -29.9296
-7.2002072 -38.096756 -29.905369
-9.7355824 -40.588688 -29.4027
-3.4132767 -30.518848 -29.9296
-13.951557 -28.070469 -30.066135
-11.934571 -28.8517 -30.044071
-9.938921 -33.868572 -30.022223
-14.318147 -25.097334 -29.191879
-1.5723944 -34.979019 -29.997849
-4.4677672 -22.381229 -29.929583
3.4218059 -31.912127 -29.99819
-1.4432774 -38.274712 -29.648478
-3.7692196 -20.616398 -29.929562
-14.316601 -30.958443 -25.002489
-6.5895076 -27.886101 -29.985607
-13.599926 -27.692879 -30.062292
3.6481318 -31.536556 -30.184401
-4.6983271 -48.602257 -29.395922
1.7457397 -29.72253 -30.095041
1.7423631 -30.373295 -30.101814
-10.917954 -45.409035 -29.404293
1.6075397 -37.652668 -30.017302
-14.610003 -45.504166 -22.4179
-2.2447114 -39.465786 -29.39262
1.0909019 -30.905056 -30.184399
-13.62018 -40.944305 -26.792379
-12.072718 -28.228035 -30.045586
-0.087303713 -30.021173 -29.9296
-8.2287664 -38.439854 -29.442369
-2.4480681 -43.933983 -29.392893
-8.1760511 -45.087242 -29.4006
-13.620076 -39.437664 -26.918385
-16.896126 -37.359196 -22.639774
-8.9495621 -29.273333 -30.011425
-0.007719636 -27.66317 -29.9296
-1.8567871 -27.768749 -29.9296
-5.900321 -33.495266 -29.994959
-10.86901 -48.03373 -29.404224
-17.963108 -24.895788 -22.640171
-13.538923 -43.288368 -28.217028
-14.318423 -31.456856 -30.04504
-6.6807275 -36.948975 -30.035164
-9.3577213 -40.375614 -29.402191
-4.6307259 -33.792496 -29.994297
-1.6702086 -23.074171 -29.9296
-13.311527 -29.690613 -30.059128
-12.113562 -28.392403 -30.046032
3.8433795 -27.373306 -29.9296
-10.910045 -30.858696 -30.03286
-14.318245 -23.315842 -29.440804
-13.622653 -39.122959 -23.804779
-7.5367107 -38.155281 -29.826515
-16.067713 -25.221859 -22.63953
-9.4327402 -33.353828 -30.016691
-7.2763782 -25.295723 -29.993126
2.528965 -35.338203 -29.989132
-14.316675 -25.542524 -25.144554
-6.6045032 -36.814526 -30.033457
-8.8163204 -29.706602 -30.009964
-8.7794189 -31.961233 -30.009552
4.2775388 -26.842453 -29.9296
1.3454623 -27.925425 -30.184401
-11.509804 -29.722759 -30.039423
-14.316662 -24.593075 -25.099194
-8.9564066 -27.000919 -30.011511
-14.306979 -44.602013 -22.4179
-11.696058 -23.709919 -30.041489
-14.338282 -27.928061 -23.574352
-15.560733 -27.519392 -22.639353
-8.1856318 -35.128101 -30.019876
-3.3430076 -32.958527 -29.981197
-0.4008131 -34.72081 -29.991409
-8.0708275 -43.58255 -29.400459
3.6843715 -25.218163 -29.9296
-8.550478 -45.34948 -29.401104
-14.316316 -24.950224 -24.169027
-14.317361 -28.700071 -27.056522
-13.499497 -27.877846 -30.061193
-17.044867 -41.173389 -22.4179
-3.8920376 -31.665226 -30.139511
2.9300804 -23.662052 -30.160639
0.93576753 -24.901354 -30.184399
-6.7358069 -21.967594 -29.987206
-13.619787 -45.096214 -27.266792
-1.3518515 -41.084686 -29.391418
-7.6189361 -26.727465 -29.996874
-14.317269 -25.223005 -26.76037
-4.204248 -31.930193 -29.98785
-5.1982613 -29.683056 -30.184399
-6.3146911 -28.507814 -29.982599
-14.316391 -28.573828 -24.409931
-0.80564541 -33.080318 -29.978001
-6.9496622 -35.909355 -30.024616
-1.7415619 -36.740807 -30.017653
-14.423724 -27.484404 -22.831892
-14.317874 -27.003906 -28.459066
-14.318126 -25.494169 -29.136732
-2.0795078 -43.014336 -29.392397
-1.1156225 -32.866425 -29.978001
-3.5949483 -36.35648 -30.019161
-14.362808 -32.541485 -22.821337
-3.8500853 -36.487053 -30.021378
-13.619946 -46.779503 -27.074013
-13.590053 -43.439861 -28.063768
