# .PCD v0.7 - Point Cloud Data file format
VERSION 0.7
FIELDS x y z
SIZE 4 4 4
TYPE F F F
COUNT 1 1 1
WIDTH 1611
HEIGHT 1
VIEWPOINT 0 0 0 1 0 0 0
POINTS 1611
DATA ascii
44.443024 15.365461 45.427101
32.776108 22.743368 37.605953
36.773811 15.820648 45.427101
44.426868 15.233486 44.815414
42.713165 26.662722 31.061001
43.457661 12.336311 39.752586
34.220013 21.36858 39.901726
39.823013 17.896664 45.699512
38.921986 4.7164226 39.596298
26.999727 15.223394 41.213707
27.372564 23.328743 36.62854
42.995888 26.439686 31.433449
27.705091 17.436041 46.468708
23.333982 15.055626 39.752499
43.194351 12.646624 39.752586
44.61068 15.233691 44.888191
40.880627 11.238501 39.752571
28.543465 15.233239 44.727448
32.079987 13.001925 39.752518
40.519012 10.099638 39.602287
41.304089 15.226665 42.38102
30.804205 17.53764 46.299049
43.005974 15.220684 40.246414
29.478718 23.554918 36.250744
39.064964 19.013163 43.83506
33.945263 15.229103 43.251049
38.8027 17.52187 46.325382
44.505569 15.227964 42.84457
42.248302 13.585001 39.752571
31.778234 19.377897 43.225986
28.634926 23.52602 36.299038
39.350182 25.1294 33.621502
41.219376 25.156269 33.576633
37.850967 24.5434 34.600071
30.116653 24.818649 34.140423
28.800907 19.294006 43.366077
34.21727 19.436646 43.12788
37.588364 18.321474 44.990116
41.459797 15.229861 43.521969
24.906303 19.350012 43.272709
38.681282 25.47504 33.044319
32.591537 17.00404 46.566299
33.266804 21.42374 39.809612
39.772766 26.689445 31.016373
36.643932 21.053537 40.427822
26.926689 20.726006 40.974831
43.008991 12.369072 39.752586
28.381794 22.953089 37.255779
33.908096 13.027668 39.752541
32.005413 16.509443 46.290253
24.301992 26.166893 31.889362
39.875 20.84273 40.77985
24.05267 24.213707 35.15097
36.254745 18.018389 45.496239
44.429306 20.852583 40.763397
28.25983 18.939629 43.957863
36.458771 25.097704 33.674435
24.56353 17.070923 46.566299
35.178741 15.225752 42.054794
34.202732 15.233456 44.804565
25.649529 26.272995 31.712095
37.648911 19.966099 42.243748
44.01519 5.9935336 39.752567
39.275589 14.006431 39.752556
31.187246 19.091774 43.703781
30.213722 13.536303 39.75251
37.453014 15.224397 41.571629
26.049129 22.207354 38.501213
34.00267 10.58618 39.752502
34.015686 21.158522 40.25251
36.920406 23.813772 35.818485
39.558876 15.235074 45.382019
25.177212 16.753584 46.566299
30.462152 19.651545 42.769028
38.679817 24.153 35.252007
24.660793 10.148335 39.752499
37.107445 4.1648345 39.596298
24.475498 8.7085161 39.752495
32.221127 21.16477 40.242073
39.834122 23.719099 35.976578
41.68605 25.839531 32.435654
23.667465 21.608191 39.501892
40.210197 20.012972 42.165466
30.866516 10.554699 39.752502
32.371994 13.994373 39.752533
41.699875 18.149288 45.277649
32.996872 14.029169 39.752537
44.186958 10.080261 39.752598
39.680809 21.434881 39.791016
28.080887 25.454628 33.078526
26.785789 22.925243 37.302376
23.94659 23.872669 35.720459
28.29821 15.034878 39.75251
41.294792 25.264235 33.396347
32.266968 12.990639 39.752518
24.125715 6.1775513 39.752499
41.289391 26.505623 31.323338
44.512947 18.557636 44.595745
36.274677 16.350945 45.548111
43.970364 16.524982 46.36301
40.14674 2.9516726 39.596298
44.575081 22.318911 38.314766
31.417698 17.231108 46.566299
45.257618 16.954044 46.566299
39.801918 21.54711 39.6036
37.640751 26.418131 31.46944
31.900728 7.0374365 39.752495
31.374897 15.226252 42.233475
26.62801 24.620659 34.471245
24.296211 23.868336 35.72768
23.908451 24.13821 35.277046
41.77594 15.229435 43.369545
38.371799 20.011814 42.167404
30.818573 15.226709 42.397141
36.348129 22.01865 38.816174
44.441086 21.123302 40.311321
27.957436 5.3903432 39.752499
42.600388 19.150639 43.605492
24.814342 26.177263 31.872013
24.022797 25.775305 32.543282
28.665428 6.5766068 39.752499
34.340618 16.077839 45.427101
37.112579 21.328232 39.969109
41.835598 24.762951 34.23344
28.234314 19.141764 43.620312
30.345963 21.320711 39.981667
30.584206 12.010254 39.752499
40.706841 4.8300505 39.596298
36.753235 16.035866 45.427101
37.226967 26.040892 32.0994
34.781525 9.1919708 39.752499
41.184048 15.220594 40.214855
34.708588 21.51511 39.65704
39.936577 15.851751 45.427101
38.932442 15.568302 45.427101
34.181534 15.223683 41.316818
29.477755 19.817608 42.491707
35.332127 8.6049461 39.847931
23.346079 13.851868 39.752499
37.018578 17.753841 45.938011
32.290165 21.762535 39.243862
43.483383 6.4656301 39.828846
39.663116 3.6032887 39.596298
23.430489 17.915377 45.668304
43.87011 4.1398845 39.752556
39.894951 18.744831 44.283146
26.274307 25.316673 33.309002
38.905617 23.59919 36.176819
28.404118 13.435205 39.752499
27.269043 19.886747 42.376274
25.640888 18.276512 45.065269
42.826324 26.239388 31.767927
37.371128 15.231499 44.105968
43.162636 11.527958 39.75259
29.542553 23.254139 36.753017
30.95672 22.992481 37.189957
35.27565 9.880784 39.79163
36.0439 10.905915 39.818886
26.643478 19.234905 43.464817
31.595331 22.786295 37.534271
36.237106 4.9772224 39.596298
28.983936 11.132043 39.752499
39.13533 4.4336743 39.596298
40.817307 19.491167 43.036835
29.976551 16.027477 45.427101
26.938444 19.662979 42.749962
36.546509 7.008462 39.596298
43.206676 15.223672 41.31295
42.998203 4.9097428 40.009132
40.646278 15.232622 44.50692
31.524336 19.85059 42.436634
34.367764 12.229694 39.752522
36.322411 15.23287 44.595707
28.852043 15.040863 39.752514
43.431938 21.590721 39.530777
43.149826 25.13372 33.614292
40.496361 8.7262106 39.596298
32.731705 25.736694 32.60738
43.453419 21.866306 39.070572
39.335388 19.973518 42.231354
28.919975 12.981254 39.752499
36.732552 5.8028054 39.596298
35.978794 24.377743 34.876701
38.97443 9.5807991 39.596298
35.640038 23.944853 35.59959
27.42523 15.235167 45.415333
31.871254 25.774147 32.544834
42.672966 23.258886 36.745094
26.108349 5.378355 39.752499
27.609472 14.292 39.752499
28.798264 6.6804771 39.752499
38.23344 8.531105 39.596298
32.811142 24.125378 35.29813
28.388815 7.3951287 39.752499
35.554985 4.2535362 40.009102
40.900986 22.297396 38.350693
25.683699 15.231453 44.089699
33.754723 25.277845 33.373615
33.888336 15.232508 44.466309
34.405952 17.238617 46.566299
29.512333 20.316561 41.658508
37.333691 17.798819 45.862904
40.207916 15.23068 43.813759
44.080917 8.674571 39.752586
38.353455 23.249939 36.760033
35.645294 8.8247223 40.009102
29.530769 18.568377 44.577805
39.031662 15.225874 42.098343
36.541161 23.245646 36.767204
25.022074 24.784027 34.198536
33.246704 5.244544 39.752499
27.149456 6.4466367 39.752499
29.313354 16.47798 46.142925
45.11002 15.596499 45.427101
24.247721 16.781082 46.566299
39.043594 25.812332 32.481068
40.586987 15.224991 41.783512
28.883545 25.291393 33.351055
41.250111 7.1348648 39.596298
30.956306 15.230118 43.613483
25.944965 15.234074 45.025398
38.527897 8.7762604 39.596298
39.223808 17.788841 45.879562
29.244852 22.444069 38.105762
40.894829 22.984106 37.203949
36.7854 21.989594 38.864693
24.716961 20.979404 40.55183
32.724403 19.67238 42.734222
39.09219 19.316845 43.327934
36.935181 18.44997 44.775539
31.226841 7.8910141 39.752495
43.543598 22.386457 38.201965
23.854294 25.388704 33.188866
37.942215 14.758892 39.752548
24.485758 24.57304 34.550892
28.92042 15.232746 44.551071
39.717094 9.3150291 39.596298
33.726398 15.223751 41.340721
34.703426 24.064936 35.399067
42.6511 20.963665 40.577896
38.108101 25.186646 33.525913
29.25803 15.231466 44.09433
25.642738 18.372869 44.904366
35.587402 13.936792 39.752548
37.021515 14.795262 39.752541
35.350765 15.221801 40.644707
34.243893 5.099762 39.752495
42.297897 20.460875 41.417511
43.122528 15.226478 42.314209
29.636902 4.7735806 39.752499
37.643677 25.850965 32.416557
25.839434 22.125521 38.637878
26.094189 10.082893 39.752495
30.560234 9.4488945 39.752495
31.874529 21.596817 39.520596
30.887714 15.227079 42.529022
35.921265 17.130531 46.566299
36.67041 26.224632 31.79257
33.333687 18.638515 44.460686
41.079643 15.23414 45.049004
24.77742 14.955028 39.752499
24.736313 20.360104 41.585983
30.908466 15.234675 45.239613
37.447868 19.284775 43.381493
42.182205 17.769756 45.911438
41.082348 8.591753 39.596298
41.945324 9.8287916 39.596302
44.6348 16.53019 46.387386
27.283186 15.227362 42.629951
34.129265 25.734203 32.611538
40.05534 10.211023 39.865341
33.638535 16.495712 46.225952
24.379885 21.109947 40.333855
27.58956 18.959751 43.924252
43.751289 23.034187 37.120319
44.585701 20.890215 40.700554
30.413393 25.150869 33.585655
24.643379 7.0920944 39.752499
38.603775 24.359585 34.907024
42.82983 25.827766 32.455299
35.703037 15.231074 43.954514
24.526648 22.962574 37.240177
40.415207 25.869762 32.385166
26.028296 21.086004 40.373734
39.205101 21.768917 39.2332
28.982525 20.8997 40.684715
38.559105 19.966835 42.242508
29.61359 10.949314 39.752499
42.462288 19.785551 42.545242
31.180866 22.864143 37.404278
42.888535 26.981224 30.529127
37.633507 5.9212084 39.596298
42.334663 5.849082 39.596298
29.933001 24.582802 34.534279
41.052567 26.373016 31.544779
36.04969 8.3471737 39.743141
30.26338 17.828138 45.813938
30.967369 8.6546354 39.752499
33.472786 20.562286 41.248165
44.270271 15.228967 43.202686
40.461231 15.220777 40.279659
41.538017 5.0284557 39.596298
27.072672 15.221498 40.536785
29.133587 16.513577 46.309608
37.180428 15.223789 41.354534
41.007545 23.362518 36.572037
36.020428 13.792283 39.752548
31.658596 17.667212 46.08268
39.002064 19.398613 43.191391
29.783298 16.542284 46.444016
36.788918 25.849987 32.418194
26.453259 20.267862 41.739906
28.247377 12.029463 39.752499
35.805672 15.229183 43.279678
24.090229 15.233722 44.899639
28.467714 15.234224 45.078888
34.946457 17.543661 46.288994
37.776985 25.512934 32.981041
37.805004 15.223461 41.237747
30.88715 16.591402 46.566299
39.583843 11.553848 39.752567
34.570877 23.150846 36.925507
37.718937 19.65094 42.770027
23.82062 23.940609 35.607021
35.392864 12.744202 39.752552
43.256302 19.530104 42.971817
30.184805 11.538799 39.752502
26.261364 20.117252 41.991421
42.236153 15.229019 43.221092
44.473328 13.182762 39.752583
27.679955 10.515678 39.752499
41.949356 26.262705 31.728992
42.081703 15.227715 42.756157
38.610222 7.7035928 39.596298
30.590651 9.361022 39.752499
24.224329 15.234313 45.110592
34.60321 18.652578 44.437199
24.388321 22.715849 37.652187
24.175861 11.188438 39.752499
45.493084 15.23414 45.048595
39.869129 18.155865 45.26667
29.641869 10.880197 39.752499
42.119179 19.995993 42.193825
33.238396 16.428402 45.910786
37.930977 18.829338 44.142029
28.557911 25.183575 33.53112
41.348522 18.370159 44.908817
37.817196 21.520494 39.648048
40.014465 3.2771802 39.596298
39.491222 13.910332 39.75256
36.327835 16.396627 45.762009
42.961296 21.474953 39.724098
28.464149 15.223342 41.194595
40.426697 5.9554701 39.596298
42.877815 19.401745 43.186165
35.562874 25.77379 32.545433
37.542931 15.22899 43.210629
23.497435 9.8849564 39.752499
38.756779 21.133556 40.294193
27.509233 19.521252 42.986595
39.276787 22.619438 37.812912
26.520439 23.515896 36.316067
24.971989 21.808531 39.167267
32.864315 16.562693 46.539581
29.043633 18.938366 43.959961
32.178047 6.9235306 39.752495
38.920349 25.855837 32.408421
44.755234 15.224214 41.506149
26.055031 22.773708 37.555462
42.623154 15.224653 41.663017
34.00843 16.994724 46.566299
37.506798 6.1204576 39.596298
42.218182 6.6219063 39.596298
25.397511 15.224805 41.717163
33.838623 7.512063 39.752502
23.15036 25.679806 32.702808
26.432341 15.219719 39.901783
26.107367 12.564872 39.752502
39.115692 16.39246 45.7425
35.942818 5.8796406 39.995407
40.441254 21.598873 39.517159
41.901749 21.502855 39.677498
32.956268 23.792807 35.853497
35.656544 16.596754 46.566299
36.426022 13.422743 39.752556
41.226707 5.8211575 39.596298
29.614788 7.3842359 39.752499
38.088547 20.569729 41.235737
35.856731 23.318777 36.645081
33.692207 21.112299 40.329697
35.960133 23.185385 36.867828
36.477192 15.23032 43.685333
27.31427 15.221279 40.459141
32.243881 17.690399 46.043953
26.096333 16.164299 45.427101
27.060898 23.681303 36.039833
24.521097 12.525471 39.752499
44.419861 21.820316 39.147369
25.81109 24.737404 34.276344
33.448715 4.6844258 39.752499
26.056479 7.4985991 39.752499
31.826818 15.235186 45.421913
33.141109 15.222204 40.78907
38.324867 12.365725 39.752571
38.069916 4.3410902 39.596298
34.044048 23.819252 35.809334
24.661846 5.5024619 39.752499
36.474037 20.968315 40.570137
27.160891 14.644224 39.752502
25.023335 9.2686605 39.752499
39.368771 11.663332 39.752571
40.985283 23.884773 35.699917
24.303452 15.221577 40.564602
29.905254 15.233931 44.973988
27.08667 11.748809 39.752499
33.044632 23.152971 36.921959
42.191563 23.72015 35.974823
40.310162 19.603622 42.849045
39.050747 26.304987 31.658386
27.702698 19.416735 43.161129
30.019686 22.684206 37.704758
44.426758 16.343525 45.513374
27.757084 24.145428 35.264748
33.192471 24.999052 33.839176
42.935448 17.614296 46.171036
24.121731 6.6817837 39.752499
44.631035 15.228426 43.009193
26.579079 17.715801 46.001541
22.904615 23.941135 35.606201
43.003754 9.4995861 40.009132
35.326973 5.9368644 39.842789
39.136581 20.605442 41.176102
38.427273 21.884712 39.039833
41.765587 6.8906193 39.596298
35.506065 17.524847 46.320412
33.75882 21.651119 39.429916
25.904379 20.899691 40.684864
32.252602 23.844957 35.766407
42.011253 3.2153029 39.596298
42.401592 18.293121 45.03746
28.632496 10.03301 39.752499
42.019577 22.564205 37.905144
41.706654 15.297389 45.427101
44.893093 18.035515 45.467644
43.683727 16.236813 45.427101
30.728224 15.22504 41.800858
43.505909 18.794466 44.200264
26.149576 15.223963 41.416485
43.81461 13.410608 39.752579
23.256199 23.093885 37.020981
45.152306 19.415926 43.162483
41.12569 15.221554 40.557102
29.580097 19.239977 43.456299
30.278908 22.346102 38.269356
24.568455 16.434233 45.938084
39.561474 15.225594 41.998322
34.966015 7.5216107 39.752499
37.960201 24.964743 33.896469
39.832123 17.380116 46.562096
33.057705 25.312508 33.315731
29.735859 12.031519 39.752499
25.949747 21.392025 39.862717
27.245203 23.495277 36.35046
44.76693 19.646875 42.776817
30.219135 15.232802 44.571053
41.418301 15.214294 39.752552
26.518425 26.028074 32.121037
38.547237 15.23429 45.101978
28.150511 15.234928 45.330177
37.708473 18.517471 44.662815
37.767597 5.6654491 39.596298
34.556965 26.670729 31.04763
38.577866 24.16478 35.232334
23.958714 10.085236 39.752499
28.842123 15.226458 42.307167
23.505487 15.219512 39.828117
35.82383 6.6651688 40.009106
32.028 12.065716 39.752499
42.428478 22.794254 37.520981
42.690575 7.4734583 39.61063
30.050695 22.906704 37.333206
42.888363 6.9255424 40.009106
43.727444 15.229005 43.215855
42.45187 6.5528798 39.596298
28.413555 20.170605 41.902237
35.369377 21.917742 38.98468
30.612799 20.057949 42.090363
42.001717 20.547241 41.273289
32.925659 24.499493 34.673389
30.071943 25.861773 32.398514
27.904232 15.227463 42.665558
44.173218 19.664469 42.747437
41.7575 22.993149 37.188843
30.983475 16.561083 46.532036
38.817486 15.233921 44.970871
25.081739 13.613192 39.752499
43.715275 15.234538 45.19072
41.878971 13.147951 39.752575
37.759354 26.696819 31.004055
25.266943 23.643173 36.103615
39.836975 15.446463 45.427101
25.021345 22.750195 37.594795
27.884483 15.221885 40.674934
39.042538 16.17355 45.427101
39.565948 10.430838 40.009102
40.883186 18.853104 44.102341
34.5019 25.889639 32.351978
26.89773 22.269098 38.39806
35.634079 22.359673 38.246696
42.964363 6.2584281 40.009125
26.677052 22.567266 37.900158
31.190491 22.458195 38.082172
36.084671 13.920153 39.752548
39.440056 21.420303 39.815353
37.134644 21.110893 40.332039
42.144066 7.7981825 39.596298
27.267466 21.6064 39.504658
40.792591 11.620142 39.752586
40.344841 19.807682 42.508286
42.658348 20.204054 41.846382
24.178867 15.229329 43.332008
24.479759 16.340288 45.498207
24.456583 15.220478 40.173004
42.911198 19.432404 43.134964
32.780796 13.333956 39.752533
43.094318 10.733298 39.991051
42.000477 25.659489 32.736305
40.590473 11.977613 39.752586
28.052979 17.841036 45.792404
40.4104 12.731058 39.752575
24.993341 9.4711924 39.752499
24.483351 20.34819 41.605892
44.241043 15.225364 41.916756
30.99995 20.723415 40.979095
36.239468 22.199013 38.514984
25.483749 19.709671 42.672081
40.356636 9.0066233 39.596298
42.872005 14.103369 39.752567
32.303444 11.815587 39.752499
28.82716 9.3922501 39.752499
35.807632 18.76881 44.243103
23.6824 17.873732 45.737843
37.251545 7.9119062 39.596298
42.098438 12.39461 39.752583
41.965164 20.879557 40.718353
41.884327 5.9316411 39.596298
34.72213 21.502678 39.677795
40.017548 15.22495 41.768742
42.851364 7.2906804 39.990139
28.130348 5.1521273 39.752499
28.389675 13.646582 39.752499
36.011978 6.0242572 39.832176
29.1021 10.303936 39.752499
34.568829 18.684542 44.383827
36.005543 22.799467 37.51228
43.402473 3.2563128 39.9095
29.307985 6.2351513 39.752499
27.342827 5.2335939 39.752499
41.518078 11.590928 39.75259
38.122948 10.931346 39.79356
34.98204 23.544209 36.268627
32.003349 26.492821 31.344717
25.691067 18.382685 44.887981
28.191694 19.034094 43.800102
37.52562 9.4712439 39.596298
34.582607 18.61195 44.505051
26.412132 22.080564 38.712914
28.782776 21.35685 39.921314
23.37682 23.501015 36.341122
43.880531 16.457123 46.045265
45.092392 20.099167 42.02153
41.506016 9.8276558 39.596298
38.029312 20.155416 41.927601
42.198959 16.519392 46.33683
41.271111 21.453154 39.760498
27.534281 16.534912 46.4095
35.612381 22.227779 38.466949
38.32349 11.461082 39.752548
34.804317 10.30422 39.752499
24.524471 15.294456 45.427101
35.765392 6.2099152 40.009102
37.122505 16.465279 46.083462
31.713102 4.9606051 39.752502
37.770046 23.510941 36.324184
40.2854 26.847298 30.752773
42.854542 6.3354611 39.997627
33.121262 16.770376 46.566299
44.318672 16.381798 45.692577
24.007603 21.206381 40.172848
28.984381 19.165396 43.580849
25.651327 9.6366119 39.752502
29.423456 18.031219 45.474815
36.186214 26.546 31.255915
32.439789 18.942455 43.953133
39.152355 18.118679 45.328766
40.828106 17.544025 46.288383
35.230198 26.511242 31.313955
24.501509 19.653128 42.766552
31.940826 22.241508 38.444012
29.594597 15.226015 42.148766
39.78754 16.460703 46.062035
23.238388 23.311174 36.658134
35.278332 14.62498 39.752537
43.017658 18.570854 44.573673
39.492607 15.225105 41.824455
37.158577 16.380577 45.686867
39.792557 20.263525 41.74707
30.951506 5.5741391 39.752499
24.689165 17.683147 46.056087
24.658981 25.891247 32.349636
25.048424 15.647112 45.427101
33.465584 15.226102 42.179932
25.208511 7.2573414 39.752502
39.202248 19.41856 43.158081
43.961464 20.53677 41.290771
25.040888 15.233425 44.793545
44.269909 22.75708 37.583061
37.945816 22.385651 38.203312
24.882885 24.689507 34.35638
26.873167 16.481115 46.157612
36.416687 18.91992 43.990768
33.204361 20.977825 40.554256
27.979706 13.415893 39.752502
31.836515 12.371059 39.752502
41.609142 15.225264 41.88092
37.147545 12.311749 39.75256
38.285812 26.072271 32.046997
33.612942 24.666708 34.394157
30.825871 15.001408 39.752518
33.42347 15.225752 42.054535
28.502832 18.578062 44.56163
37.011868 16.210178 45.427101
39.806843 15.718811 45.427101
30.897095 11.324957 39.752499
25.816284 6.3617039 39.752499
24.220898 10.614408 39.752499
43.111938 15.228466 43.024036
30.805025 21.93494 38.955956
36.86721 24.472637 34.718239
25.948524 6.0460958 39.752499
32.393326 18.669363 44.409172
35.677711 17.962044 45.590332
41.273529 22.431992 38.125927
43.749489 20.089422 42.037804
43.374123 8.3363552 39.937786
43.319572 25.803152 32.496399
29.202354 12.264903 39.752499
43.355854 14.116581 39.752571
27.660372 6.6319551 39.752499
37.581039 12.246887 39.752563
32.308338 22.247726 38.433636
37.640423 24.582203 34.535278
39.972107 25.593744 32.846096
36.121593 4.3581128 39.596298
39.612106 16.034378 45.427101
31.330204 21.283077 40.04451
41.608337 22.415577 38.153343
35.147396 15.223103 41.109779
44.404617 15.223284 41.17437
35.063484 6.4817848 39.752499
30.993551 19.889158 42.372227
31.08009 21.833235 39.125801
39.570789 15.230326 43.687263
37.815529 19.417904 43.159176
39.475246 12.058935 39.752579
43.398399 18.323051 44.98748
43.916504 15.223494 41.248856
42.186039 24.274521 35.049076
32.874779 23.839098 35.776192
44.000259 15.22238 40.8512
38.255455 20.898293 40.687065
28.095818 14.07633 39.752499
36.39418 15.228908 43.181557
36.713364 18.551544 44.605919
43.46106 3.6051407 39.851082
37.534122 5.833899 39.596298
35.024551 15.226654 42.377079
36.611099 9.4314842 39.596298
34.638218 24.659809 34.405682
30.783459 15.682408 45.427101
41.596798 17.374723 46.566299
26.082041 15.232986 44.637341
41.609589 3.2052715 39.596298
30.878885 23.820642 35.807011
43.078575 21.69533 39.356087
37.635345 15.229399 43.356674
32.15099 25.894384 32.344051
38.042175 13.456735 39.75256
41.315445 11.347432 39.752583
29.087101 14.068528 39.75251
36.042988 14.606115 39.752541
33.776482 8.2453489 39.752499
28.368435 16.499819 46.245186
42.664932 17.617413 46.165833
25.174486 22.001293 38.845367
45.148766 18.154121 45.269577
32.256313 19.331049 43.304222
38.530365 8.6027384 39.596298
25.106123 14.969139 39.752499
30.66753 21.821306 39.145714
30.534119 9.786128 39.752499
44.748779 15.222396 40.857353
24.398346 24.869228 34.056301
30.251596 25.30393 33.330051
29.334839 15.230034 43.583546
32.528847 8.2708855 39.752499
24.234413 7.07868 39.752495
36.134182 23.655193 36.083294
43.170876 14.237047 39.752567
30.852928 5.170815 39.752499
37.323105 17.86627 45.750263
39.020233 15.228046 42.873974
38.342682 26.770557 30.880924
38.925674 21.666866 39.403618
29.158787 15.625044 45.427101
27.659641 25.841927 32.431808
33.630322 26.415121 31.474472
38.803261 15.23336 44.771
27.055197 15.91123 45.427101
36.084801 21.52409 39.642044
30.310299 18.268948 45.077831
31.873186 20.781116 40.882736
27.00338 26.235733 31.774237
36.809208 16.356915 45.576073
36.685467 19.530159 42.971722
40.228966 23.750324 35.924435
42.353794 18.637104 44.463043
23.583246 16.273436 45.427086
40.480312 3.2166829 39.596298
26.642242 15.225388 41.925541
37.99773 24.077745 35.37767
44.255657 10.201748 39.752602
32.705666 18.713238 44.335911
29.161659 16.405069 45.801544
35.053295 15.22322 41.150997
25.825264 17.747133 45.949242
35.296082 26.196318 31.839848
37.283558 15.219386 39.78307
42.627903 15.231308 44.038235
43.711044 25.453156 33.080864
33.067917 16.426395 45.901398
40.292557 12.945684 39.752571
31.190496 10.103148 39.752499
39.172394 11.652158 39.752567
41.772327 10.296968 40.009102
28.609985 15.23155 44.124348
41.8022 15.221201 40.431431
30.975876 25.698347 32.671413
36.224041 15.671694 45.427101
34.514328 23.327414 36.630657
37.489128 19.725048 42.646278
35.533741 7.3534231 40.009102
40.066479 17.483067 46.390179
29.722149 15.978118 45.427101
42.301392 25.123875 33.63073
28.019466 21.130388 40.299496
23.51053 25.775909 32.542309
40.516186 11.15317 39.752567
39.259411 14.053253 39.752556
35.52853 8.0349417 40.009102
26.56424 11.333963 39.752499
42.520008 3.7199638 39.596298
30.26577 20.192087 41.866364
42.587151 22.523823 37.97258
39.335075 26.014996 32.142639
26.362234 22.257895 38.416798
29.689838 23.676771 36.04726
31.330627 11.499125 39.752499
43.851059 17.428154 46.481873
34.196442 9.1745586 39.752499
36.363815 3.7944286 39.596298
25.929142 18.544092 44.618431
26.697458 15.067602 39.752506
25.147236 15.233018 44.64835
44.857155 15.231222 44.007614
29.98859 8.0089989 39.752499
23.787739 24.92762 33.958832
37.852516 16.395163 45.755157
41.658421 15.22591 42.111603
24.364304 15.222023 40.72435
37.981247 23.233232 36.787933
30.640001 21.163654 40.243935
33.454601 17.957247 45.598343
34.339703 22.448086 38.099052
37.123402 22.668205 37.731472
45.263905 16.441027 45.969906
33.972225 19.766888 42.576405
41.848404 22.290464 38.362267
28.642363 20.703682 41.012047
26.110516 22.258286 38.416161
33.402592 15.222155 40.770878
27.984045 23.119141 36.978516
24.045645 20.588268 41.205017
30.087708 25.536091 32.942371
38.003712 15.020418 39.752541
35.270573 5.454792 39.786537
30.084919 8.0579119 39.752499
43.30616 21.185486 40.207478
30.126732 10.052199 39.752499
33.566582 20.264124 41.746071
35.557308 19.398289 43.191933
40.80719 15.235026 45.365471
42.173084 15.231089 43.959915
40.154137 15.230431 43.724876
34.354477 18.739382 44.292248
23.516277 15.221403 40.503193
25.980768 16.45266 46.024376
32.995193 22.682657 37.70734
43.12159 25.452503 33.081951
31.635368 14.83825 39.752522
31.134924 25.660398 32.734783
43.227859 25.211098 33.485077
36.739082 15.234844 45.300018
29.067108 15.229156 43.270416
42.247097 7.8562303 39.596298
28.138012 15.230686 43.815853
38.785667 15.225959 42.129295
34.330589 21.640337 39.447922
32.745834 25.914772 32.310005
27.536421 21.991093 38.862247
34.677658 6.9294567 39.752499
43.938934 24.03406 35.450623
37.739597 22.659941 37.745277
45.297825 18.358908 44.927608
30.67864 23.789177 35.85955
31.237623 15.222943 41.05265
23.687635 15.225189 41.854485
30.687647 15.22677 42.418583
24.801235 6.1494451 39.752495
43.388065 26.979778 30.531544
28.410536 15.085 39.75251
38.131447 17.60519 46.186245
25.333878 18.302446 45.021965
27.704325 15.22312 41.115669
43.188118 21.96151 38.911591
29.888493 11.533147 39.752499
27.101826 20.266733 41.741753
29.333588 17.368837 46.566296
28.191521 12.58944 39.752499
41.418594 4.2355871 39.596298
37.367233 16.369871 45.636734
37.004688 11.18155 39.752525
39.281219 8.9828606 39.596298
40.505035 25.053623 33.748043
23.988798 16.647291 46.566299
28.984211 23.665209 36.066582
27.982634 23.46524 36.40057
33.04578 13.474113 39.752541
26.916904 12.355287 39.752499
37.908875 19.634041 42.798248
25.565845 15.233956 44.98315
41.610619 18.635151 44.466309
30.351578 14.148951 39.752525
29.511955 7.7417874 39.752499
24.058891 25.276024 33.377022
35.99728 11.503632 39.752525
31.060875 14.443101 39.752525
25.032396 5.6182327 39.752502
26.468628 15.224579 41.636421
31.193787 6.7088265 39.752499
38.536545 9.8704262 39.596298
43.160965 20.095612 42.027473
26.426559 19.362368 43.251976
40.468559 23.894951 35.682922
37.48381 18.668436 44.410725
37.68684 15.1466 39.752541
31.175848 15.219712 39.899624
39.020508 5.9076929 39.596298
30.44902 15.22114 40.409203
36.570297 18.463131 44.753559
27.359716 23.395569 36.516956
30.695986 16.362328 45.60141
30.143301 13.162548 39.752499
42.670731 15.225609 42.004364
29.063686 4.7524867 39.752499
34.772396 8.2593946 39.752499
43.780052 10.314645 39.752598
42.150131 15.223171 41.133873
29.168661 6.2054644 39.752499
38.774506 13.724297 39.752556
35.945488 20.782192 40.880939
34.764572 12.191093 39.752529
38.938557 9.87356 39.596298
27.403833 19.750347 42.604042
39.187813 16.428942 45.913315
41.369556 10.027796 39.596298
26.919224 23.190584 36.85928
37.15786 19.114899 43.665173
35.461086 23.906025 35.664425
43.590542 15.234968 45.3447
37.464672 15.231071 43.953434
32.579861 14.762856 39.752525
40.660614 18.685514 44.382202
42.740723 3.6386485 39.729004
41.261772 25.503326 32.997082
26.058062 17.908361 45.680019
39.452705 6.6115851 39.596298
25.758101 16.427576 45.906925
40.604103 18.338924 44.960976
27.321148 15.223516 41.257393
38.005627 26.479017 31.367767
40.867695 18.334221 44.968826
32.807175 21.86969 39.064919
23.348234 15.22902 43.221184
28.952065 11.536806 39.752499
44.669701 16.528852 46.381123
27.787193 23.201746 36.840591
26.692829 20.510866 41.334103
25.126375 17.378868 46.564182
35.321083 23.167503 36.897694
42.741627 23.95682 35.579605
25.671255 24.886963 34.026608
26.947676 23.464298 36.402203
26.34034 10.488691 39.752499
42.170063 26.055164 32.075565
40.875004 9.4097538 39.596298
35.945538 6.9376469 39.988976
25.946093 18.701796 44.355087
43.36972 6.9300485 39.942165
30.101154 14.847607 39.752518
23.774654 25.444336 33.095978
36.275898 15.234245 45.085976
27.393776 15.234848 45.301571
41.343758 10.78229 39.942196
32.438293 11.940649 39.752499
43.088577 15.226213 42.220146
30.749413 22.87108 37.392693
27.135664 15.231467 44.09478
39.728882 23.378458 36.545418
27.432796 15.230967 43.916466
30.225344 15.224298 41.536133
33.336567 8.8021488 39.752499
35.329147 20.00222 42.183426
39.396267 6.7663426 39.596298
44.551373 20.026892 42.142227
35.695969 11.445826 39.752518
37.038063 15.220455 40.165279
28.126595 21.002954 40.512287
36.494724 21.391748 39.863041
43.582737 19.983997 42.213852
25.541302 18.121054 45.32486
36.484089 22.112452 38.659531
41.233948 21.46183 39.74601
26.358555 22.754349 37.587776
42.481827 24.828648 34.123734
28.586105 12.901594 39.752499
41.329216 7.2810507 39.596298
32.910667 23.588146 36.195259
44.04356 3.7499681 39.752548
35.16814 24.407833 34.826458
45.230736 17.409275 46.513405
32.099983 21.988846 38.865944
38.199684 26.28923 31.684692
29.311016 25.659767 32.735886
39.17662 24.504032 34.665813
43.493965 12.341159 39.75259
37.841995 14.636606 39.752544
40.605724 8.2483196 39.596298
26.163239 16.382448 45.695625
30.807951 25.335629 33.277122
45.278831 16.445175 45.989334
28.686075 20.98464 40.542881
43.93705 19.545544 42.946033
31.658993 18.674639 44.400368
28.11046 15.221801 40.645081
40.486301 12.702775 39.752575
42.074505 15.232603 44.500286
33.437927 22.733179 37.622971
39.130089 10.652663 40.009132
36.347351 16.428528 45.911377
39.862003 22.657227 37.749809
26.829517 15.220692 40.249214
27.21504 21.442219 39.778824
44.311584 18.903164 44.018745
41.773293 18.159101 45.261261
44.849228 17.655386 46.102421
33.676453 21.37359 39.89336
39.507225 18.401537 44.856415
37.959602 7.3414059 39.596298
37.7915 14.205006 39.752552
30.076132 21.708511 39.334076
24.793879 21.409639 39.833382
35.972935 24.541935 34.602516
34.533775 17.399849 46.529144
43.897785 4.3233414 39.752556
39.259132 4.3658495 39.596298
37.233204 15.222088 40.747677
36.071632 12.672964 39.752556
35.67971 23.99366 35.518085
38.628586 16.003853 45.427101
39.875374 20.443985 41.445717
35.050255 16.212355 45.427101
37.718296 5.7526698 39.596298
41.95969 7.7231288 39.596298
28.918947 22.537535 37.94968
32.317997 4.3071027 39.752499
41.041061 23.969864 35.557827
25.327995 23.077047 37.048973
41.634163 5.9229865 39.596298
44.184666 16.708754 46.566299
40.741371 20.856089 40.757538
23.570419 24.250603 35.089382
34.342007 4.9164081 39.752495
34.11142 18.743517 44.285343
27.213274 12.460663 39.752495
39.843857 21.79591 39.188126
25.854315 9.5042744 39.752499
32.309235 15.224636 41.657013
36.591457 12.576616 39.75256
36.322906 24.146368 35.263081
37.129894 26.231009 31.781921
27.986559 25.340954 33.268349
37.610073 25.983419 32.195374
33.147419 23.074184 37.053524
39.25563 5.6629772 39.596298
25.852304 20.139059 41.955036
41.76017 21.401539 39.846687
26.111471 17.75633 45.93388
41.772469 9.4515324 39.596298
28.993584 9.4170361 39.752499
39.080643 17.628462 46.147385
42.593513 15.225957 42.128315
36.669441 10.139583 39.696625
43.177155 15.22979 43.496262
36.146729 22.314631 38.321911
27.383457 10.977327 39.752499
43.860306 17.953579 45.604469
32.619606 7.8122458 39.752499
23.936909 15.22253 40.904999
39.222519 22.511213 37.993637
42.866154 25.094133 33.680397
30.739059 16.70303 46.566299
32.290192 16.667328 46.566299
26.167912 25.538345 32.938843
27.969896 15.227379 42.635746
34.380733 16.978531 46.566299
29.850948 15.22348 41.244053
42.146278 15.227042 42.515507
41.828037 15.231364 44.057648
43.167786 15.230235 43.654999
36.422119 5.4933491 39.596298
42.770054 5.9824677 39.798218
37.024399 25.33728 33.274364
42.089581 10.193047 39.82288
26.531496 22.761864 37.575218
25.03001 21.556129 39.588745
41.871559 15.22833 42.975029
34.152973 15.23162 44.149609
40.884102 25.012634 33.816494
31.747084 10.41989 39.752499
40.316544 7.0854459 39.596298
42.752026 26.61491 31.140837
39.695736 15.223887 41.390038
34.013676 15.225496 41.964165
27.333876 21.697548 39.352448
33.937004 13.859559 39.752541
35.944786 23.485533 36.366611
24.311089 6.6914454 39.752495
36.288963 15.665131 45.427101
24.587666 11.384004 39.752499
36.433197 26.575113 31.207298
32.695164 7.2082152 39.752499
44.264191 15.219936 39.979828
40.878025 17.781477 45.891865
34.475586 24.533318 34.616909
26.676424 26.072067 32.047558
32.250065 24.004271 35.500362
39.19632 16.395264 45.75563
28.534134 6.8725166 39.752499
37.111214 22.664812 37.737144
42.845833 14.389328 39.752567
36.224369 8.1227436 39.596298
32.88726 22.413832 38.156254
39.088966 14.51919 39.752552
35.567619 20.526014 41.308735
36.073036 9.1723366 39.688034
30.903471 18.826599 44.146599
36.420731 15.225705 42.038605
36.408791 26.099276 32.001904
30.558239 15.223476 41.242737
41.966698 19.188046 43.543022
26.873838 15.231754 44.197189
32.012932 26.051151 32.082264
35.950539 18.359444 44.926708
42.909504 18.523108 44.653404
43.424679 10.766409 39.887402
41.61734 15.233072 44.667877
32.364296 16.323128 45.427101
43.047462 7.6040525 40.009144
40.643227 15.230185 43.637283
26.809311 26.019608 32.135155
31.440853 25.912575 32.313675
32.668015 18.174084 45.236244
25.217777 12.070594 39.752495
24.733986 14.227022 39.752495
35.936508 9.2024965 40.009109
31.980423 18.024664 45.485764
35.153122 25.839458 32.435776
36.016327 4.8508482 39.821915
27.298153 18.739004 44.292877
35.576015 22.820311 37.47747
34.233013 21.214722 40.158661
25.577311 7.0639086 39.752499
41.495003 14.960894 39.752556
40.114754 5.095746 39.596298
27.055286 20.147671 41.940578
37.725945 25.278233 33.372971
40.686527 23.062979 37.072235
41.854088 17.633564 46.138866
44.056309 11.719599 39.752594
42.173531 21.111309 40.331345
39.252556 26.163673 31.894365
27.420036 7.2550545 39.752502
31.381897 18.560825 44.590424
33.594456 21.35084 39.931355
27.989296 19.045689 43.780743
27.093693 11.736233 39.752499
37.063221 12.691736 39.752563
24.179377 22.204918 38.505394
44.295532 11.096815 39.752602
42.572723 22.668863 37.730377
35.855988 18.018707 45.495708
30.06818 15.224779 41.708061
30.561329 21.594595 39.524303
26.603352 15.220838 40.300751
39.481918 12.938913 39.752571
41.696651 24.858459 34.073952
39.800301 24.885752 34.028378
27.150911 23.567707 36.229515
30.15049 10.384369 39.752499
24.419548 19.972935 42.232529
35.944714 5.5357466 39.990932
25.657988 15.27219 45.427101
44.379795 15.219923 39.974365
35.108273 18.561268 44.58968
42.804291 6.5950804 39.879028
43.391052 3.7406111 39.920887
42.302666 24.752831 34.250343
42.90247 26.742744 30.927368
37.504959 14.506865 39.752548
29.631271 15.230694 43.818878
27.437054 22.711088 37.65995
34.72345 19.759773 42.588287
35.318863 15.2332 44.713291
33.063766 12.859241 39.752525
41.986626 15.229588 43.424313
34.271629 25.337536 33.273933
26.131512 21.725626 39.305637
36.02285 5.0802159 39.806522
40.011124 15.223636 41.300175
28.546955 15.219995 40.000565
42.107006 8.6974525 39.596298
31.311039 4.9266791 39.752499
41.363846 17.524902 46.32032
34.185532 6.0925336 39.752499
37.834515 25.794548 32.510765
39.733025 15.223361 41.201641
24.670408 15.224062 41.451988
43.119064 17.404978 46.520576
43.431667 15.223502 41.252251
34.927139 23.006538 37.166492
34.659554 16.69174 46.566299
37.125542 17.379669 46.562843
34.360401 15.234744 45.264114
26.182722 25.261684 33.400837
25.284868 18.32025 44.992237
42.787918 15.232481 44.456863
33.288223 18.127075 45.314747
24.234623 15.23232 44.399212
33.133114 23.902046 35.671078
39.002121 18.547295 44.613018
39.487709 17.439905 46.46225
33.686897 10.818897 39.752499
39.786972 6.9995732 39.596298
31.892355 16.352789 45.556747
34.726105 22.370651 38.228363
41.163879 15.23312 44.685162
42.284008 17.565365 46.252747
29.871197 5.840189 39.752499
40.979767 26.229776 31.783978
33.257587 19.479664 43.056042
43.422066 15.085073 39.752563
35.118446 20.69525 41.026131
29.008934 6.0930643 39.752499
37.998615 5.045598 39.596298
36.523201 15.235058 45.375942
39.701553 19.470182 43.071877
37.206001 20.21722 41.824394
33.058052 14.97763 39.752525
44.831005 18.658833 44.426758
39.987762 17.522984 46.323521
41.191696 19.788116 42.540962
28.8894 21.788712 39.20015
37.834663 11.430431 39.752544
44.257454 11.467272 39.752602
42.554863 17.514282 46.338051
40.15583 26.534943 31.27438
33.977779 6.3370843 39.752499
38.784584 18.497032 44.696949
28.850416 6.73071 39.752499
31.040104 17.459435 46.429642
41.190075 8.9988594 39.596298
28.407238 20.50779 41.339172
34.390503 7.8198519 39.752499
25.761889 7.3782048 39.752499
32.685112 22.02882 38.799191
33.108925 8.1619253 39.752499
33.026794 23.620378 36.141434
29.128214 23.616512 36.147896
40.503178 26.217133 31.805096
34.523285 23.400827 36.50806
35.037865 15.228704 43.108955
40.014229 7.7043605 39.596298
44.039993 17.660934 46.093159
39.508457 24.429314 34.790581
40.869598 19.465311 43.080009
40.958405 7.5307736 39.596298
33.287663 16.372381 45.648487
27.381414 18.900238 44.023636
32.69976 7.7241521 39.752499
34.062737 22.220741 38.478695
24.448338 25.334953 33.278591
30.842461 19.577465 42.892727
33.326725 4.6653609 39.752499
42.699837 2.473398 39.632481
32.803421 4.1336975 39.752499
38.879982 24.628262 34.458359
30.715614 15.227649 42.732189
34.154324 15.223898 41.393456
38.626049 17.347412 46.566299
43.098499 24.397724 34.843338
36.242775 14.206664 39.752544
44.174568 16.296034 45.427101
32.451614 15.230302 43.679207
42.763233 15.416584 45.427101
39.187576 18.626709 44.4804
28.858736 17.906464 45.683144
25.433456 14.199706 39.752499
30.693001 20.578423 41.221218
23.53001 26.214622 31.809708
38.354836 26.206625 31.822638
28.703976 24.964174 33.89748
31.297825 24.237352 35.111145
38.503777 26.274952 31.708542
31.26862 15.220839 40.30159
30.931852 25.833382 32.445919
31.10096 15.226206 42.216919
38.314438 25.712973 32.646992
25.56925 23.203442 36.837891
25.587431 14.238908 39.752499
37.049084 10.449354 40.009102
33.596008 22.336086 38.286079
40.240143 15.224836 41.728245
43.890228 3.5239429 39.752548
42.677773 15.228971 43.204441
35.919945 15.235091 45.388592
31.813354 24.638941 34.440529
27.978859 13.054092 39.752502
28.40391 20.82049 40.816994
39.141258 21.322416 39.978817
27.837376 19.512398 43.001385
35.06863 15.222214 40.792599
29.504917 18.694431 44.367313
28.710318 15.257222 45.427101
34.487694 15.972296 45.427101
40.333839 11.749185 39.752583
25.870798 15.223723 41.331223
26.210358 19.766041 42.577904
30.296638 26.197252 31.838289
40.041916 7.3302817 39.596298
28.554836 11.477287 39.752499
39.153393 8.2638493 39.596298
35.185459 23.784903 35.866695
36.548668 26.536242 31.272209
29.64061 19.161209 43.587833
34.818031 5.85851 39.752499
25.491306 22.746788 37.600456
25.740559 15.23057 43.77438
39.400558 15.810263 45.427101
42.895416 25.127157 33.625248
26.579647 18.798813 44.193039
39.745453 15.228931 43.189857
24.608068 15.636804 45.427101
39.083389 21.578438 39.551285
25.019844 17.442581 46.45779
34.267879 17.164972 46.566299
29.001158 15.234857 45.304756
36.752548 20.874405 40.726955
32.50309 15.233338 44.762947
43.974144 6.6522579 39.752571
30.081409 5.6692038 39.752499
24.481108 24.33502 34.948364
32.139484 23.378281 36.545715
39.442394 7.0263615 39.596298
37.676998 15.230045 43.58757
41.024403 15.076406 39.752552
34.390427 5.8195529 39.752495
25.395336 21.29719 40.021122
25.68881 25.131411 33.618408
32.259594 6.9755211 39.752499
30.020823 18.513851 44.668861
24.556301 15.225822 42.080223
43.943176 11.956247 39.752594
25.618586 14.60876 39.752499
29.308956 15.220668 40.240528
42.703716 6.1576204 39.641651
31.443008 18.561871 44.588676
34.287651 11.063869 39.752499
35.073418 20.168489 41.905769
38.886192 20.272669 41.7318
42.444363 15.229948 43.552479
29.881121 9.3007212 39.752499
38.126007 15.222118 40.758129
36.156071 6.1895165 39.596298
44.055977 11.846539 39.752594
36.960075 12.229696 39.752556
39.063126 24.063438 35.401562
32.45483 15.478369 45.427101
40.407856 15.221169 40.419422
27.391306 24.841158 34.102989
26.164509 7.7500973 39.752499
41.859886 12.524717 39.752579
34.153133 23.685387 36.032871
33.198616 18.830709 44.13974
25.882044 5.9915328 39.752499
31.178463 23.941675 35.604897
39.562744 25.932241 32.280834
41.395252 20.834055 40.794334
28.835457 12.645079 39.752499
38.590015 22.353859 38.256405
24.46249 12.658633 39.752499
23.204479 24.99341 33.849007
37.080143 8.2249918 39.596298
24.655758 15.11744 39.752499
26.615902 7.659481 39.752499
26.071985 22.63142 37.793072
43.814323 9.9801168 39.752598
29.642658 21.632463 39.461071
28.693464 18.761309 44.25563
28.375898 18.15189 45.273308
45.087517 17.997776 45.53067
29.375978 15.227845 42.802628
29.703817 21.693644 39.35891
43.174858 21.051701 40.430893
28.561436 15.223951 41.412804
38.83083 15.224111 41.469463
43.19738 24.986631 33.859913
41.122643 15.233633 44.867516
42.21093 24.77091 34.220154
30.237375 21.904753 39.006378
38.235741 15.228032 42.868958
32.451385 17.656656 46.1003
41.369339 23.730518 35.957512
39.891548 15.221274 40.456944
34.669239 13.354618 39.752548
35.970276 9.9052296 39.930573
35.960419 21.915503 38.988419
27.575912 25.89296 32.346592
38.344513 23.283184 36.704514
43.261673 23.595839 36.182415
42.472652 21.255255 40.090973
34.306915 18.303278 45.020504
41.510338 15.231012 43.932343
40.301167 17.762705 45.92321
26.126286 10.254907 39.752495
36.85054 23.349911 36.59309
36.996475 21.56513 39.573509
27.543489 21.338131 39.952621
38.604095 4.5257158 39.596298
37.26532 18.830624 44.139881
28.326704 24.873352 34.049175
35.984604 5.1609492 39.89679
35.977928 6.1766353 39.912533
26.065397 12.161575 39.752499
41.380417 20.400118 41.518967
30.72789 24.224237 35.133045
32.32412 15.226372 42.276596
31.298655 18.436611 44.797848
29.513592 19.29744 43.360344
28.439314 15.232553 44.482754
39.555641 20.893658 40.694805
28.254757 14.877355 39.75251
41.893883 24.827961 34.124886
35.465275 20.567806 41.238945
44.371681 17.077827 46.566299
32.940758 25.228697 33.455688
24.00683 22.07099 38.729053
34.890095 15.227846 42.802673
41.958015 15.222336 40.835556
24.715918 20.258944 41.754913
24.262938 12.503092 39.752499
25.590191 15.222373 40.849098
32.657356 23.605675 36.165985
43.154602 18.268681 45.078278
43.41774 21.868517 39.066883
24.483276 13.687425 39.752499
23.528568 20.547333 41.273384
38.347942 20.586006 41.208549
38.984474 26.150566 31.916252
34.212135 19.890457 42.37006
26.907536 24.071491 35.388271
25.768154 15.020304 39.752499
34.70937 22.915287 37.318867
34.364075 6.8064981 39.752499
42.463833 23.146166 36.933319
35.956642 21.945419 38.938461
38.903023 6.0667071 39.596298
28.490635 26.040806 32.099648
40.71962 10.58689 40.00914
44.160896 18.830963 44.139313
40.486221 19.219364 43.490723
24.161575 25.380119 33.203186
39.746147 15.814895 45.427101
38.146191 16.550932 46.484516
40.075016 24.514143 34.648926
41.943443 25.17112 33.551834
27.07213 15.220559 40.201935
43.18372 23.704609 36.000778
34.975315 19.061459 43.75441
43.757397 15.250339 45.427101
30.380352 11.623228 39.752499
28.80755 17.900953 45.692345
40.930389 15.225229 41.868294
29.189743 17.887569 45.714695
41.349331 6.7363758 39.596298
39.911377 22.419315 38.147099
28.319038 6.6899729 39.752499
37.08334 19.079288 43.724636
23.969425 17.26268 46.566299
37.355171 26.389145 31.517849
30.744862 15.228418 43.007271
30.713375 21.43924 39.783733
28.774208 25.944408 32.260605
33.684799 23.385052 36.534405
35.304771 8.0968561 39.820656
43.902267 17.159832 46.566299
26.42491 23.325459 36.63409
25.426807 25.808681 32.487457
32.327698 21.450491 39.764946
24.841206 20.010786 42.169296
38.837379 15.223306 41.181622
37.652756 15.231184 43.993858
26.952972 26.108019 31.987505
34.107059 9.5966043 39.752499
31.070141 22.796099 37.517906
31.548399 5.9810319 39.752502
28.920769 5.7453218 39.752499
24.856419 22.283123 38.37476
28.435101 11.992224 39.752499
32.78429 26.00717 32.155712
33.952629 13.052052 39.752541
24.735357 14.742311 39.752499
24.435543 11.041622 39.752499
43.43343 15.226959 42.485977
32.95845 8.0364971 39.752499
40.503342 11.221293 39.752571
23.576784 15.227547 42.695564
43.611343 15.115405 39.752563
33.375961 22.303457 38.340569
35.851032 15.226875 42.456013
30.574371 8.0730648 39.752499
27.665928 25.948486 32.253864
40.803658 24.547308 34.59354
43.749847 9.9750996 39.752598
33.902142 14.735164 39.752533
24.15238 26.025908 32.124798
40.953281 11.416838 39.752579
42.798729 3.0254085 39.865898
38.014267 20.481052 41.383816
37.793484 16.374838 45.659985
41.304207 26.468906 31.384655
35.14304 17.754711 45.936558
30.94696 12.43804 39.752495
37.374184 23.359516 36.577049
34.447895 26.25845 31.736099
40.026543 22.970081 37.227364
43.063686 15.222927 41.047073
35.43087 15.429565 45.427101
26.356966 11.034629 39.752499
30.555882 14.374496 39.752525
40.027031 21.44632 39.771908
34.903645 10.359221 39.752499
32.193703 13.595049 39.752533
30.188347 26.490501 31.348602
35.840466 19.329258 43.307209
25.057072 15.223953 41.413151
24.461924 15.231184 43.993736
31.316223 7.0122042 39.752499
41.161495 14.275436 39.75256
31.638668 13.47184 39.752525
30.992229 10.481545 39.752502
30.851297 18.500196 44.691662
35.461155 8.4867916 39.976559
38.393211 15.223575 41.277874
42.466183 10.853742 39.870975
28.50563 18.306742 45.014717
27.575745 15.225935 42.120544
29.660929 9.2626266 39.752499
37.930504 15.746474 45.427101
41.299076 13.315043 39.752571
23.288528 20.919384 40.652119
36.474739 21.078167 40.386688
30.17794 11.897379 39.752495
40.441628 22.177456 38.55098
32.064934 8.4750957 39.752499
24.078323 8.2316637 39.752495
23.874567 12.72459 39.752499
40.215012 21.093817 40.360558
37.013241 15.22269 40.962219
41.725723 4.5870504 39.596298
42.372631 15.227379 42.635818
39.606827 14.345825 39.752556
32.354031 20.546783 41.274055
25.742447 12.631252 39.752499
33.519817 9.508832 39.752499
41.199211 17.848925 45.779228
38.902412 20.24605 41.776253
25.342049 24.031868 35.454536
26.292807 23.344818 36.601765
38.280773 9.5258102 39.596298
26.880909 18.367043 44.914028
29.746479 8.8978367 39.752499
41.839458 17.39279 46.540936
37.913864 10.868659 39.856049
37.237438 7.0599327 39.596298
28.067984 20.210766 41.835175
25.916668 16.535976 46.414486
32.899361 18.359888 44.925968
33.380806 9.3667221 39.752499
36.573624 22.099989 38.68034
30.091625 15.232873 44.596901
33.578663 15.22182 40.651611
28.917868 19.820759 42.486443
40.797913 22.93919 37.278957
44.234444 19.776955 42.559593
32.834911 21.982552 38.87645
39.758869 15.234991 45.352238
38.161987 16.495142 46.223289
42.179962 20.619301 41.152958
38.423546 22.067963 38.733822
38.288925 12.939792 39.752563
35.387753 19.837435 42.458595
39.654999 23.134556 36.952713
44.883846 15.227892 42.819027
31.455677 22.599745 37.845798
25.105904 22.465965 38.069427
32.289639 15.229071 43.239719
35.170235 19.280138 43.389236
25.585848 22.345764 38.270111
39.407993 15.219801 39.930702
42.060799 13.65182 39.752571
24.588711 25.295689 33.344147
37.999249 25.62508 32.793766
42.375893 17.594782 46.203621
39.533348 3.9085178 39.596298
39.418045 8.0778189 39.596298
32.460167 21.150499 40.265903
34.439537 24.198547 35.175945
25.739376 16.527376 46.374214
32.208565 5.229362 39.752499
40.953362 19.288666 43.374992
34.544491 9.2928276 39.752499
43.6227 21.096087 40.356766
34.997776 22.49159 38.026405
44.070793 22.631521 37.792732
29.630674 21.21026 40.166111
36.550388 25.885345 32.359146
39.796978 12.604403 39.752575
29.639109 22.102491 38.676167
26.341406 21.385693 39.873272
35.567806 25.303354 33.331017
42.792595 26.450321 31.415684
26.880623 22.189585 38.530834
28.808132 25.979568 32.201889
38.337303 15.231749 44.195286
39.006477 4.5106592 39.596298
37.635559 21.729031 39.299812
40.879986 23.887695 35.695038
40.74176 16.384541 45.705418
30.230837 25.86706 32.389679
45.040848 18.397415 44.863304
42.396027 20.732025 40.964718
28.988033 18.434368 44.801598
35.44521 3.820941 39.960659
24.078234 21.634268 39.458321
41.023048 21.631256 39.463085
37.128498 15.227113 42.540848
43.007973 16.462608 46.070953
40.200352 19.758606 42.590237
23.325127 20.417923 41.489475
40.932266 4.6068444 39.596298
41.900146 6.4284639 39.596298
39.753105 3.5641704 39.596298
36.824013 17.890839 45.709236
40.436813 15.221209 40.433548
43.626762 10.102477 39.752594
39.559021 25.005903 33.827736
42.775063 26.833422 30.775944
26.605238 24.448847 34.758148
39.826084 15.229099 43.250053
29.929365 15.235188 45.422607
35.829216 5.5285769 40.009117
36.607582 19.251898 43.436398
36.01672 15.233689 44.888084
27.008595 8.6222725 39.752495
41.04187 7.2538424 39.596298
24.267897 8.8445158 39.752499
24.564753 15.234791 45.280857
32.743538 18.313429 45.003548
33.217651 14.336763 39.752533
25.498497 13.021058 39.752499
