# .PCD v0.7 - Point Cloud Data file format
VERSION 0.7
FIELDS x y z
SIZE 4 4 4
TYPE F F F
COUNT 1 1 1
WIDTH 1537
HEIGHT 1
VIEWPOINT 0 0 0 1 0 0 0
POINTS 1537
DATA ascii
-32.766258 -10.7692 22.690313
-45.55407 -9.4986525 22.115799
-42.160782 -8.3542957 20.716887
-46.788761 -10.3266 11.225773
-42.081532 -8.3275681 18.178631
-45.88311 -9.6096191 20.187042
-32.103928 -14.599689 12.033696
-39.205856 -10.7692 11.31294
-37.808876 -6.8866496 12.851306
-32.1133 -19.359095 17.322155
-41.31646 -8.0695534 17.583815
-30.801777 -5.9435682 23.567181
-33.716736 -6.3218908 12.023677
-43.239388 -10.7692 16.986349
-44.016518 -10.7692 11.103534
-38.430656 -7.0963402 13.378012
-38.759689 -7.207304 15.88023
-32.1133 -20.315538 16.017513
-32.1133 -24.445974 17.322344
-37.76086 -6.8704572 23.078781
-32.668129 -5.1529746 18.115257
-40.523464 -7.8021226 20.804453
-28.514463 -5.8899989 23.398293
-32.113297 -18.692192 15.236045
-39.771675 -7.5485873 11.63162
-43.533504 -10.769201 22.072649
-32.104195 -10.941008 20.011322
-32.104252 -15.236342 22.151321
-27.996143 -6.9653249 11.130599
-36.824654 -10.7692 21.293795
-31.594616 -4.7909412 18.208845
-32.950615 -10.7692 23.627691
-43.226524 -10.769199 20.169476
-42.383305 -10.7692 23.25095
-34.949787 -6.0053949 23.762106
-39.870754 -7.5820012 21.97002
-46.745602 -11.156704 11.064418
-32.104034 -11.655928 15.262365
-30.518681 -5.4482512 15.518128
-46.745602 -10.419981 22.707411
-31.228592 -5.028101 16.794405
-34.328541 -5.7129345 22.598505
-41.360168 -10.769199 11.5815
-39.415665 -10.7692 19.950132
-32.103989 -12.658175 13.931726
-32.103851 -12.549201 9.4783783
-32.775017 -10.7692 15.378524
-39.680889 -7.5179701 11.934473
-46.189804 -11.529218 21.546638
-35.011471 -5.9432468 21.038538
-43.807312 -10.769201 9.9263763
-32.104156 -13.915308 19.083031
-32.103958 -12.511141 12.774109
-35.263527 -6.0282512 21.848045
-44.270908 -10.7692 17.795185
-30.477631 -5.8299303 23.208914
-46.189796 -11.070335 9.3682985
-39.682991 -10.769201 9.3487873
-32.103973 -17.252422 11.927889
-38.356865 -7.0714545 13.544731
-34.945042 -5.9208446 19.176691
-36.082546 -10.769201 9.877161
-32.10416 -12.957405 19.123478
-33.299469 -10.7692 21.973156
-38.662682 -7.1745877 15.798635
-36.134815 -10.7692 21.017443
-32.104271 -11.296905 22.555157
-40.768524 -10.7692 23.184483
-34.154736 -5.6543207 22.47501
-44.92942 -10.7692 23.102024
-46.1898 -11.012177 12.06636
-41.100868 -10.7692 13.838092
-37.411751 -6.7527223 13.522366
-40.540314 -7.8078055 20.483259
-32.969666 -7.0141206 9.4681787
-38.4049 -10.7692 19.877733
-34.911423 -10.769199 19.440767
-28.334034 -5.3035583 16.798588
-32.103889 -13.041392 10.670544
-44.226318 -9.0508804 15.847855
-31.345066 -7.0597277 9.6947174
-32.1133 -20.274471 18.707279
-39.285679 -7.3846898 21.893932
-32.322453 -5.5060434 15.032286
-46.302177 -9.750948 16.434908
-40.176308 -7.6850462 23.454218
-31.707315 -6.0711937 23.969547
-34.198013 -5.8778706 13.662868
-32.104019 -14.29534 14.918982
-32.103882 -14.909574 10.26454
-43.749016 -10.7692 13.183187
-40.594398 -10.7692 20.801298
-45.77565 -9.5733795 21.704025
-32.648998 -5.7014594 14.311637
-46.1898 -10.873488 17.966583
-44.886574 -9.2735462 14.543994
-44.901863 -10.769201 15.225447
-38.202076 -10.7692 9.8775454
-36.078033 -10.7692 11.671137
-32.103954 -11.471568 12.729129
-46.105911 -9.6847591 17.564568
-45.405239 -10.7692 12.294891
-32.104012 -13.231561 14.600615
-42.636715 -8.5148001 9.2793198
-45.535538 -10.7692 22.630898
-43.042416 -8.651618 21.441515
-37.778717 -10.7692 14.315229
-33.42939 -10.7692 15.396914
-32.106812 -17.429461 14.624896
-29.576586 -6.3106446 12.860852
-32.103874 -10.947237 10.279216
-29.90263 -5.6238632 15.117722
-41.448471 -8.1140728 19.765495
-27.507437 -6.478034 12.970736
-36.198551 -6.3435802 14.768546
-37.905983 -10.7692 12.41235
-27.895201 -5.3896713 16.671305
-32.104008 -14.345712 14.514633
-41.180481 -8.023695 18.542709
-46.745598 -11.668825 19.017433
-32.3218 -18.30076 15.169219
-32.3218 -18.210432 10.687238
-46.329311 -11.8008 13.811
-32.103954 -17.102707 11.341885
-32.104145 -13.973223 18.787025
-32.104034 -11.135111 15.073236
-46.745602 -10.485816 13.557465
-32.10424 -12.732231 21.594999
-46.439163 -9.7971439 16.595282
-32.1133 -23.093449 15.204723
-40.842495 -7.9097128 18.736244
-46.262379 -11.8008 16.157743
-37.762306 -10.7692 18.643839
-37.873032 -10.769201 13.616374
-36.512093 -10.769201 10.1318
-42.334335 -10.7692 13.874367
-39.048721 -10.7692 21.602098
-41.932911 -10.769201 19.744963
-46.550919 -9.8348331 11.963251
-44.317825 -9.0817394 21.409418
-42.493965 -8.4666586 11.029085
-44.143524 -10.7692 20.533199
-32.994667 -6.6472778 10.821918
-45.596863 -9.5130854 21.499451
-32.675095 -5.1553221 17.328348
-32.1133 -20.804161 16.416458
-33.187859 -5.8014007 13.943608
-46.745602 -11.553784 20.143709
-39.317856 -10.7692 19.80686
-37.173622 -10.7692 18.965916
-34.49192 -5.7680321 23.004086
-31.568041 -6.3783312 11.967232
-36.049133 -7.0868249 9.2042904
-41.328033 -10.7692 15.350596
-39.015045 -7.2934222 17.371002
-32.103905 -12.376282 11.112907
-36.6604 -10.7692 20.154835
-30.104315 -4.5590019 18.820374
-32.104012 -12.563097 14.599782
-32.1133 -18.576679 18.446066
-33.389019 -10.769201 13.267211
-47.124298 -10.079493 9.0733385
-47.124298 -10.276564 11.158591
-46.745602 -11.510367 14.744222
-44.932899 -10.7692 10.004131
-40.998608 -10.7692 15.23791
-38.817749 -10.7692 22.478106
-32.103943 -13.789129 12.368174
-32.1133 -21.857079 15.073548
-43.913124 -10.769201 15.874139
-45.983917 -9.6436157 17.597105
-31.560711 -5.2906284 15.826108
-46.745602 -10.792927 12.1267
-39.709938 -10.7692 11.846457
-34.075043 -10.769201 18.289759
-46.57383 -9.8425579 12.232329
-32.901638 -5.2317238 20.363131
-41.639488 -8.1784916 15.070273
-33.750389 -5.9626637 13.349328
-40.450489 -10.7692 20.975836
-47.107594 -10.022567 20.985949
-41.453285 -8.1156969 18.867907
-46.189804 -10.872242 12.403976
-43.133286 -10.7692 16.953772
-36.005539 -10.7692 16.394495
-34.694553 -5.836369 18.241322
-35.842609 -6.2235427 15.859084
-40.337791 -10.7692 20.963285
-34.926769 -10.7692 20.203428
-32.104191 -17.215387 20.357702
-46.745602 -11.773046 23.053818
-45.744213 -9.5627775 20.707279
-37.713139 -10.7692 21.595079
-40.359322 -10.7692 13.227509
-46.745602 -11.086815 17.565733
-40.841335 -7.9093227 14.817181
-31.670876 -6.7766142 10.561588
-36.345055 -10.7692 13.044725
-32.104019 -10.814847 14.742788
-46.155602 -10.7692 14.319412
-38.322716 -7.0599375 20.31698
-32.103905 -14.586048 11.350656
-32.104134 -15.835171 18.527884
-32.104057 -14.284173 15.972244
-42.595039 -10.7692 23.163416
-40.721046 -7.8687549 20.537842
-43.326702 -10.7692 15.877909
-32.1133 -20.814846 17.95746
-46.745598 -11.359884 23.425373
-33.42382 -10.7692 16.832077
-43.976246 -8.9665451 11.071115
-34.501133 -5.7711387 15.410866
-43.496994 -10.769201 17.818396
-39.084831 -7.3169556 20.323933
-28.794586 -4.9358563 17.933039
-32.199074 -10.769201 20.248451
-42.050705 -8.3171721 20.933857
-32.104057 -16.094501 16.185509
-42.62291 -10.7692 17.152794
-46.049076 -9.6655903 17.301533
-36.010006 -10.7692 11.489438
-45.395432 -9.4451542 12.716862
-42.56469 -10.7692 23.537685
-28.406048 -5.9220529 14.587266
-36.681984 -10.7692 22.768091
-28.414398 -6.8200021 11.492304
-32.104042 -13.968959 15.58902
-33.151398 -10.7692 16.711182
-39.183552 -10.769199 12.052101
-35.183369 -10.7692 18.761183
-37.555557 -6.8012204 20.491158
-45.676666 -10.7692 9.5588951
-40.178188 -10.7692 20.488808
-32.406067 -10.7692 10.589263
-29.865963 -4.8520622 20.125965
-46.341938 -11.8008 20.157841
-38.613716 -7.1580744 21.918274
-46.745602 -11.046094 19.30526
-32.1133 -21.964018 18.322876
-33.203808 -5.7172966 14.253989
-32.533318 -10.7692 16.126106
-40.277367 -10.7692 17.693768
-29.69375 -5.9924688 13.917668
-35.274513 -10.769201 13.432179
-32.116211 -10.7692 20.622803
-41.240547 -8.043952 14.815239
-32.10424 -12.651691 21.719501
-42.626373 -10.7692 10.787745
-37.983391 -10.7692 16.732748
-39.519073 -10.769199 10.369862
-46.745605 -11.40841 21.74789
-44.119354 -10.769201 17.88591
-32.314892 -19.565401 19.711214
-41.616711 -10.7692 9.618659
-32.104259 -19.0172 22.430326
-29.45499 -6.4020505 12.586418
-46.745602 -10.755166 15.830114
-46.1898 -11.526998 22.74357
-36.561131 -10.769199 21.424704
-41.954327 -8.2846689 11.744018
-32.395668 -5.4643669 22.056393
-38.426994 -10.7692 22.089149
-32.103863 -13.012445 9.9315815
-39.135674 -7.3341026 15.280016
-45.393677 -9.444562 22.71081
-39.640343 -10.769201 10.897517
-31.197468 -5.9700089 13.496247
-39.525902 -10.769201 22.662914
-31.600925 -5.8287611 13.848833
-36.812965 -6.550787 17.072224
-38.765472 -7.2092538 11.170705
-36.719315 -10.7692 16.050751
-46.745602 -11.488777 10.41095
-40.827629 -10.7692 23.225588
-39.268391 -7.3788595 11.715247
-34.209358 -5.6727428 15.055073
-45.781158 -9.5752382 16.011055
-44.375603 -10.7692 10.381039
-40.625473 -10.769199 22.115147
-44.809387 -10.7692 13.274627
-32.104233 -19.384115 21.497604
-32.3218 -18.150127 17.765797
-32.103962 -12.928389 12.964192
-46.495598 -11.8008 11.816906
-35.578392 -6.8586421 10.045644
-29.161242 -4.8537316 19.611256
-44.344864 -10.7692 16.046907
-37.449509 -6.7654557 17.34013
-39.612709 -10.7692 20.830429
-41.088932 -10.7692 10.057343
-45.623596 -10.7692 21.73884
-34.864857 -6.7613583 10.403617
-42.18103 -8.3611221 21.322226
-46.745605 -10.574207 16.122089
-38.015545 -6.956347 10.613297
-36.120434 -6.3172359 18.438263
-40.141888 -7.6734381 20.643415
-46.982491 -10.3266 14.158095
-36.548222 -10.7692 17.259487
-31.76173 -5.4553881 22.028086
-37.543167 -6.7970405 12.123316
-32.104259 -19.102285 22.468937
-43.890095 -8.9374914 23.019445
-36.21595 -10.769201 20.300478
-37.023548 -10.769199 12.580553
-32.104004 -15.963264 14.191028
-33.237118 -5.6299405 14.576393
-29.114067 -6.1712427 24.284973
-44.294128 -9.0737486 18.333145
-29.095303 -5.3439398 16.349449
-39.585793 -7.485899 11.057932
-36.246178 -6.359643 19.123096
-34.710533 -5.8417592 20.19626
-29.897945 -6.4349403 12.326238
-32.103893 -12.185639 10.907469
-36.661552 -10.7692 13.694474
-41.78952 -8.2290897 13.122751
-30.135464 -5.106391 16.822468
-33.545982 -7.0809331 9.2224541
-39.756828 -7.543581 16.701506
-46.745602 -10.560573 11.432828
-34.622742 -5.8121524 19.970238
-46.745602 -10.458431 16.832376
-36.131538 -6.3209815 22.2882
-47.003174 -9.9873524 15.931807
-33.43148 -5.9847665 13.26731
-34.342709 -5.7809248 23.054411
-32.771065 -10.769199 13.151664
-32.275105 -18.394367 16.318224
-45.644089 -9.5290117 18.121609
-44.566963 -9.16576 9.9566193
-32.103935 -16.199072 11.439954
-36.629387 -6.4888759 14.885754
-32.104008 -13.039927 14.410288
-30.056301 -5.4566708 15.642498
-32.1133 -19.17865 18.75565
-46.1898 -11.16074 11.569224
-35.988556 -10.7692 17.258307
-37.564224 -6.8041434 13.318943
-31.175077 -5.2621374 15.941312
-36.964882 -10.7692 10.09835
-44.892128 -10.7692 19.822477
-31.611357 -5.1972523 21.214252
-45.528316 -10.7692 15.869192
-37.924965 -6.9258003 17.648636
-32.306252 -10.7692 16.56159
-32.103928 -16.635447 10.651205
-38.976265 -10.769201 15.565439
-32.1133 -18.570518 16.887951
-44.568649 -10.769199 23.480192
-42.075619 -10.7692 10.525518
-40.952747 -10.7692 12.120196
-35.460403 -6.2016902 24.380968
-46.745602 -11.303404 15.664099
-32.1133 -21.210827 15.695955
-46.745602 -11.265194 13.557805
-44.533257 -10.7692 21.439945
-44.056767 -8.9937 9.6496239
-32.240158 -5.7167845 14.254502
-40.731926 -10.7692 15.579327
-46.514725 -11.8008 10.801744
-37.09761 -6.6467805 13.695597
-26.920759 -6.7010188 12.397456
-27.879404 -5.7519374 15.370499
-46.745598 -10.537357 21.879545
-46.36692 -9.7727795 17.399519
-43.622498 -8.8472462 21.612507
-31.359657 -4.7117028 19.518986
-34.583374 -6.5513539 11.178163
-33.691643 -10.769199 21.464771
-32.1133 -19.489868 18.569996
-32.470913 -5.688714 14.358417
-39.582481 -10.7692 18.001429
-33.307747 -5.368681 16.425915
-32.1133 -19.58367 16.692841
-36.577316 -10.7692 11.32808
-34.862213 -5.8929114 13.960937
-37.900551 -10.7692 17.726011
-46.1898 -11.018131 21.379837
-40.418953 -10.7692 23.046162
-42.726448 -10.7692 16.137999
-32.103973 -15.293702 13.489985
-40.570282 -10.7692 19.568546
-32.104218 -18.610167 21.166506
-32.104023 -14.912773 14.964004
-32.103931 -16.885239 10.607429
-44.417961 -9.115509 19.341402
-31.642693 -5.5521345 14.861233
-32.10397 -16.982931 12.048257
-38.635975 -7.1655807 15.177979
-37.56258 -10.7692 19.971876
-39.817577 -7.5640683 9.8392754
-35.27224 -10.769201 15.44614
-32.104084 -15.004606 16.990555
-32.1133 -20.891964 16.383183
-44.488316 -10.7692 10.649729
-42.94117 -8.6174746 13.356108
-32.103958 -16.855928 11.801633
-42.613976 -10.769201 19.438431
-32.1133 -22.269146 17.763657
-35.711155 -10.7692 13.566044
-40.326355 -7.7356501 17.410921
-32.1133 -19.784237 12.906732
-32.2071 -22.964207 20.543341
-32.104279 -11.318589 22.68425
-32.104248 -15.096912 22.052048
-42.940239 -8.6171598 17.468029
-42.437153 -8.4474974 11.093637
-33.140789 -6.1615233 24.254333
-44.688217 -9.2066517 12.491635
-43.995747 -10.7692 14.023413
-45.838634 -9.5946207 11.477121
-29.535257 -5.6641102 22.686127
-28.863358 -5.3806229 21.792372
-46.00872 -9.6519794 16.108036
-43.287514 -10.7692 15.178309
-32.103935 -10.912366 11.990545
-32.3218 -23.152082 19.941589
-38.535645 -7.1449184 8.9934702
-33.113579 -10.7692 17.099325
-41.609421 -8.1683531 22.378281
-29.98608 -5.5321584 15.405837
-41.510792 -10.7692 9.3064165
-45.244774 -10.7692 10.3672
-44.236664 -10.7692 22.273659
-41.504227 -8.1328773 17.153778
-38.218204 -10.7692 20.138287
-32.1133 -20.310244 15.894378
-40.714142 -7.8664255 20.994003
-38.386887 -7.0815783 20.687778
-28.627321 -5.471477 16.069935
-32.104294 -11.592331 23.149965
-42.239006 -8.3806744 18.510889
-36.939255 -10.7692 23.435921
-43.843243 -10.7692 11.146602
-32.103939 -11.394216 12.204434
-32.1133 -19.770836 16.50832
-30.47555 -5.1401496 16.593414
-37.181995 -6.6752396 19.168322
-45.178516 -9.3719997 11.381023
-45.790928 -9.5785313 12.317962
-32.103855 -14.001455 9.7657261
-32.964214 -5.2528262 16.683071
-43.120895 -8.6780853 22.367353
-46.745598 -11.741904 9.7076588
-32.10408 -12.843958 16.618494
-32.1133 -22.450022 18.410198
-43.756886 -10.7692 18.241899
-38.286659 -10.7692 23.132402
-35.062111 -5.9603252 19.190189
-37.457264 -6.7680707 15.375855
-30.585037 -4.797204 19.953011
-32.104248 -13.45088 22.002007
-43.818436 -8.9133244 10.501223
-43.626572 -10.7692 12.533773
-37.544979 -6.7976518 22.049452
-44.31345 -10.7692 11.177686
-32.104141 -13.96136 18.648354
-36.715343 -6.5178642 15.462864
-36.58638 -10.7692 14.11976
-33.306416 -5.7356877 22.911793
-34.938171 -5.9185271 14.702076
-32.104069 -15.314063 16.493469
-36.374557 -6.5343866 11.243336
-36.4757 -6.437048 23.738796
-39.352531 -10.7692 13.566227
-31.452816 -6.693181 10.921227
-32.146477 -10.769199 16.056259
-44.121017 -9.0153694 9.2315321
-43.282974 -8.7327452 10.913721
-41.526268 -8.1403103 11.156874
-33.489334 -10.7692 20.856215
-32.104263 -17.960421 22.50979
-39.005455 -10.769201 20.432755
-38.455635 -7.104764 10.675672
-29.883984 -6.8501053 10.901198
-46.745602 -10.439152 11.347108
-40.452454 -10.769201 18.433645
-40.570408 -10.7692 10.717675
-28.934925 -4.871079 19.359922
-35.682365 -6.1695004 12.931464
-32.104233 -11.956799 21.367832
-44.221466 -9.0492439 20.075066
-34.421707 -10.7692 13.429759
-32.864414 -5.3490491 15.612392
-40.969078 -10.7692 14.46789
-32.103878 -13.670639 10.419238
-37.459156 -6.7687092 22.676376
-32.104225 -21.45101 20.996008
-34.860107 -10.7692 20.629461
-35.584927 -6.136641 14.444489
-46.691952 -9.8823948 21.918497
-44.664295 -10.769201 10.442999
-35.569675 -6.1314983 15.408006
-33.20319 -6.6689339 10.742304
-34.438457 -5.7500033 15.658289
-46.651455 -11.8008 16.893206
-44.561417 -10.7692 9.9728298
-32.103893 -11.350513 10.766188
-32.104252 -20.204735 22.310457
-36.286499 -10.7692 18.199512
-32.10429 -10.896145 22.95257
-43.558224 -10.7692 11.577462
-30.734367 -5.1258035 16.556971
-43.482994 -8.8002005 11.440057
-32.10387 -15.267897 9.570509
-42.673843 -10.769201 20.545803
-32.3218 -18.169319 16.891661
-32.1133 -24.316706 17.636322
-32.10424 -22.800747 21.288706
-44.843483 -10.7692 23.253191
-28.931509 -5.9517293 14.310784
-33.55479 -5.4519939 21.210554
-42.023178 -8.307889 14.335981
-44.279701 -9.068882 12.329926
-32.103863 -11.246979 9.8250771
-32.1133 -20.311741 12.495404
-42.080616 -8.3272591 14.238674
-38.149158 -10.7692 12.643985
-28.455334 -6.0951371 24.045036
-42.376419 -10.769201 14.776283
-39.280094 -7.3828068 12.899852
-33.563431 -10.7692 10.17186
-31.871059 -4.9348607 20.387005
-34.458305 -6.6682129 10.746758
-28.686607 -5.1948051 21.206539
-32.532326 -5.872952 23.344549
-29.846064 -5.9054923 23.44714
-32.104225 -20.249311 21.230637
-40.676224 -10.769199 16.802195
-31.705446 -4.866581 17.391117
-44.039413 -10.769201 20.254807
-46.826782 -10.3266 18.828253
-32.103851 -13.296527 9.5666475
-28.958591 -5.7761078 14.906572
-37.629181 -6.8260489 12.314974
-29.726677 -6.3185525 12.783838
-41.18795 -10.7692 20.241407
-44.219257 -10.7692 11.745685
-45.803398 -9.582737 22.985909
-33.171951 -10.769199 14.32898
-32.1133 -23.727877 17.59968
-32.103897 -15.025986 10.719262
-43.310539 -8.7420406 22.872107
-32.104225 -12.725887 21.067215
-36.065521 -6.2987175 21.617725
-32.3218 -21.699673 20.424505
-46.745598 -11.143538 17.116985
-32.104225 -19.850826 21.149612
-32.1133 -20.581722 12.651524
-36.851513 -6.5637865 17.435904
-35.756565 -6.3087039 12.075253
-37.697121 -10.7692 17.289337
-36.302109 -10.7692 15.682702
-46.1898 -10.891424 18.738466
-43.088223 -8.6670666 17.523792
-40.006706 -10.7692 9.9096155
-39.240959 -10.769199 13.456074
-32.3218 -19.11445 20.079025
-46.1898 -11.714931 9.1893845
-28.758986 -5.1075211 20.931356
-29.269388 -7.2618194 9.6872683
-43.32605 -8.7472725 19.544483
-46.745602 -10.498671 14.075077
-33.334827 -5.9244943 13.489588
-28.799515 -5.780025 23.051575
-34.948376 -5.9219685 20.036734
-38.144062 -10.7692 11.503364
-47.124298 -10.236758 22.056606
-32.10416 -10.995485 18.922039
-44.10326 -10.7692 9.6617823
-32.10421 -11.047839 20.62463
-45.459747 -10.7692 13.639942
-32.103928 -14.079475 11.928082
-46.745598 -10.969553 10.772829
-36.514954 -6.450284 13.276958
-32.1133 -20.430561 15.360172
-34.719841 -10.7692 20.779533
-41.96909 -8.2896481 19.192545
-32.103989 -16.175409 13.510811
-40.893864 -7.9270353 12.33341
-36.94717 -6.5960455 20.700211
-41.352608 -8.0817432 23.317463
-32.103924 -12.747737 11.764147
-32.103962 -15.56435 12.762512
-31.782766 -5.7584453 14.100114
-26.930668 -7.3515325 10.154051
-45.189461 -10.7692 23.410187
-32.103931 -15.138106 12.030592
-32.104237 -19.942993 21.687187
-32.103874 -11.427547 10.210514
-44.87009 -9.2679873 17.127092
-32.104038 -10.812284 15.294861
-32.104301 -11.373194 23.48274
-43.500481 -10.7692 20.015993
-39.541321 -10.7692 14.82217
-36.78965 -6.5429249 23.704784
-34.031883 -5.6128893 21.665958
-43.775665 -8.898901 15.374949
-32.104198 -15.986641 20.571821
-35.070496 -10.7692 9.7294178
-44.212009 -9.0460548 22.380638
-37.531109 -7.0440702 9.3641787
-44.910667 -9.2816715 22.629257
-43.386559 -8.7676792 22.141245
-32.103901 -11.745117 11.047131
-32.103848 -12.835247 9.4806089
-34.308189 -10.769199 18.046839
-34.890617 -10.769199 21.741577
-34.994308 -6.8938041 9.9150572
-44.637177 -10.7692 12.381113
-32.32053 -18.366051 10.247232
-40.330887 -10.7692 18.355911
-32.434933 -6.3949499 11.752246
-46.1898 -11.536829 22.979956
-46.1898 -11.195396 9.1261911
-44.365623 -9.0978594 22.578493
-27.675892 -5.6488338 22.637966
-45.171005 -9.3694687 20.11447
-32.103878 -11.873393 10.333603
-32.103863 -11.877523 9.9181328
-32.104218 -19.057518 20.989737
-41.506302 -8.1335764 19.258995
-43.80484 -10.769199 17.200739
-28.37495 -5.4011045 21.856941
-42.390678 -10.769199 21.327251
-32.104221 -19.820274 20.981853
-44.744019 -9.2254715 20.747002
-32.690994 -5.6350317 22.59445
-33.750084 -10.7692 14.199789
-33.604332 -10.769201 16.367029
-41.579052 -8.1581116 17.091387
-36.897816 -10.7692 20.391499
-42.306358 -8.4033899 11.54273
-32.681507 -10.7692 20.222448
-34.297348 -10.7692 21.774405
-37.802505 -10.769201 14.167456
-36.965904 -10.7692 17.253651
-29.746674 -5.751617 22.962013
-28.669987 -7.3680387 9.5203009
-33.610142 -5.4706597 18.988277
-40.394989 -10.769201 11.123083
-32.1133 -19.740189 15.004706
-32.464546 -5.6546087 22.656172
-46.1898 -11.720396 14.268782
-32.889 -10.7692 20.845697
-36.651352 -10.7692 13.952563
-28.465721 -6.8801761 11.268064
-32.283642 -10.769199 20.057049
-34.783371 -10.7692 13.158216
-33.191818 -5.3295846 20.244869
-34.174637 -10.769201 11.528857
-34.102573 -6.0254922 13.117984
-32.103924 -13.492474 11.846447
-41.222145 -8.0377464 18.49472
-30.500708 -5.3593154 21.725191
-32.730225 -5.1739154 18.421835
-28.134426 -5.2092061 17.222567
-28.419088 -5.0203347 19.693739
-43.260117 -8.7250347 19.424955
-46.745602 -10.834786 16.152271
-32.104088 -12.451118 16.965816
-32.1133 -21.178799 17.664066
-44.839584 -10.769199 18.688723
-35.748493 -6.1918015 17.578207
-35.617306 -10.7692 17.906975
-31.427576 -4.7346082 18.142921
-27.725582 -6.1815929 13.919209
-43.318455 -10.7692 16.730873
-43.749001 -8.8899088 23.356256
-45.260895 -10.7692 10.223093
-32.104298 -11.057047 23.352268
-46.767105 -9.9077396 17.636976
-41.05711 -10.7692 20.967358
-32.104214 -20.676001 20.65547
-32.554951 -5.8891535 13.618885
-40.878815 -7.9219618 14.94314
-30.532244 -6.646318 11.387943
-42.147545 -10.769199 19.294912
-32.264572 -17.589195 13.435911
-37.61647 -10.7692 16.614338
-46.459343 -11.8008 20.659082
-36.028069 -10.7692 22.073877
-41.244347 -8.0452347 15.054199
-34.368557 -5.7264299 19.16065
-28.288265 -6.4174304 12.920444
-44.008102 -8.9772892 12.644652
-38.294418 -7.050395 18.151344
-26.910009 -6.6953764 12.420451
-33.842354 -10.7692 20.524914
-45.383453 -9.4411144 16.905083
-32.580723 -10.7692 21.307444
-33.49305 -10.769199 19.285454
-46.821133 -9.9259605 18.231747
-32.263588 -10.7692 22.286985
-36.261623 -6.364851 16.343451
-36.592949 -6.4765882 20.38448
-32.103912 -13.599449 11.391642
-42.568733 -8.4918728 23.042494
-41.710934 -8.2025871 16.098434
-38.301361 -7.0527377 9.6868181
-37.22744 -6.6905646 17.754791
-30.128876 -4.9745579 17.278635
-33.393509 -5.6606712 14.463217
-40.97546 -7.9545541 22.155842
-45.952858 -9.6331415 23.049448
-44.242725 -10.7692 9.5929222
-29.655405 -5.8916302 23.403435
-33.636395 -10.7692 22.772989
-32.104046 -16.348013 15.537424
-33.561996 -6.4795532 11.441658
-32.956963 -10.7692 14.373367
-32.221008 -18.447941 15.100645
-42.723328 -10.769201 21.145971
-38.962261 -7.2756186 18.54459
-37.848618 -7.0036206 9.5138979
-32.1133 -19.315289 19.040491
-39.27 -7.3794026 12.172723
-47.023907 -9.9943428 11.36642
-32.3218 -19.4972 20.353371
-40.83823 -10.7692 19.637377
-45.348358 -9.4292793 18.268951
-32.104248 -13.480326 22.004723
-32.179848 -18.501923 19.584463
-38.969261 -7.2779779 22.220741
-35.752426 -6.1931295 23.514717
-44.306778 -10.7692 22.794188
-32.73233 -5.6059747 14.664109
-45.980553 -9.6424809 11.695122
-32.104233 -18.949627 21.689734
-43.170376 -10.769201 21.926636
-34.281303 -10.769201 10.032911
-26.79244 -6.9062791 11.73318
-36.311539 -6.3816838 20.503025
-40.524879 -7.8025994 16.382702
-38.042294 -10.7692 18.502508
-38.296345 -10.7692 23.651279
-37.633617 -10.7692 13.066898
-43.918728 -8.9471474 21.240576
-29.850414 -4.8796902 17.697689
-46.745602 -11.277639 11.086322
-37.606716 -6.8184719 21.192568
-36.991764 -6.6110854 22.628218
-30.84164 -4.9715495 20.502674
-40.387463 -7.7562561 11.518902
-32.1133 -21.243702 18.130138
-36.939674 -10.7692 22.134521
-39.000542 -7.2885299 12.926399
-40.974403 -7.9541969 23.208685
-45.490005 -9.4770489 13.252157
-45.183582 -10.7692 23.083702
-38.224037 -7.0266581 16.036686
-40.877182 -10.7692 11.657373
-45.023438 -9.3197002 16.349468
-36.342331 -6.3920698 11.944
-37.953701 -6.9354906 14.52924
-35.751358 -10.7692 22.626757
-38.359741 -10.7692 18.38418
-44.970882 -10.7692 14.246319
-32.104103 -14.721268 17.489021
-31.113186 -5.5132627 15.097064
-32.103958 -14.509691 13.001225
-45.937935 -10.7692 14.326973
-39.14035 -10.7692 14.064793
-32.36602 -10.7692 22.659912
-41.044632 -10.7692 23.510386
-39.198723 -7.3553648 20.510277
-37.086067 -10.7692 16.417971
-45.56723 -9.5030918 15.710091
-42.439949 -10.7692 9.846262
-32.1133 -21.751751 16.871094
-44.480247 -9.1365147 15.475815
-32.103939 -16.852646 10.86899
-32.1133 -18.739727 15.854508
-45.532928 -9.4915237 19.98735
-43.028915 -8.6470642 19.87413
-39.083946 -10.7692 15.870498
-40.933006 -10.7692 12.465819
-41.136398 -8.0088291 12.290226
-27.483128 -5.8057528 23.132689
-44.182632 -9.0361462 22.140648
-30.549149 -4.7505393 17.910673
-32.1133 -19.704243 15.845652
-42.13533 -10.7692 17.496801
-41.41264 -10.7692 18.078592
-46.1898 -10.807127 22.777264
-32.258511 -10.7692 16.84013
-32.104229 -12.714867 21.296223
-27.060555 -7.2240243 10.550058
-32.104111 -14.156874 17.631809
-37.803993 -10.7692 17.056017
-44.814522 -9.2492456 21.408642
-32.10387 -12.055058 10.159042
-46.1898 -10.945858 9.4407244
-45.488976 -9.4767017 11.063005
-47.124298 -10.039684 20.87373
-27.703968 -6.7800846 11.865405
-40.865601 -7.9175062 12.318993
-32.35862 -10.7692 20.107191
-32.10408 -12.844412 16.703753
-32.3218 -18.022732 18.628502
-34.040367 -6.146349 12.671916
-43.8703 -10.7692 15.711417
-35.669609 -6.1651993 18.932032
-41.253616 -8.0483599 17.57052
-39.330273 -7.3997278 10.819393
-46.784729 -10.326601 14.400814
-46.203869 -11.8008 22.739067
-36.36478 -10.7692 14.679953
-35.912045 -10.7692 22.314899
-37.880726 -10.7692 9.549572
-42.843277 -10.7692 11.297667
-46.189804 -11.035667 19.302717
-30.726439 -4.4981556 18.8262
-43.280502 -8.7319107 14.765588
-38.900566 -10.7692 9.3563633
-33.294121 -6.0649099 23.949739
-47.124294 -10.317583 10.524717
-38.470123 -10.7692 20.395271
-32.3218 -17.741329 10.579693
-32.10413 -14.742702 18.334072
-32.103989 -16.38686 13.243551
-35.410976 -6.0779777 22.573175
-32.104088 -14.071256 17.044327
-44.864182 -9.2659941 12.005219
-37.947983 -10.7692 13.128835
-32.291969 -21.762897 19.689699
-46.729149 -9.8949385 14.597512
-44.58168 -10.7692 13.021248
-32.104141 -14.803484 18.684462
-42.217186 -8.3733158 21.430986
-45.810863 -10.7692 22.201405
-46.295338 -11.8008 22.363989
-27.650473 -6.297863 13.543733
-43.740482 -8.8870354 23.567335
-46.745602 -11.540039 18.101404
-33.072544 -10.7692 18.445202
-39.076401 -10.7692 18.814487
-46.499596 -11.8008 12.312553
-37.927383 -10.7692 18.479778
-33.17532 -5.4626055 15.193798
-36.732635 -6.523695 20.269409
-32.104237 -11.013182 21.35021
-42.895309 -8.6020079 15.730917
-31.76368 -6.185132 12.567641
-32.104073 -13.030554 16.516487
-30.98509 -5.9929047 13.487845
-42.337589 -10.7692 11.93218
-37.184647 -6.6761341 18.028131
-32.279518 -17.606674 12.372795
-39.18663 -7.3512864 18.601681
-32.1133 -22.4151 19.191595
-32.644138 -10.769201 18.649807
-46.491291 -9.814724 18.394844
-40.804024 -7.896739 11.070084
-40.03286 -10.7692 22.783066
-34.304066 -6.3153663 12.048594
-32.222214 -10.7692 16.087744
-45.765095 -10.7692 9.7155075
-32.1133 -20.941435 16.190582
-32.104282 -12.59813 22.899202
-40.606243 -7.830039 9.1319904
-27.604965 -5.1711645 19.520355
-37.424496 -6.75702 24.072664
-27.741982 -6.1519322 14.015911
-45.880474 -10.769201 20.87097
-46.189804 -11.234246 22.075645
-42.162277 -10.7692 20.294575
-32.1133 -20.891148 18.264246
-38.780266 -7.2142429 14.149897
-35.207493 -6.0093546 14.879539
-36.896416 -10.7692 16.989874
-34.646832 -10.7692 19.795744
-40.964188 -10.7692 13.301027
-44.7188 -10.7692 12.681066
-39.987774 -7.6214657 23.789022
-45.548374 -10.7692 11.675905
-45.623646 -10.7692 20.215647
-34.431156 -6.7596436 10.409325
-42.854908 -10.7692 11.394816
-32.1133 -19.882586 17.900242
-46.745602 -10.389855 20.14926
-35.373302 -6.0652723 23.794138
-32.825405 -6.1350327 12.711937
-41.773693 -10.7692 13.357504
-44.777367 -10.7692 14.746612
-32.286369 -23.230869 20.464539
-42.274574 -10.769201 21.110929
-45.939167 -10.7692 9.3258314
-32.103996 -16.317011 13.639693
-39.632603 -7.5016861 14.222834
-46.745602 -11.67009 21.543533
-43.566116 -8.8282309 9.6067905
-32.104019 -14.798103 14.926332
-32.320244 -17.640984 14.794172
-32.1133 -22.885864 18.207539
-46.1898 -11.461871 14.699014
-32.10408 -13.19206 16.703583
-45.499992 -10.7692 11.445152
-37.582497 -10.769201 16.227385
-29.1168 -5.1812515 21.163807
-45.723824 -9.5559025 11.248548
-41.230164 -8.040451 20.952017
-39.027252 -10.7692 19.007545
-32.254616 -18.415756 15.389146
-27.845104 -6.3181658 13.409264
-39.158981 -7.3419623 23.750759
-44.419483 -10.7692 23.517452
-32.104019 -13.50132 14.935111
-32.103859 -11.237452 9.6734924
-46.745602 -10.837696 16.253765
-45.527298 -9.489624 16.790997
-39.588379 -10.769199 11.639878
-36.932915 -6.591239 13.82122
-31.91309 -5.7327604 14.19508
-46.745598 -11.372422 14.209076
-33.211864 -5.3363447 18.078491
-33.732346 -10.7692 23.004513
-32.137028 -17.460213 14.352942
-41.050888 -7.9799914 15.458636
-38.646309 -10.7692 14.506659
-30.596521 -5.4754152 15.398765
-34.618141 -10.769201 12.210308
-40.058022 -7.6451559 23.115484
-41.665997 -8.1874313 12.452362
-36.229401 -10.769201 13.169723
-33.263058 -5.3536096 16.943007
-37.544601 -6.8136487 10.214486
-42.203461 -8.3686886 12.065081
-28.122692 -4.929462 18.237062
-34.833565 -10.769199 10.169048
-46.695244 -9.8835049 16.317133
-36.629013 -6.488749 18.379238
-44.139496 -9.0215998 10.599922
-36.04438 -10.7692 9.7253685
-43.728462 -8.8829832 14.768379
-34.422054 -5.9589114 13.364136
-38.107132 -6.9872332 10.041104
-40.924088 -7.9372301 14.627828
-44.800209 -10.7692 15.274624
-32.1133 -20.160572 15.335513
-46.745602 -11.2609 23.201485
-32.104256 -12.282407 22.138535
-46.136951 -10.7692 12.713479
-46.913376 -9.9570684 20.777401
-32.104 -12.269032 14.16828
-36.085869 -10.7692 21.21612
-37.390457 -6.7455401 13.783049
-43.565739 -8.828105 16.053432
-34.725029 -10.7692 13.157651
-46.05648 -9.668088 19.96299
-32.1133 -22.233194 15.80961
-32.1133 -18.84449 15.142243
-40.880375 -7.9224882 17.790703
-42.720238 -10.7692 20.608301
-27.980087 -5.6401796 15.73173
-32.103912 -14.061459 11.579533
-28.027012 -6.3217468 13.336592
-32.103897 -14.152866 11.100521
-44.138802 -9.0213642 24.003162
-42.674644 -8.5275898 19.342287
-40.261059 -7.7136288 16.98366
-32.3218 -18.703192 19.817265
-38.812866 -7.2252359 18.232628
-32.10413 -14.46479 18.30444
-39.786835 -7.5536985 12.167129
-47.124298 -10.323727 22.612083
-38.133186 -6.9960213 11.862659
-32.204445 -19.239115 20.545959
-42.67646 -10.7692 23.170818
-36.059502 -6.2966876 22.848747
-44.242134 -9.0562143 18.567703
-36.109207 -6.3134494 23.433926
-33.065819 -5.2870913 16.382294
-46.745602 -11.017839 16.802393
-40.413742 -7.7651205 18.560091
-31.82221 -5.6205955 22.548939
-39.026031 -10.7692 15.92983
-45.404202 -10.769199 15.306553
-43.239876 -10.769199 15.672255
-44.975792 -9.3036327 21.948517
-32.104206 -16.370701 20.824129
-43.761902 -8.8942595 19.580355
-33.287239 -10.7692 19.515476
-46.745602 -11.155548 16.781706
-45.066486 -10.7692 13.56462
-43.921616 -8.9481211 9.519659
-32.104107 -12.595361 17.527473
-42.663208 -10.7692 23.100586
-44.95768 -9.2975254 11.00818
-34.374008 -6.1953144 12.491703
-36.105907 -10.7692 10.090468
-32.104248 -18.739098 22.166355
-46.359436 -9.770256 12.053744
-42.602768 -8.5033522 21.366184
-42.803417 -10.7692 22.894686
-32.1133 -19.308102 12.458986
-46.261013 -11.8008 13.696157
-43.22068 -8.7117367 13.060653
-46.532463 -9.8286095 11.013043
-43.414417 -8.7770729 12.054412
-28.161959 -5.2549944 21.184483
-32.10387 -14.254663 10.271037
-45.980587 -9.6424932 11.407637
-32.1133 -21.400692 15.39083
-32.113304 -19.362698 16.76667
-38.977737 -7.2808399 21.69614
-34.571941 -5.7950191 22.7855
-32.1133 -21.208698 16.904917
-43.249195 -10.769201 23.376354
-40.847847 -10.7692 9.4011307
-42.594585 -8.5005913 14.348064
-34.862858 -6.9327097 9.7713013
-29.01615 -5.9455786 23.573523
-32.220737 -5.3999271 15.423725
-38.797565 -7.220078 12.345151
-39.471046 -7.4472027 23.096104
-40.814922 -10.769199 15.000026
-32.104202 -17.030621 20.743923
-34.815887 -5.8772879 13.942607
-32.866581 -10.7692 19.954103
-41.164581 -8.0183353 13.944351
-32.104019 -11.457911 14.726099
-29.165417 -5.0946379 17.204933
-32.104008 -16.1973 14.173141
-30.000011 -6.4209132 12.340689
-45.231796 -9.3899689 11.182197
-45.452202 -9.4642982 21.455746
-35.790173 -10.7692 22.741777
-41.543808 -10.7692 19.260761
-40.569908 -7.8177857 20.310749
-32.995331 -10.7692 19.615206
-46.32703 -11.8008 21.184587
-36.037464 -6.2892551 17.427603
-30.05448 -4.7937202 17.926048
-42.590786 -10.7692 15.373354
-37.08506 -6.6425486 23.469948
-32.104233 -21.300467 21.202021
-33.442535 -10.7692 10.493804
-27.475666 -5.5444655 16.28808
-46.189804 -11.269564 22.275515
-32.10416 -12.33082 19.157145
-42.986832 -10.7692 12.885337
-30.832434 -5.7563362 14.353132
-32.1133 -23.980576 19.010971
-37.367977 -10.7692 12.061769
-32.104012 -15.630389 14.66292
-47.028202 -9.9957924 10.67477
-28.710594 -7.1808348 10.151489
-32.1133 -21.1047 14.736402
-32.104065 -13.892541 16.264233
-37.219982 -10.7692 21.22191
-41.200352 -8.0303965 20.941643
-32.104141 -13.393263 18.599171
-33.061573 -5.2856588 16.395954
-45.154892 -9.3640337 20.284082
-28.99988 -7.1365323 10.208097
-42.976761 -10.7692 17.8645
-47.124298 -10.289481 10.323296
-32.104233 -20.48642 21.410643
-32.578621 -10.769199 22.399931
-32.154949 -20.93124 20.595173
-43.998634 -8.9740944 13.691876
-46.276073 -11.8008 9.4748936
-39.264091 -10.7692 22.40616
-34.890007 -10.7692 15.203985
-44.549591 -9.1599016 15.383113
-46.155602 -9.7015152 17.587835
-42.887802 -10.7692 18.434528
-32.104233 -21.924965 21.059425
-43.880287 -10.7692 12.117133
-32.141983 -20.143713 19.548923
-46.745598 -10.445276 22.590986
-32.1133 -19.173222 12.855844
-46.774246 -10.3266 20.809622
-37.988754 -6.9473138 12.504114
-30.546055 -6.6887012 11.237411
-38.564342 -7.1414251 22.030323
-37.991119 -10.7692 20.652758
-36.71106 -6.5164204 15.668907
-46.175156 -10.7692 17.059868
-45.228592 -9.3888884 15.143574
-46.9263 -10.3266 9.1550217
-32.1133 -19.69075 12.468194
-46.189796 -11.141052 15.201001
-46.745602 -11.737403 9.6501894
-27.933706 -6.1891451 13.824171
-42.785599 -10.769201 19.064083
-42.118042 -8.3398819 21.151463
-29.774124 -4.9768653 17.388357
-36.212345 -6.3482323 20.062174
-33.065437 -5.6831017 14.379975
-31.191547 -5.1879568 21.18495
-45.579231 -10.7692 10.503202
-44.096508 -9.007102 20.510426
-42.997063 -10.769201 18.933418
-32.104156 -13.755352 19.029068
-43.866165 -10.7692 9.1204624
-35.509285 -6.1111317 16.688927
-36.069084 -10.769201 20.71051
-40.540157 -7.8077521 21.166367
-32.103909 -15.157223 11.114973
-28.733912 -6.990716 10.798452
-27.948156 -5.3307204 21.437405
-46.64917 -9.8679686 19.884064
-41.633957 -10.7692 19.347614
-46.302696 -9.7511215 16.360115
-32.223572 -17.556366 10.313599
-45.342289 -9.4272327 22.813738
-40.878433 -7.921833 22.501797
-32.104092 -13.055708 16.991247
-43.136158 -10.769199 22.581785
-32.171844 -19.897772 19.576946
-46.947155 -10.326599 12.003034
-46.745602 -10.423313 19.115789
-39.259125 -7.3757348 21.561827
-32.104252 -12.093347 21.967836
-45.388371 -9.4427719 16.675442
-40.041218 -7.6394882 13.18387
-39.501282 -10.769201 14.114222
-32.104263 -14.009838 22.399307
-32.104168 -16.19273 19.539282
-35.719948 -10.769201 15.286149
-37.259197 -7.12393 9.0690975
-34.066715 -5.6246367 20.329163
-28.981701 -6.6031151 12.051011
-42.529579 -10.7692 18.871681
-39.931305 -10.769201 13.809668
-41.492802 -8.1290236 10.480474
-46.1898 -10.857004 17.87365
-38.812202 -10.7692 11.971765
-37.164394 -6.6693029 13.133007
-33.143997 -10.7692 20.232601
-32.3218 -17.84169 11.511702
-46.588295 -9.8474369 20.624344
-32.103947 -15.020834 12.637557
-46.134789 -9.6944952 10.615035
-32.1133 -20.803082 13.200448
-32.25428 -23.207066 19.654322
-33.63073 -10.7692 19.483295
-36.157288 -6.3296642 18.077862
-38.323051 -7.060051 24.231445
-45.583897 -10.769199 21.247023
-45.206135 -10.7692 18.397165
-38.199215 -7.0182881 11.224275
-32.104172 -15.196069 19.697556
-38.221172 -7.0256929 12.429245
-43.737663 -8.8860855 18.898684
-32.104183 -14.37154 19.954811
-28.223101 -5.0757003 17.667309
-31.826696 -5.6668701 22.69483
-46.389511 -9.7803993 16.129379
-45.068687 -9.3349619 12.353809
-36.125362 -6.3188987 22.893946
-35.503666 -10.769199 14.837019
-32.695652 -5.1902285 21.192108
-34.876575 -5.8977556 21.782206
-45.135674 -9.3575525 21.049568
-46.271389 -9.7405634 14.631979
-29.625366 -5.9031711 23.439819
-32.3218 -17.979259 16.188917
-45.702362 -10.769201 17.973083
-32.103859 -10.833663 9.6353302
-32.56847 -5.1193657 18.025333
-42.143372 -10.7692 17.787327
-27.474596 -5.736661 15.5949
-34.490925 -10.769201 14.261673
-42.499287 -8.4684525 9.2596245
-32.104187 -15.856816 20.172956
-42.682697 -8.5303059 17.82132
-33.308395 -5.3688989 20.104874
-26.744968 -7.4275088 9.9540081
-32.3218 -18.755577 20.403852
-28.560343 -5.3838682 21.802603
-33.557312 -5.8604722 13.726154
-32.103981 -16.877361 12.571619
-34.555145 -5.9598393 23.618477
-33.492958 -6.5753665 11.087996
-37.013393 -6.6183796 20.608585
-32.802238 -10.7692 20.755686
-46.239548 -11.8008 18.769505
-37.458294 -6.854156 10.064886
-43.032291 -10.7692 19.219357
-33.98185 -5.5960159 15.045552
-46.745602 -10.894026 18.761425
-43.423386 -10.7692 10.905117
-36.436302 -10.769201 20.564707
-46.609993 -9.8547544 17.020241
-33.798355 -10.7692 12.747576
-37.728539 -6.8595576 22.116322
-44.869686 -9.2678499 17.497391
-41.827179 -10.7692 12.041423
-38.659821 -10.7692 14.642592
-32.709293 -5.7039866 22.81185
-47.124298 -10.031968 14.362624
-37.588085 -10.7692 17.218079
-33.201061 -5.3327022 17.445509
-32.1133 -18.703648 12.343238
-40.011337 -10.7692 11.001224
-36.544098 -10.769199 10.066081
-35.247051 -6.0226951 15.374509
-43.877151 -10.7692 12.244573
-32.103973 -16.824959 12.271832
-32.1133 -21.223587 18.272217
-39.391781 -10.7692 21.887936
-32.104187 -16.454359 20.176722
-38.957775 -7.274106 17.544025
-40.950359 -10.7692 16.761709
-27.798901 -6.7467175 11.94882
-35.206367 -10.7692 22.566626
-32.103989 -11.000027 13.709249
-32.3218 -17.936573 10.65046
-37.516861 -6.7881708 22.474686
-37.6563 -6.8351946 21.20166
-42.660217 -10.7692 22.47286
-38.653053 -7.1713419 13.924224
-46.357624 -9.7696457 16.314859
-46.008827 -10.7692 14.421116
-42.898548 -10.7692 19.962616
-42.289474 -10.7692 12.267184
-39.333298 -10.769201 13.874754
-32.103905 -13.028713 11.104698
-32.05328 -6.9318781 9.9000797
-32.104237 -21.19968 21.361956
-32.103966 -12.56653 13.053415
-27.523928 -5.4336495 21.548147
-39.25552 -7.3745193 18.830763
-32.104012 -13.940029 14.547059
-32.10405 -16.910341 15.229701
-46.745602 -10.439676 11.528756
-38.912239 -10.7692 19.703041
-33.60788 -10.7692 12.52256
-43.788795 -10.769199 23.095512
-40.282764 -7.7209473 17.753372
-36.993423 -10.769199 12.509509
-32.104053 -16.520565 15.798455
-46.189796 -10.891737 14.301442
-32.776131 -6.6366863 10.860691
-32.104153 -16.517233 19.10643
-33.605709 -5.522542 14.973238
-32.103912 -16.907801 9.8697872
-46.418716 -11.8008 17.538137
-36.505531 -10.7692 17.16276
-32.104141 -16.966177 18.705469
-41.885036 -8.261302 23.949066
-39.826717 -7.5671511 24.150066
-32.242371 -17.57542 10.149016
-46.475426 -9.8093729 10.753803
-32.104359 -18.598251 20.645445
-46.745602 -11.214712 14.960155
-46.1898 -10.868865 16.050564
-40.469193 -10.7692 18.587004
-46.745598 -10.498758 11.057422
-33.839272 -10.7692 22.6392
-42.7798 -8.5630531 10.868053
-36.158875 -10.7692 15.084133
-32.3218 -18.35145 12.31702
-46.738564 -9.8981142 17.762796
-45.439613 -9.4600525 23.077606
-45.637238 -10.769201 21.120785
-32.143543 -17.467691 13.964875
-46.745602 -10.647263 19.417562
-28.077801 -6.4368119 12.923508
-38.242947 -7.0330353 20.486679
-32.104248 -16.957951 22.099049
-46.745602 -11.244284 21.265545
-41.848656 -10.7692 13.057663
-32.103882 -15.610512 9.7727051
-32.6903 -5.2403617 21.350164
-32.635536 -5.141983 16.675478
-40.659546 -10.769199 16.299875
-40.272446 -10.769199 12.219058
-39.306438 -7.3916903 17.730202
-32.1133 -24.368431 18.392191
-46.1898 -11.285139 15.778328
-37.933685 -10.7692 15.8232
-32.1133 -22.523724 19.502676
-46.456856 -9.8031101 11.254606
-27.792032 -5.5393 22.292639
-42.834267 -8.5814209 12.090144
-38.780186 -10.7692 10.535666
-32.1133 -21.710606 17.10273
-40.919075 -10.7692 15.336215
-32.104053 -11.984272 15.694921
-39.263092 -7.3770714 16.692596
-38.476429 -7.1117759 11.062541
-30.713049 -6.0344415 13.435042
-34.559731 -6.6441202 10.835809
-42.88982 -10.7692 18.163832
-38.955963 -10.7692 21.28476
-31.862278 -6.1146827 24.106659
-45.554317 -9.4987364 14.545385
-42.040367 -10.7692 18.694458
-32.104225 -15.733356 21.337772
-32.104095 -14.25768 17.252989
-33.519089 -5.4399543 20.284426
-41.090157 -10.7692 16.111643
-44.226017 -9.0507774 19.552059
-41.631935 -10.769201 11.342636
-46.745598 -10.858275 10.564551
-40.433426 -10.769199 13.88067
-46.9454 -10.3266 18.980892
-33.16185 -6.0931468 12.866986
-44.790588 -9.2411766 23.477982
-30.896011 -6.7699633 10.841503
-45.768444 -9.5709476 17.019703
-32.177311 -4.9874501 20.483377
-32.104015 -16.748713 13.949514
-26.760742 -7.242846 10.584684
-32.10392 -11.291574 11.650083
-46.1898 -11.025785 9.9987907
-32.103966 -17.344772 11.67199
-35.005978 -6.2813606 12.175084
-32.3218 -21.253555 19.881824
-37.615433 -6.8214121 18.396988
-32.117405 -20.276323 19.525852
-32.10413 -13.802411 18.256714
-40.781261 -10.769201 16.801105
-32.1133 -24.350723 18.201832
-40.936378 -7.9413743 9.5792656
-28.330473 -4.9866457 19.260796
-46.651722 -9.8688269 11.491079
-44.883099 -10.769199 16.023867
-46.221771 -11.8008 14.337476
-32.104206 -14.454101 20.705366
-31.90543 -4.9142108 20.321903
-32.1133 -18.724463 14.085281
-40.351112 -10.7692 22.991133
-41.188354 -8.026351 14.800444
-39.213192 -7.3602438 14.095722
-31.101723 -5.8820024 13.831066
-46.697449 -11.8008 20.779253
-42.732018 -8.5469389 17.402115
-28.685019 -5.1178446 20.963316
-35.58139 -6.1354475 18.719296
-46.866295 -10.3266 10.720429
-38.596512 -7.1522741 19.815722
-32.104 -11.382674 14.17456
-43.548203 -8.8221922 17.140528
-43.270527 -10.769201 22.935455
-37.488983 -10.7692 18.736359
-32.104229 -15.363585 21.535578
-44.807304 -10.7692 9.0680885
-32.104275 -12.461669 22.651712
-32.1133 -19.316004 15.755287
-44.269341 -10.7692 9.3472662
-39.830997 -7.568594 23.657433
-29.540829 -7.0239906 10.416224
-43.653 -8.8575325 20.753918
-32.104176 -16.723816 19.81436
-46.745602 -10.745888 23.678396
-42.354095 -10.7692 21.903698
-34.778595 -6.5355439 11.236784
-41.435059 -10.7692 22.170944
-40.138992 -7.6724634 22.090605
-44.703468 -10.7692 9.2499294
-43.1642 -8.692688 17.549671
-32.3218 -18.335058 13.431343
-41.69482 -10.7692 17.877094
-44.194351 -10.7692 20.103212
-34.840561 -5.8856096 17.029093
-32.1133 -21.131863 14.945645
-45.316399 -10.7692 17.727375
-44.006222 -8.9766541 17.681194
-46.745602 -11.219687 17.860159
-42.57132 -10.7692 9.9884796
-32.104126 -12.501318 18.087742
-43.110592 -10.769201 21.482044
-30.489761 -5.9140558 23.474138
-40.283516 -10.7692 9.124465
-41.087986 -10.7692 16.700069
-32.103928 -13.033777 11.893472
-34.073196 -10.769199 18.006767
-34.629539 -6.7321291 10.511142
-40.706551 -7.8638663 11.377384
-39.947464 -7.607872 14.190134
-38.648762 -10.7692 19.619358
-36.975605 -10.7692 16.985886
-46.745598 -11.177013 21.857738
-36.324356 -6.3860068 23.870909
-42.205566 -10.769199 19.07308
-41.68853 -10.7692 22.161003
-32.103951 -12.385811 12.683263
-40.12318 -7.6671305 10.902695
-39.048351 -10.7692 9.7387896
-46.745602 -11.366043 18.465322
-37.028969 -6.6236315 22.136377
-26.972462 -7.0432301 11.201862
-33.241154 -5.3462238 18.504774
-34.928997 -10.7692 17.417196
-29.456142 -6.831871 11.1059
-42.099686 -8.3336916 16.255518
-44.015259 -10.769201 21.727299
-43.517151 -8.8117189 19.374592
-33.320053 -10.7692 18.44306
-32.104149 -14.034239 18.844933
-37.932755 -10.7692 17.532351
-43.565514 -8.8280277 18.202656
-32.1133 -19.287846 16.047552
-42.217957 -10.7692 14.849179
-46.1898 -11.351913 17.405144
-32.104092 -16.240179 17.237106
-34.45512 -6.3908119 11.770403
-36.059273 -6.2966104 17.065414
-33.869644 -10.7692 19.762342
-32.104214 -18.55551 21.046337
-32.103992 -13.584391 13.973846
-36.485161 -10.7692 15.749978
-37.213985 -6.686028 11.983439
-34.645847 -10.7692 19.83452
-43.511421 -8.8097868 21.813915
-32.104115 -11.25865 17.658928
-42.738377 -8.5490837 23.515093
-32.104279 -12.212189 22.726881
-38.173523 -7.0096235 16.123276
-34.738007 -6.199317 12.477452
-33.276512 -10.7692 22.575933
-46.035187 -9.6609049 15.861457
-46.189796 -11.691821 19.96233
-46.310444 -9.7537346 13.973455
-32.113304 -19.258583 16.194063
-41.158794 -8.0163822 22.814503
-32.104092 -15.012087 17.234144
-35.889526 -6.8337922 10.137791
-35.21756 -6.0127482 14.404959
-32.596375 -5.9887085 13.25157
-33.737164 -5.5134974 15.072615
-36.971966 -6.6044087 11.618385
-32.104038 -16.954231 14.880581
-40.036465 -7.637886 11.882504
-41.071445 -10.769201 17.983292
-31.663637 -6.074265 23.979233
-36.722183 -6.5201712 14.829041
-46.543262 -9.8322506 19.962812
-32.1133 -20.31987 19.039972
-39.950012 -7.6087298 23.621193
-38.549492 -7.136416 18.189194
-32.104099 -11.091286 17.0257
-45.809628 -9.584837 23.980349
-46.745602 -11.716198 23.424997
-32.104153 -17.143177 18.982203
-46.54393 -9.8324757 9.5400391
-32.104126 -11.594624 17.959118
-32.1133 -18.717318 15.921624
-47.124298 -10.180761 17.026609
-32.104221 -19.338581 21.154816
-38.809349 -7.2240505 9.652586
-38.02211 -6.9585609 22.457891
-36.657234 -6.4982672 21.481516
-38.11385 -10.7692 9.2904806
-28.914543 -5.9061441 14.473391
-34.978607 -5.9321637 20.060081
-38.674229 -7.178483 23.463963
-44.688782 -10.769199 15.579702
-46.745602 -11.063411 19.157619
-36.898178 -6.579524 20.881479
-41.710686 -10.7692 20.774681
-32.1133 -19.942293 11.829223
-28.774216 -5.1202636 17.276031
-46.024433 -10.7692 16.908773
-44.970215 -10.7692 9.6643858
-32.104019 -12.03825 14.742959
-30.372211 -4.8243766 20.038681
-35.459381 -6.7751808 10.35346
-38.17416 -7.0098381 14.939388
-32.3218 -18.246674 17.867289
-32.1133 -18.551029 14.856131
-31.074856 -5.862556 23.311773
-32.104183 -16.06073 20.07024
-35.270683 -6.143446 12.684388
-44.018875 -10.7692 19.395336
-43.909172 -8.9439259 20.911127
-31.630285 -6.0473566 23.894398
-46.1898 -11.556755 20.713331
-32.104103 -14.090465 17.48554
-39.281765 -7.383369 15.076893
-39.888512 -7.5879898 24.215399
-32.1133 -22.399212 19.210003
-39.800079 -10.7692 11.275227
-32.3218 -22.353836 20.148598
-46.745602 -10.642885 14.653902
-32.104103 -14.779568 17.48683
-32.104267 -16.389341 22.769236
-38.273277 -10.7692 10.904147
-45.357834 -9.4324741 11.662776
-34.087585 -6.0465803 23.891951
-46.804455 -9.9203358 17.416128
-27.995136 -6.9913955 11.041154
-34.078255 -10.769199 12.876801
-37.846844 -6.8994513 10.649508
-32.589436 -5.9071956 13.552354
-41.667763 -10.7692 12.624856
-35.053783 -5.9575176 16.269573
-32.679798 -10.7692 10.019469
-38.510422 -7.1232395 14.46282
-40.41082 -10.7692 20.233757
-32.104164 -13.462833 19.270121
-46.470779 -9.807806 11.995355
-33.176651 -10.769199 13.739151
-43.225342 -10.769199 11.58992
-34.8009 -10.7692 12.742099
-38.626839 -7.1625004 23.744463
-46.745602 -11.438166 21.47595
-32.104233 -11.430552 21.368414
-37.991478 -6.9482307 15.212835
-39.891998 -10.769201 12.542688
-39.316792 -10.7692 11.22718
-27.671131 -7.3983455 9.7472439
-32.104141 -12.661997 18.57905
-44.488876 -9.1394253 9.9315348
-34.969265 -5.9364309 13.447873
-46.745602 -11.218404 11.668584
-27.692314 -6.239666 13.730261
-45.278671 -10.7692 22.424294
-39.04847 -10.7692 11.700568
-41.520397 -8.1383286 19.361538
-34.807186 -10.769199 9.5710764
-40.384995 -10.769201 14.803434
-42.452316 -8.4526119 20.530838
-37.455578 -6.7675028 21.09655
-32.3218 -17.827812 13.506322
-45.668533 -9.5372553 20.207445
-37.662064 -10.7692 15.502009
-28.309437 -6.6419134 12.140387
-37.095272 -6.6459918 24.300825
-42.217766 -10.7692 17.233458
-30.982805 -5.8687053 23.33116
-28.252199 -5.9050798 23.445839
-33.461514 -10.769199 16.447407
-44.279289 -10.7692 13.839811
-32.104233 -14.086515 21.579647
-43.100739 -8.6712856 23.948538
-36.222168 -6.3515449 23.728071
-41.805122 -8.2343512 17.764839
-38.664814 -7.1753078 22.667198
-36.597137 -6.6643353 10.764122
-41.522053 -10.769199 16.674326
