# .PCD v0.7 - Point Cloud Data file format
VERSION 0.7
FIELDS x y z
SIZE 4 4 4
TYPE F F F
COUNT 1 1 1
WIDTH 1510
HEIGHT 1
VIEWPOINT 0 0 0 1 0 0 0
POINTS 1510
DATA ascii
-15.667483 -27.175617 32.639332
-9.7923574 -26.498415 39.710739
-14.293827 -35.648827 38.464397
-2.2695448 -23.867207 39.73175
-15.868231 -30.568026 32.639244
-2.5745533 -32.464535 39.734764
-5.4117327 -23.496098 39.959
-14.294987 -29.267403 35.22477
-19.370661 -34.074993 32.637779
-12.746035 -43.665539 38.81559
-19.653702 -42.302917 32.150501
-20.514149 -39.830303 32.150501
-6.0678139 -30.489088 39.885204
-6.5882082 -47.660011 39.00684
-14.295858 -28.076597 32.757454
-5.8856993 -45.737583 39.007782
-4.9735847 -22.981251 39.731705
-13.561369 -46.741859 37.767181
-1.7030158 -37.471428 39.703526
-18.529791 -48.512444 32.150501
-12.878615 -45.718838 38.771217
-1.7251935 -41.699577 39.013374
-17.165192 -48.11124 32.150501
-7.1462069 -25.583076 39.742142
-3.8022132 -28.945522 39.731724
-6.3842463 -37.239037 39.689293
-4.5023637 -45.556576 39.00964
-16.502422 -28.751438 32.638985
-12.421485 -32.748734 39.680363
-7.4487953 -23.267834 39.738537
-3.2556024 -38.648159 39.011318
-16.024204 -45.884365 32.150501
-12.246879 -30.993128 39.682262
-21.329851 -26.606651 32.636978
-13.408966 -45.116409 38.224815
-15.54952 -40.612579 32.150501
-9.5290995 -40.874531 39.002884
-7.9783115 -36.991207 39.685432
-18.20471 -25.111488 32.638275
-18.310356 -45.989647 32.150501
-2.6592751 -22.72163 39.731743
-11.535148 -35.472122 39.691025
-3.7924542 -31.176239 39.757679
-14.293921 -36.594589 38.203106
-14.472354 -42.995148 32.150501
-14.549562 -46.314594 32.150501
-13.627935 -47.32925 36.473213
-14.293605 -36.045635 39.088833
-19.25679 -43.671059 32.150501
-12.493332 -42.920971 38.900158
-6.0765371 -37.923859 39.686314
0.017879486 -40.506508 39.015717
-13.626318 -41.595413 32.666779
-14.293526 -30.871607 39.302498
-5.3399444 -40.785458 39.008514
-14.293823 -26.870222 38.46698
-14.473845 -35.876602 32.639824
-0.23820472 -45.483959 39.015373
-13.838102 -38.41851 33.385235
-0.44906902 -45.321903 39.015091
-6.6000423 -39.378963 39.006821
-11.73383 -34.72514 39.688618
-14.29363 -27.758745 39.009579
-10.451015 -24.683882 39.702831
-2.1245894 -38.960442 39.012836
-15.839434 -42.194176 32.150501
-16.640095 -31.457129 32.638927
-13.626212 -42.777863 32.414722
-5.3065729 -24.989246 39.846485
0.55007744 -41.199799 39.016434
-7.2214708 -27.260181 39.741245
-0.80530548 -43.635796 39.01461
-6.0288954 -34.241249 39.710159
0.76565605 -48.003929 39.016724
-17.87376 -27.003925 32.638412
-14.293434 -32.072453 39.563164
-1.3875568 -28.499779 39.731762
-8.1052217 -26.670353 39.730721
-14.293845 -23.704355 38.405056
-10.650288 -48.450413 39.001377
-15.707171 -45.861866 32.150501
-14.579691 -39.84938 32.150501
-7.5950484 -41.264744 39.005486
-13.520657 -27.283846 39.666954
-4.0815229 -31.998026 39.74123
-13.62684 -45.560875 33.890999
-13.478344 -48.457752 38.016487
-5.2208138 -35.709461 39.70211
-20.556105 -45.975006 32.150501
-8.5214424 -37.577927 39.680191
-12.633402 -32.645035 39.677856
-2.132787 -30.302143 39.949135
-19.079517 -27.814352 32.637913
-11.038809 -41.009781 39.000854
-13.291691 -40.840923 38.576965
-20.434372 -41.579964 32.150501
-1.1276858 -30.732937 39.959
-11.69519 -30.538759 39.688709
-14.295753 -35.847961 33.06057
-18.187111 -39.936993 32.150501
-19.621778 -36.422371 32.637661
-21.016565 -30.026791 32.6371
-17.381031 -47.410252 32.150501
-13.626741 -46.715405 33.663715
-17.104589 -39.182354 32.150501
-15.208738 -27.015484 32.639523
-3.6199167 -25.241035 39.731728
-5.5436316 -35.968506 39.699524
-20.018301 -36.76897 32.637497
-2.0100298 -24.164129 39.731754
-17.919533 -48.580021 32.150501
-7.1812053 -40.266655 39.006039
-20.695654 -36.232254 32.637215
-7.1419773 -27.811697 39.742191
-6.2059016 -40.112106 39.007351
0.33484459 -41.802719 39.016144
-19.115629 -25.497927 32.637897
-12.67582 -31.137047 39.677227
-19.876047 -40.789284 32.150501
-18.110098 -35.23571 32.638306
-10.68255 -38.084969 39.521923
-13.627547 -42.446312 35.560234
-7.4882607 -28.723743 39.738068
-7.8905215 -34.633141 39.704727
-14.953232 -43.685921 32.150501
-14.295841 -29.164095 32.80975
-14.295709 -24.983355 33.188118
-14.29582 -27.499462 32.869659
-3.0311348 -43.626022 39.01162
-11.211085 -42.256363 39.000626
-11.693757 -33.823223 39.689011
-8.5681877 -24.419338 39.725204
-19.513636 -26.134033 32.63773
-15.683802 -46.461689 32.150501
-16.04184 -38.16637 32.418903
-9.8831291 -44.342579 39.002411
-13.961743 -28.299458 39.661854
-8.8573532 -36.332108 39.686356
-18.740061 -34.782585 32.638042
-5.6455202 -25.360205 39.959
-17.768248 -38.555218 32.150501
-16.007736 -45.678093 32.150501
-10.541852 -22.839088 39.701691
-8.9039326 -38.073524 39.544792
-0.47189021 -34.764881 39.72345
-14.175374 -38.029533 37.464169
-4.903924 -32.504799 39.734211
-10.715906 -29.246469 39.700119
-4.4303641 -32.854271 39.72937
-17.209629 -39.355476 32.150501
-14.294861 -27.816429 35.583889
-11.606475 -42.295666 39.000092
-15.62033 -33.783924 32.639351
-8.0451794 -42.671833 39.004879
-4.5772877 -25.536217 39.731712
-11.116357 -40.910263 39.000751
-7.3083925 -40.250492 39.005871
-14.293561 -35.96257 39.209385
-20.113892 -41.873116 32.150501
-6.5042534 -27.187187 39.74979
-9.2183552 -32.862026 39.718048
-13.382073 -39.441563 38.305569
-14.294916 -26.415462 35.432022
-14.294462 -28.932901 36.696423
-4.5513182 -40.545971 39.009579
-5.5302095 -27.755245 39.959
-13.973043 -38.23951 33.706749
-12.687229 -26.969881 39.676727
-15.398556 -36.59288 32.639442
-12.742808 -38.513218 38.816666
-14.295372 -32.494324 34.135101
-17.438402 -41.994007 32.150501
-20.110075 -45.15591 32.150501
-1.8436017 -36.009743 39.711601
-7.421411 -43.667755 39.005722
-9.2645016 -34.01955 39.71323
-10.657152 -25.605949 39.700489
-1.2468987 -38.029114 39.637638
-13.329082 -37.867107 39.662491
-3.8570948 -37.427612 39.696606
-14.697002 -43.475952 32.150501
-14.295124 -24.035503 34.853184
-6.3460674 -46.061829 39.007164
-10.078691 -30.105003 39.707687
-13.315306 -30.007658 39.669609
-12.303381 -36.282967 39.681877
-5.4669609 -21.797749 39.959
-17.102501 -46.464249 32.150501
-8.0074768 -38.237595 39.360527
-1.6266003 -41.901253 39.013508
-3.9988284 -23.433857 39.73172
-3.9912887 -40.02906 39.01033
-1.4315436 -38.608513 39.013767
-19.027195 -29.738266 32.637932
-4.1234612 -25.926144 39.73172
-0.48165894 -43.020088 39.015045
-5.1539612 -25.898733 39.731701
-13.627455 -43.03923 35.342945
-14.295043 -28.082439 35.070023
-4.9931517 -40.04097 39.008984
-19.021402 -42.612347 32.150501
-0.60601377 -39.921581 39.014877
-0.48530388 -40.097401 39.015038
-15.787325 -46.955688 32.150505
-8.8247871 -38.000771 39.629089
-7.6706738 -25.973724 39.735893
-18.439287 -28.971287 32.63818
-2.4457569 -22.8769 39.731747
-9.7747812 -37.799049 39.674728
-7.0054927 -47.15567 39.006279
0.53359175 -44.325478 39.016411
-17.41058 -43.169586 32.150501
-4.6249681 -40.640835 39.009476
-14.293505 -37.518047 39.365433
-13.62665 -39.068012 33.446426
-3.7103684 -35.694725 39.70723
-4.1127024 -31.935234 39.7421
-8.8955536 -26.980539 39.721329
-12.458755 -47.391483 38.911732
-14.295767 -30.661877 33.024212
-10.228409 -41.305164 39.001945
-11.71518 -23.084774 39.687824
-17.909395 -31.921986 32.638397
-15.326073 -44.077324 32.150501
-14.07163 -30.632195 39.660767
-11.351517 -41.416298 39.000435
-14.295701 -36.837486 33.201668
-9.58992 -32.517414 39.713646
-13.626339 -39.454952 32.713127
-16.888769 -30.241219 32.638824
-14.293426 -34.200089 39.585545
-12.131014 -39.63678 38.999386
-7.5993233 -47.702499 39.005478
-6.0002131 -29.650635 39.928131
-13.626586 -44.484055 33.295341
-9.5405865 -33.744789 39.714333
-15.979984 -32.750351 32.639198
-7.856185 -25.910833 39.733681
-16.086033 -37.548508 32.639145
-11.380787 -28.14238 39.6922
-14.294605 -28.921909 36.29678
-15.779634 -40.590294 32.150501
-17.614824 -39.962849 32.150501
-0.91701967 -28.83172 39.731773
-15.313486 -26.491312 32.639481
-6.2980351 -42.621567 39.007229
-13.626278 -41.322258 32.57069
-12.564178 -35.940468 39.678959
-14.293959 -29.155457 38.108688
-4.9563174 -27.200947 39.731705
-14.294564 -37.388474 36.390991
-11.449317 -46.847378 39.000305
-13.628243 -41.347145 37.19891
-14.294119 -32.13068 37.654282
-17.120893 -47.917805 32.150501
-13.626175 -40.374851 32.325699
-12.694866 -43.206299 38.83271
-18.43837 -29.840727 32.63818
-6.3019962 -45.935108 39.007225
-12.62841 -33.982422 39.678036
-14.294907 -25.246998 35.460167
-14.293478 -29.719391 39.438267
-14.293815 -31.37413 38.511463
-7.0991049 -27.688053 39.742702
-14.052156 -26.352818 39.660622
-17.396582 -41.103401 32.150501
-4.1815529 -36.735554 39.69957
-6.600091 -24.72934 39.74865
-0.068567067 -38.570709 39.015602
-14.410752 -41.194801 32.150501
-17.418304 -27.790506 32.638603
-20.144548 -30.958265 32.637463
-14.517723 -30.276703 32.639809
-4.6950045 -41.513729 39.009384
-3.6717401 -27.487759 39.731728
-19.951262 -39.187706 32.150501
-14.295292 -28.52037 34.370026
-0.97735405 -43.192764 39.014381
-4.1955948 -42.662277 39.010052
-2.7510145 -29.598469 39.731739
-13.626755 -39.325756 33.692116
-4.521069 -39.321331 39.009617
-14.295431 -37.804024 33.957306
-14.294678 -28.067589 36.096077
-13.628019 -45.30595 36.672108
-14.295353 -36.729919 34.179512
-14.295332 -31.202953 34.253704
-14.293706 -25.083864 38.79615
-7.6571684 -28.249298 39.736057
-16.766846 -35.053734 32.63887
-1.1444445 -29.381041 39.731766
-2.5738106 -40.392479 39.012234
-19.032757 -43.762207 32.150501
-6.0614815 -30.37891 39.889225
-16.922903 -39.380394 32.150501
-1.8708129 -39.905746 39.01318
-3.8933733 -36.025284 39.704685
-8.696846 -40.404823 39.004005
-14.243401 -44.340038 32.150501
-14.295325 -33.156879 34.265289
-13.627275 -41.686443 34.918854
-3.0151639 -30.020489 39.731735
-9.0738974 -23.628899 39.719177
-6.0886779 -47.928169 39.007507
-9.1170826 -24.09967 39.718662
-6.2681866 -48.494282 39.007267
-5.4374142 -35.37162 39.703362
-2.9504659 -46.820343 39.011726
-14.293452 -36.12471 39.510544
-13.649836 -42.034462 32.150501
-12.658531 -48.059048 38.844872
-5.7112679 -35.293282 39.702911
-0.052836418 -43.194481 39.015625
-14.294874 -35.377899 35.527596
-7.3086109 -27.716551 39.740208
-4.5892305 -42.810982 39.009521
-14.889844 -33.312866 32.639656
-19.351074 -33.896503 32.637783
-14.294525 -34.23629 36.506599
-20.37331 -41.53162 32.150501
-12.600903 -47.597393 38.864159
-14.293722 -35.732121 38.759678
-6.9336853 -31.016935 39.744759
-13.626423 -41.69688 32.91338
-2.3994749 -32.721294 39.731213
-19.192442 -33.542816 32.637856
-19.803576 -42.311024 32.150501
-1.781835 -29.148052 39.731754
-5.490859 -32.87326 39.729103
-15.220788 -28.254463 32.639519
-14.179823 -35.572182 39.659927
-1.1498652 -37.835007 39.703239
-5.8562994 -47.485905 39.00782
-7.5909472 -32.906139 39.728653
-14.294545 -35.297981 36.449841
-19.438633 -33.81641 32.637749
-8.7828579 -30.07111 39.722923
-2.0685778 -47.326431 39.012913
-14.293427 -32.569088 39.581085
-19.726992 -29.439613 32.637642
-13.628146 -48.211922 36.967464
-19.939079 -40.669384 32.150501
-14.293492 -29.017187 39.398647
-13.627356 -43.459824 35.107506
-19.712292 -33.738838 32.637634
-7.4833055 -32.959354 39.727913
-6.1678944 -23.333361 39.821655
-5.3404713 -38.816952 39.008514
-5.3194656 -22.708128 39.861511
-8.3378468 -34.398762 39.707977
-4.9804792 -46.318672 39.008999
-14.295385 -34.061268 34.094292
-5.4969153 -47.870018 39.008305
-14.293941 -25.885889 38.135109
-13.57666 -38.729156 37.721264
-11.265587 -29.5431 39.693676
-2.9592915 -38.166786 39.469612
-13.626877 -44.279579 33.980202
-14.295058 -24.112682 35.036499
-14.294504 -36.922283 36.561722
-1.1799483 -23.61393 39.731766
-20.86433 -37.787785 32.637135
-14.295723 -33.986752 33.145622
-1.9705305 -40.648575 39.013046
-7.505929 -47.588268 39.0056
-17.068182 -46.687519 32.150501
-17.51759 -40.201641 32.150501
-3.5945973 -35.808311 39.706947
-18.973629 -27.877975 32.637959
-14.966261 -38.407166 32.256432
-7.4462194 -28.479935 39.738567
-3.8099208 -46.236992 39.010574
-14.29512 -32.711025 34.842918
-17.672237 -35.499485 32.638489
-2.2844765 -38.852203 39.012627
-14.571152 -30.725021 32.639786
-13.56803 -39.475117 37.747181
-5.2187629 -29.789129 39.744129
-2.2949097 -26.683155 39.731747
-7.114254 -27.511126 39.742519
-7.42838 -45.458794 39.005707
-4.6582141 -46.147137 39.00943
-10.411408 -40.156799 39.001701
-3.8403275 -33.375065 39.722153
-14.293694 -29.72213 38.830276
-11.129661 -34.768833 39.695736
-8.6662483 -32.271049 39.724487
-8.1491632 -41.225586 39.004738
-10.781232 -23.736031 39.69886
-13.627849 -46.110268 36.26796
-14.294539 -25.197897 36.490574
-4.4007063 -34.647087 39.711052
-12.092098 -26.423847 39.683678
-13.508877 -37.396763 39.666451
-18.253107 -26.808352 32.638252
-9.4985104 -34.126747 39.711742
-10.926814 -37.78846 39.670948
-9.8786564 -24.261126 39.709595
-20.42708 -30.761402 32.637344
-13.627199 -41.132114 34.737545
-14.295584 -32.397728 33.543198
-4.3574786 -41.815956 39.009838
-5.3317995 -34.541359 39.708572
-14.295766 -26.724764 33.027851
-9.9295835 -45.537579 39.00235
-13.076517 -42.867943 38.704987
-5.6461325 -26.122339 39.959
-13.627001 -42.49028 34.271725
-3.4741156 -34.442924 39.715332
-0.28524685 -35.796757 39.71804
-13.627367 -46.98777 35.134529
-14.293432 -35.834641 39.56575
-0.47584891 -34.810078 39.723171
-4.9533653 -38.359806 39.236244
-5.2349634 -25.14077 39.763016
-9.056139 -31.118572 39.719803
-7.7300553 -29.353586 39.735245
-8.6752367 -36.554741 39.685661
-13.627192 -45.332741 34.722851
-19.123051 -33.6954 32.637882
-0.11488676 -42.668114 39.015541
-14.294451 -24.90444 36.740242
-5.1317515 -37.783913 39.690281
-4.3167205 -41.952942 39.009892
-14.294314 -30.971775 37.108418
-8.1105289 -31.921345 39.730995
-14.295225 -34.23996 34.546322
-9.9121265 -37.332047 39.676998
-10.641312 -25.977425 39.700706
-14.293819 -25.502956 38.480095
-4.446445 -37.07785 39.69669
-7.8608108 -32.420658 39.733978
-7.6248832 -45.280079 39.005444
-13.446528 -41.762161 38.112022
-13.627935 -44.818291 36.47308
-1.5331753 -28.397671 39.731762
-18.109449 -31.412785 32.638313
-9.5173264 -42.22633 39.002899
-13.626452 -42.185394 32.980881
-13.25438 -25.10475 39.669899
-20.247656 -34.586323 32.637405
-8.4818096 -38.765156 39.004292
-14.293571 -31.932131 39.179924
-12.606424 -33.089436 39.678215
-13.4741 -47.181084 38.029228
-14.295506 -24.192955 33.773045
-13.626606 -45.797066 33.342674
-4.6276731 -30.569216 39.959
-3.4806528 -26.347136 39.731728
-14.950279 -25.692257 32.639626
-14.294117 -30.52257 37.661495
-7.7685685 -22.844156 39.734726
-1.924287 -45.751144 39.013107
-13.188293 -42.993225 38.66758
-8.0910873 -25.779572 39.730888
-14.293846 -35.992229 38.408371
-11.28309 -44.483906 39.000526
-12.892277 -31.337292 39.674698
-9.8967199 -26.593176 39.709518
-14.294324 -31.990395 37.079472
-18.902975 -41.69466 32.150501
-13.627789 -43.815651 36.127785
-8.1122055 -25.222067 39.730637
-11.574771 -24.098 39.68956
-20.417435 -41.323959 32.150501
-7.952744 -39.881153 39.005005
-20.870094 -26.034939 32.637169
-1.9957929 -37.214619 39.704052
-13.628247 -48.582336 37.205608
-2.9875219 -38.742592 39.011677
-0.88469601 -39.317646 39.014503
-19.673477 -36.02269 32.637642
-7.9601178 -47.416874 39.004993
-14.295847 -37.39677 32.793339
-9.4912157 -42.562851 39.002937
-8.9912157 -34.096481 39.712166
-10.406973 -47.423279 39.001701
-19.14703 -34.59251 32.637871
-12.054407 -43.455914 38.999489
-0.73816019 -30.353012 39.959
-7.176897 -37.003529 39.68803
-13.628142 -40.049351 36.960678
-3.608371 -28.826782 39.731728
-4.8446159 -26.395794 39.731709
-13.6281 -40.193024 36.862537
-9.6966677 -34.618935 39.704929
-13.202223 -31.427168 39.671059
-16.996494 -41.183693 32.150501
-13.626289 -44.389427 32.599697
-17.640867 -29.503229 32.638512
-13.627577 -44.860779 35.629303
-13.950262 -30.813629 39.662209
-13.836625 -41.047173 32.150501
-1.6478536 -44.377235 39.013481
-1.9755731 -41.075726 39.013039
-13.627968 -44.297783 36.550556
-14.949993 -32.010998 32.639629
-15.290201 -38.174576 32.413895
-14.295861 -35.493237 32.751125
-14.641432 -41.81031 32.150501
-9.9268389 -25.306568 39.709053
-4.6070395 -28.770271 39.731712
-4.8065467 -29.408861 39.731709
-7.4574156 -22.237911 39.738434
-2.0641391 -25.959293 39.73175
-14.294993 -27.249897 35.211952
-14.295551 -27.35136 33.639149
-20.359386 -37.638321 32.637348
-12.274564 -40.730862 38.973373
-13.627814 -45.080139 36.185738
-10.498039 -46.713631 39.001583
-7.2707176 -39.156784 39.00592
-19.295458 -45.341679 32.150501
-13.628224 -39.120693 37.155712
-1.1998796 -24.867962 39.731766
-10.791536 -34.10474 39.69965
-11.702013 -43.447357 38.999966
-21.252705 -28.76018 32.637005
-13.627165 -40.994247 34.659252
-19.213196 -28.969065 32.637856
-8.9347153 -33.836239 39.715767
-7.2745552 -23.807571 39.740612
-3.3874853 -46.170982 39.011139
-14.295347 -34.336525 34.200653
-9.4833832 -29.041183 39.714596
-9.3989649 -42.992203 39.003059
-11.473081 -42.253647 39.000275
-13.627242 -45.669376 34.839252
-10.745762 -27.664896 39.699623
-14.293518 -34.878906 39.325077
-11.518093 -23.758133 39.690201
-7.2308202 -23.424938 39.741135
-13.627183 -46.76757 34.700981
-15.390473 -47.510216 32.150501
-7.4935689 -47.759895 39.005623
-13.835474 -34.03299 39.663837
-15.053497 -47.174416 32.150501
-11.080671 -26.463806 39.695583
-13.995625 -32.453705 39.661819
-4.4227686 -43.453468 39.009747
-8.5925388 -23.709602 39.724915
-14.360822 -33.639088 32.63987
-12.611784 -25.347164 39.677475
-8.9109259 -35.931885 39.688522
-1.7332088 -32.402645 39.735626
-14.44844 -35.940655 32.639839
-8.1441193 -31.392952 39.730549
-8.9120512 -34.810661 39.702271
-7.9135842 -44.149334 39.005058
-13.62752 -44.365295 35.495129
-2.9450102 -42.43882 39.011734
-5.4657154 -46.575695 39.00835
-14.294292 -29.804247 37.174492
-4.1342564 -39.31456 39.010136
-14.294781 -26.476528 35.810608
-3.5577688 -42.137619 39.01091
-5.8910308 -25.247326 39.959
-14.294812 -32.24472 35.707703
-3.6941261 -24.515373 39.731728
-12.63728 -33.907516 39.677925
-17.107979 -44.721638 32.150501
-16.198391 -40.518818 32.150501
-1.8259695 -34.321632 39.721531
-13.763229 -31.571285 39.664474
-4.7951541 -27.236525 39.731712
-1.2565899 -41.925262 39.014004
-11.60066 -44.268593 39.000099
-14.293976 -24.641329 38.038868
-14.295876 -32.115211 32.708523
-4.2586007 -44.82378 39.009972
-0.69102514 -27.804295 39.731777
-2.5580194 -48.654778 39.012257
-19.888186 -46.886753 32.150501
-12.936119 -42.342354 38.751972
-15.758795 -36.949669 32.639286
-14.16161 -38.032463 36.776203
-7.6798515 -35.380013 39.695847
-19.92334 -46.09341 32.150501
-7.8289051 -41.179184 39.005169
-1.2691747 -30.817007 39.959
-6.4807806 -45.237919 39.006981
-14.295534 -26.701878 33.690575
-3.303359 -28.343391 39.731728
-19.39489 -40.946404 32.150501
-14.293427 -32.206135 39.584824
-16.855438 -47.852642 32.150501
-13.399862 -35.350231 39.669079
-9.325861 -26.671165 39.71624
-18.54554 -26.833601 32.638134
-17.120058 -33.454647 32.638729
-18.772097 -44.291439 32.150501
-9.5429811 -46.383785 39.002865
-14.294076 -30.136883 37.780685
-21.257126 -30.771292 32.636993
-5.4759378 -26.711254 39.959
-7.1608534 -41.398685 39.006065
-6.2427936 -34.32494 39.709
-14.294952 -31.053619 35.315891
-14.294535 -34.221264 36.48037
-20.524479 -31.701662 32.637302
-5.1419015 -29.852509 39.731705
-11.58075 -43.201744 39.00013
-19.176191 -35.460098 32.637856
-19.433758 -32.446491 32.637756
-15.774715 -27.066021 32.639286
-14.513679 -45.436409 32.150501
-11.415633 -42.222534 39.000351
-12.985518 -42.90081 38.735443
-4.60396 -40.804955 39.009506
-14.293405 -34.583275 39.644081
-14.295458 -36.899624 33.884354
-14.293528 -30.647238 39.299423
-13.627735 -42.287537 36.000134
-11.869117 -36.412281 39.680088
-13.507082 -42.346786 37.930191
-13.627988 -42.80669 36.594917
-16.79705 -48.132637 32.150501
-14.087824 -46.827312 32.150501
-14.293416 -27.123569 39.612724
-14.29351 -28.102894 39.349133
-19.591816 -27.007706 32.637699
-10.865816 -29.830515 39.698406
-8.1097317 -36.103031 39.690186
-11.623083 -28.465092 39.689377
-14.295124 -24.235138 34.854984
-18.192392 -39.664734 32.150501
-2.4980412 -43.349255 39.012337
-19.975113 -44.680344 32.150497
0.19876373 -47.608898 39.015961
-14.294674 -36.64122 36.087036
-14.295471 -27.687977 33.869202
-14.294252 -30.880558 37.281143
-7.0359573 -29.110397 39.743454
-0.41065073 -38.093777 39.56765
-10.584174 -48.060059 39.001465
-15.2322 -39.68174 32.150501
-0.40686035 -31.474155 39.748486
-16.54147 -37.213886 32.638958
-13.139652 -28.869751 39.671574
-13.191635 -30.775558 39.671127
-14.295334 -37.186485 34.231594
-18.158823 -34.346432 32.638283
-10.956845 -23.041939 39.696747
-5.2998638 -35.833618 39.701126
-9.6113701 -22.932354 39.712776
-18.19565 -27.761677 32.638279
-3.9860461 -27.423557 39.73172
-11.341436 -36.146549 39.683765
-14.294593 -24.654404 36.341331
-3.0267394 -24.806812 39.731735
-8.0112991 -43.742409 39.004921
-3.427866 -37.266613 39.698975
-15.794209 -43.238251 32.150501
-7.6666784 -31.061068 39.736141
-4.4846067 -36.21925 39.70158
-13.626885 -43.674072 33.998947
-6.5774369 -32.675465 39.731846
0.23778009 -43.190014 39.016014
-14.295789 -24.52113 32.959995
-9.4654427 -28.62274 39.714767
-17.591124 -43.242706 32.150501
-13.628149 -45.520142 36.973869
-10.884247 -23.788403 39.697659
-14.294949 -33.843716 35.3228
-19.05364 -37.128792 32.637901
-11.179914 -47.614922 39.000664
-8.9594336 -27.193251 39.720596
-8.3044682 -26.892168 39.728344
-19.791542 -29.413998 32.637615
-10.351534 -24.315086 39.703972
-14.294775 -36.440582 35.802967
-3.370708 -24.719273 39.731731
-13.627555 -48.643864 35.575874
-6.6458654 -37.094341 39.68927
-7.5586452 -23.297733 39.737228
-9.6115608 -26.646172 39.712875
-1.8739355 -32.37479 39.736012
-11.932823 -46.242302 38.999653
-13.627914 -40.534855 36.422901
-14.29343 -28.1091 39.573101
-14.293884 -32.136715 38.313049
-20.819813 -32.766434 32.637169
-6.9166675 -48.062939 39.006397
-13.626804 -43.106026 33.810509
-9.7431622 -26.863123 39.711349
-19.844479 -46.574345 32.150501
-17.238689 -46.722599 32.150501
-12.603525 -25.067287 39.677551
-13.359526 -39.22401 38.373276
-2.0997472 -28.484505 39.73175
-14.189672 -37.960773 33.765404
-11.812727 -37.375385 39.670414
-14.183558 -38.025723 37.734844
-14.294961 -35.382061 35.282589
-16.011913 -27.224926 32.639187
-8.8705549 -38.459217 39.095768
-0.50738144 -40.380306 39.015011
-12.228758 -42.016792 38.988705
-13.868015 -34.606308 39.663509
-13.627504 -48.181778 35.456863
-14.293979 -24.818684 38.030418
-10.584629 -46.918072 39.001469
-14.294197 -37.554089 37.424129
-13.83143 -24.363899 39.66304
-14.104146 -43.672428 32.150501
-6.0859852 -47.919167 39.007515
-13.620118 -28.175236 39.665863
-1.3585128 -38.159157 39.487122
-20.236237 -45.880539 32.150501
-6.7923675 -35.21431 39.699768
-14.295637 -35.01947 33.387611
-18.895908 -25.753845 32.637989
-17.152809 -44.598656 32.150501
-0.73356712 -31.474377 39.748482
-0.37113321 -32.117401 39.739578
-8.091918 -41.26506 39.004818
-6.5908184 -42.071075 39.006832
-13.627516 -43.840424 35.483795
-0.73719722 -29.696333 39.731773
-17.658007 -39.178478 32.150501
-3.0791752 -43.056881 39.011555
-2.6534123 -22.708593 39.731743
-16.352884 -35.959938 32.639038
-2.8158467 -43.857101 39.011909
-7.3512983 -25.389103 39.739697
-5.6454878 -46.795498 39.008102
-13.626358 -42.636536 32.759426
-14.29588 -34.982304 32.697563
-15.049887 -30.461485 32.639587
-21.060892 -27.411629 32.637089
-8.8600264 -23.751701 39.721725
-13.420954 -40.103985 38.188812
-14.295526 -34.96983 33.699158
-6.4808679 -34.798027 39.703243
-3.9468522 -26.755188 39.73172
-15.176052 -33.165169 32.639534
-14.295263 -27.550091 34.454422
-5.1838312 -23.709614 39.731697
-12.82562 -39.052002 38.788956
-5.8102493 -30.919273 39.920853
-15.861109 -28.015636 32.639248
-20.170219 -38.822235 32.150501
-15.046316 -28.078999 32.639587
-3.7127085 -23.949181 39.731728
-16.731464 -45.433624 32.150501
-13.628315 -40.013103 37.367481
-19.031979 -30.228434 32.637932
-8.0956764 -46.019455 39.00481
-16.928749 -35.19043 32.638802
-3.4130077 -39.480766 39.011105
-3.9754653 -46.880482 39.010349
-14.294901 -25.880438 35.473007
-0.32815742 -40.37257 39.015255
-14.293875 -36.620865 38.329189
-16.741364 -47.345932 32.150501
-14.2938 -36.467155 38.537415
-12.689482 -31.231281 39.677078
-12.97605 -44.644661 38.738609
-7.4240127 -32.583874 39.733116
-8.552103 -45.811813 39.004196
-7.8776994 -24.607658 39.733429
-15.679848 -29.613108 32.639324
-9.1794853 -43.393059 39.003357
-0.40570211 -35.974556 39.716599
-11.234465 -23.565243 39.69352
-14.293587 -33.991158 39.134502
-14.293409 -33.091171 39.632568
-17.487947 -28.853666 32.638573
-2.1443572 -32.553101 39.73354
-14.295197 -32.912575 34.624207
0.49785233 -40.421772 39.016361
-19.157032 -36.320862 32.637859
-16.270138 -43.180214 32.150501
-4.9227238 -46.437046 39.009079
-9.4685431 -33.48642 39.71516
-17.127268 -28.107025 32.638725
-9.500103 -29.624481 39.714447
-3.9414475 -48.191639 39.010395
-16.902632 -41.229145 32.150501
-13.49024 -42.443031 37.980766
-12.918596 -41.895943 38.757835
-17.050253 -39.444958 32.150501
-1.5805888 -30.239887 39.876534
-11.040028 -25.637957 39.695984
-14.798253 -35.012466 32.63969
-3.2357438 -23.625765 39.731735
-19.899956 -33.698532 32.637554
-5.1693573 -40.930771 39.008743
-14.216119 -47.537212 32.150501
-7.2790689 -41.648876 39.005909
-13.627696 -45.314507 35.908772
-13.589281 -42.045574 37.683365
-14.294766 -25.963388 35.854359
-13.488846 -44.996941 37.984947
0.22861147 -46.646015 39.016003
-13.966524 -42.376541 32.150501
-2.1407526 -34.735783 39.718063
-5.7760487 -26.956959 39.959
-14.29554 -32.157795 33.666676
-17.654202 -30.285217 32.638504
-14.197526 -37.965988 34.62117
-20.810726 -33.896896 32.637173
-15.399813 -35.199402 32.639442
-7.0551429 -22.325121 39.743225
-13.483397 -25.701794 39.667252
-14.293634 -26.064894 38.997086
-14.293489 -35.347424 39.406281
-13.62689 -45.967407 34.011116
-20.18738 -45.660442 32.150501
-7.1044693 -34.597179 39.705227
-9.582634 -38.928818 39.002811
-14.294206 -29.732386 37.416149
-5.49088 -34.37125 39.709034
-2.3258066 -23.996202 39.731747
-10.758661 -32.233948 39.699875
-14.295062 -26.950363 35.019775
-1.6724567 -36.181252 39.711174
-5.0088801 -44.996719 39.008961
-14.294013 -24.789667 37.933243
-8.3671703 -35.909187 39.690464
-1.1780658 -36.509975 39.710896
-8.7169132 -47.4132 39.003975
-4.441946 -28.14377 39.731712
-13.627537 -44.601719 35.533279
-13.626463 -42.766167 33.005173
-1.6950432 -47.608833 39.013416
-14.293802 -27.009151 38.523132
-4.1919231 -31.801308 39.743954
-13.626389 -44.496834 32.832779
-19.220104 -36.607239 32.637829
-20.229723 -36.577152 32.637409
-19.802242 -45.482361 32.150501
-14.294464 -35.951416 36.676567
-19.482082 -31.375824 32.637741
-2.2834787 -24.237122 39.731747
-13.627838 -43.586651 36.243965
-7.9105597 -25.458147 39.733036
-6.1438913 -46.335217 39.007439
-2.7370939 -36.27726 39.707062
-0.45589304 -39.869598 39.015079
-4.6129742 -38.294125 39.31382
-9.7037344 -34.984154 39.699867
-0.20760918 -35.152439 39.722065
-21.15276 -26.684654 32.637054
-12.268112 -40.094734 38.975533
-1.939851 -44.943954 39.013084
-13.627186 -39.318893 34.707993
-2.4250228 -23.103014 39.731747
-12.48761 -28.764576 39.679234
-14.294559 -33.721737 36.410904
-3.2027493 -22.345407 39.731731
-12.367797 -31.449455 39.680878
-4.67308 -22.75246 39.731709
-14.293715 -25.212887 38.774437
-9.3303814 -30.84981 39.716553
-14.295088 -29.68137 34.940811
-8.8135996 -44.177559 39.003845
-14.29451 -31.534893 36.557236
-10.262053 -38.766079 39.0019
-2.7951708 -23.442619 39.731743
-14.295684 -33.326828 33.259548
-8.5678196 -24.816767 39.725208
-3.5190177 -35.852982 39.70694
-13.626179 -45.301735 32.336208
-13.628288 -38.603165 37.302979
-13.873859 -27.320629 39.662804
-13.906203 -38.34922 32.303497
-2.8184891 -27.468655 39.731739
-13.844323 -28.565262 39.663258
-14.523689 -42.160988 32.150501
-5.6232977 -30.023403 39.959
-4.5961781 -26.027332 39.731712
-9.3898382 -38.035751 39.585697
-3.8399496 -38.408199 39.173706
-17.533512 -41.586605 32.150501
-4.287735 -40.849216 39.009933
-3.6433706 -41.243134 39.010796
-1.0108838 -41.87833 39.014336
-13.211201 -42.784882 38.659912
-14.295027 -35.246246 35.09877
-20.342655 -26.8041 32.63739
-8.1554003 -47.073044 39.00473
-7.2525983 -30.21257 39.740932
-3.4447618 -27.00885 39.731731
-9.9091768 -46.430008 39.002373
-14.980803 -33.931236 32.639614
-10.953116 -38.164513 39.428757
-14.295834 -37.469749 32.82674
-13.628233 -39.667057 37.173717
-18.897152 -38.905136 32.150501
-1.9663281 -44.232353 39.01305
-0.57246995 -46.144958 39.014927
-14.295198 -29.551378 34.632526
-3.9303739 -32.100498 39.739811
-1.6864543 -23.468285 39.731758
-0.61461258 -40.454792 39.01487
-13.571495 -46.185875 37.736771
-11.538342 -25.338039 39.690102
-15.959278 -26.591114 32.639206
-10.112765 -32.473137 39.707497
-1.5716233 -48.662716 39.01358
-9.8297005 -37.081203 39.678741
-16.043503 -32.803417 32.639175
-5.4737945 -30.686016 39.959
-19.690887 -28.058378 32.637657
-9.5364561 -34.750881 39.703098
-18.51795 -42.700874 32.150497
-5.7000132 -31.980253 39.741474
-11.564989 -36.768875 39.675144
-11.310404 -30.033743 39.693192
-0.089002371 -34.461136 39.726501
-3.9773264 -32.724785 39.731163
-6.1950588 -29.220415 39.804401
-8.1937742 -37.306072 39.682877
-15.207712 -48.097961 32.150501
-14.293928 -36.82077 38.179955
-8.5144529 -34.585773 39.705383
-17.232916 -39.244926 32.150501
-12.144451 -45.421555 38.999367
-18.096178 -34.787853 32.638309
-3.8409576 -46.270527 39.010529
-13.628163 -39.532604 37.00901
-14.294477 -35.896046 36.637718
-14.293761 -26.207047 38.642086
-14.29368 -33.544376 38.883076
-18.891344 -44.81559 32.150501
-9.4752579 -45.284233 39.002956
-8.8620739 -24.216789 39.721703
-10.203515 -47.723831 39.001972
-3.2695732 -48.177753 39.011299
-19.113659 -40.515591 32.150501
-11.769609 -41.246964 38.999874
-17.177452 -34.6698 32.638699
-14.295802 -34.440308 32.921978
-9.5231771 -48.215889 39.002895
-13.967271 -26.720955 39.661652
-10.962984 -34.585274 39.697678
-16.97023 -38.467285 32.214203
-16.866747 -41.102863 32.150501
-0.30496883 -44.055717 39.015282
-5.8381615 -37.261967 39.690975
-18.240452 -41.601852 32.150501
-3.4711742 -37.491737 39.697514
-8.4265509 -44.053642 39.004364
-16.619333 -37.286175 32.638924
-15.378542 -44.067795 32.150501
-2.7029223 -27.76074 39.731743
-15.587104 -28.19796 32.639366
-8.2766857 -44.819111 39.00457
-2.7340252 -29.176775 39.731739
-13.627906 -46.861908 36.402565
-8.4856939 -42.675087 39.004288
-18.211617 -44.490311 32.150501
-10.467318 -47.898121 39.001621
-13.250714 -47.459461 38.646687
-6.6056437 -33.168858 39.725014
-0.98872358 -23.861389 39.73177
-16.571686 -39.719566 32.150501
-3.3426974 -26.924992 39.731731
-0.70619941 -38.981331 39.014748
-14.295703 -32.563675 33.206635
-17.830437 -33.869953 32.638428
-6.2685356 -45.439552 39.007267
-5.2540798 -22.982176 39.785297
-14.294603 -26.704124 36.305988
-0.32312298 -35.76387 39.718105
-10.885022 -48.226845 39.001064
-14.294189 -25.997427 37.470615
-16.37405 -34.770069 32.639034
-6.6397276 -42.517464 39.006767
-15.640043 -45.847347 32.150501
-10.545528 -45.831024 39.001518
-18.543867 -29.044182 32.638134
-13.627726 -44.656864 35.978745
-6.5091977 -42.462463 39.006943
-17.566425 -27.197226 32.638538
-14.295808 -32.009098 32.906605
-14.294642 -33.992844 36.180573
-14.293985 -30.693441 38.03344
-14.294765 -31.922167 35.841076
-3.9536638 -39.334476 39.010376
-7.0566673 -43.854263 39.006207
-10.777115 -32.822487 39.699707
-13.626501 -47.772873 33.094742
-4.5946827 -41.93383 39.009518
-0.035799026 -41.8839 39.015644
-15.187011 -33.806118 32.63953
-17.701937 -39.98201 32.150501
-14.169755 -38.002632 35.296223
-12.595882 -30.296556 39.678097
-14.295374 -31.783291 34.130211
-1.022087 -29.87532 39.73177
-1.4946934 -47.860844 39.013687
-13.626599 -41.495461 33.327503
-14.295871 -24.195831 32.724823
-14.294704 -35.152077 36.003036
-12.422638 -25.466761 39.67971
-14.294179 -24.418524 37.503513
-14.294012 -26.933884 37.959728
-13.626364 -41.678226 32.770996
-8.5226393 -31.490116 39.726109
-7.7615833 -30.607803 39.734985
-14.293731 -35.65601 38.734684
-13.62772 -48.451317 35.965683
-9.279068 -39.672215 39.00322
-11.578796 -36.48106 39.679131
-4.5569878 -39.742508 39.009567
-14.294886 -31.858311 35.503719
-9.0207977 -36.688255 39.683731
-11.012424 -28.797298 39.696587
-7.2936664 -42.641918 39.00589
-15.557869 -31.520111 32.639378
-9.824687 -34.118061 39.711025
-7.6922293 -37.844654 39.681396
-13.282604 -41.738194 38.604252
-8.4298019 -47.923744 39.00436
-10.441053 -30.151039 39.703426
-0.22053576 -36.823799 39.71225
-14.293806 -35.712055 38.524281
-11.161366 -33.07729 39.69521
-15.420479 -37.921452 32.585411
-7.7250824 -44.105389 39.00531
-14.175933 -37.86628 39.65995
-13.088791 -47.283012 38.700878
-6.6342587 -47.859138 39.006775
-8.7617674 -26.900143 39.722897
-5.23598 -44.236866 39.008656
-13.626184 -39.368973 32.352222
-1.4162799 -24.206545 39.731762
-14.293908 -31.79735 38.245426
-1.4385096 -47.397045 39.013763
-14.294429 -25.718851 36.798042
-20.729223 -34.680447 32.637203
-8.7579165 -45.730751 39.003922
-13.713648 -31.630518 39.665062
-2.7024817 -31.753834 39.744614
-18.789186 -46.546501 32.150501
-1.7032399 -39.272381 39.013405
-9.2973061 -39.945404 39.003193
-16.590225 -28.730078 32.638947
-15.924705 -40.404697 32.150501
-12.538228 -26.780962 39.678467
-13.627411 -40.715176 35.236675
-13.62838 -39.517426 37.519043
-1.1619198 -28.79665 39.731766
-7.8387976 -42.398674 39.005157
-14.293591 -29.707962 39.121101
-12.184867 -45.835808 38.999313
-9.930871 -33.67836 39.709736
-12.080559 -43.761806 38.999454
-13.680901 -26.232899 39.664974
-17.42141 -28.424232 32.638603
-12.065924 -33.26162 39.684586
-7.3944149 -24.701569 39.739185
-3.4515331 -34.379044 39.715782
-2.520257 -37.736664 39.699257
-14.907398 -28.91843 32.639648
-2.6594601 -47.895725 39.012119
-2.065124 -36.122353 39.710205
-3.8367028 -24.098999 39.731728
-14.294922 -31.387102 35.402027
-16.831503 -39.092163 32.150501
-14.295528 -26.773972 33.709522
-14.345051 -39.014206 32.150501
-16.629114 -37.363808 32.63892
-18.197128 -42.189133 32.150497
-3.4381683 -29.710112 39.731728
-4.2119007 -43.277496 39.010033
-16.412979 -34.842495 32.639019
-8.9422312 -41.999535 39.003674
-18.62837 -43.967327 32.150505
-8.1485615 -24.640427 39.730202
-13.62711 -46.085793 34.531067
-18.925043 -45.282333 32.150501
-14.293921 -32.817627 38.210487
-14.29344 -36.209515 39.547165
-6.34694 -39.140507 39.007164
-4.3983879 -27.340069 39.731716
-6.0410442 -28.068624 39.902203
-14.297342 -48.02607 32.150501
-8.3078451 -35.902805 39.690697
-4.1060381 -40.423069 39.010174
-14.295715 -28.707596 33.170303
-3.0395868 -24.131851 39.731735
-14.293653 -28.07671 38.945969
-13.626714 -47.525818 33.59523
-13.626953 -39.905441 34.15958
-16.551121 -45.957073 32.150501
-11.627806 -29.938107 39.689449
-5.4462833 -26.354019 39.959
-6.8157716 -41.990631 39.006531
-13.627956 -42.306862 36.522247
-15.726655 -47.538578 32.150501
-13.453747 -44.920036 38.090347
-14.965831 -27.903212 32.639622
-14.293436 -35.562695 39.560013
-2.16324 -38.857304 39.012787
-8.2131233 -38.766323 39.004658
-13.446773 -43.100784 38.11129
-15.101702 -32.761726 32.639565
-0.45420486 -30.513819 39.959
-9.8381205 -38.464684 39.086594
-16.820484 -28.566536 32.638847
-11.723106 -29.929537 39.688328
-13.628178 -42.451519 37.044155
-19.980474 -31.384695 32.637527
-13.626625 -43.842522 33.388252
0.14300442 -42.131454 39.015884
-13.71685 -23.552963 39.664318
-17.536171 -38.486668 32.200649
-13.627444 -43.757702 35.314613
-17.458107 -38.569073 32.150501
-2.4203513 -35.354374 39.713512
-13.627361 -39.471428 35.123535
-11.039972 -26.213211 39.696037
-18.728285 -34.203251 32.638046
-4.755537 -48.279194 39.0093
-0.32789779 -38.166233 39.484566
-13.772646 -38.475426 34.997944
-18.213358 -26.334255 32.638271
-13.544195 -45.931263 37.818748
0.53453112 -46.349358 39.016411
-17.672951 -32.53941 32.638496
-17.618227 -48.351662 32.150501
-3.1416137 -30.852673 39.959
-13.627941 -43.47929 36.488724
-17.732477 -26.424089 32.638474
-13.79978 -29.827507 39.663895
-14.295845 -31.705282 32.80022
-3.1659589 -35.124802 39.712372
-14.294291 -25.492149 37.191936
-13.628139 -45.541695 36.955158
-4.0909963 -30.198627 39.828411
-6.56177 -28.664808 39.749107
-14.29525 -24.411087 34.498234
-1.5751033 -43.569202 39.013577
-13.564328 -28.157368 39.666515
-12.214252 -26.966042 39.682289
-0.65554285 -37.785988 39.705177
-14.294971 -36.553703 35.251175
-14.293825 -24.118576 38.462761
-9.4251385 -46.578033 39.003021
-9.3751144 -46.533798 39.003094
-4.2375455 -37.282372 39.69619
-4.445231 -25.331821 39.731712
-9.6725931 -36.909897 39.680264
-10.005601 -42.090996 39.002243
-4.9498172 -42.464073 39.009041
-18.628773 -25.733578 32.6381
-9.2984619 -32.540279 39.717075
-3.5560191 -45.507431 39.010914
-19.195009 -25.31595 32.637863
-11.066679 -46.796993 39.000816
-11.853402 -24.130386 39.686287
-3.1183314 -28.449078 39.731731
-14.294554 -32.527889 36.435196
-6.4557486 -26.14513 39.75037
-14.293803 -27.638432 38.524025
-1.453382 -34.04866 39.724369
-4.3114619 -37.882366 39.692436
-14.293488 -28.785856 39.410618
-13.626505 -43.895103 33.104164
-17.139517 -44.251102 32.150501
-7.1994042 -41.297874 39.006016
-19.685898 -26.765684 32.637661
-11.924414 -36.943439 39.672733
-14.294032 -36.644379 37.888969
-15.345052 -43.759377 32.150501
-13.026281 -26.936981 39.672737
-13.627111 -44.473843 34.534111
-9.7402296 -37.718388 39.675312
-0.90992069 -35.688004 39.716595
-20.632519 -42.1847 32.150501
-14.758775 -44.322479 32.150501
-4.9455166 -37.700108 39.691391
-13.524265 -44.457336 37.878593
-9.4981728 -44.620346 39.002926
-4.1066251 -46.529274 39.010174
-14.131381 -38.033638 34.911007
-4.4776216 -28.925734 39.731716
-14.556196 -30.175932 32.639793
-4.777494 -29.403521 39.731705
-6.3071642 -43.79438 39.007217
-11.081914 -33.871986 39.696213
-20.418774 -38.876247 32.150501
-14.295395 -24.548971 34.093216
-1.9447227 -27.109125 39.731754
-12.911302 -25.359009 39.673954
-6.1619568 -35.357059 39.701035
-8.9520712 -40.908981 39.003662
-5.409708 -37.150085 39.693058
-15.196454 -29.23502 32.639526
-2.3213139 -40.070473 39.012573
-12.183051 -38.425186 39.121552
-2.952637 -32.370827 39.736065
-14.294039 -37.725094 37.862091
-14.430544 -47.862263 32.150501
-1.2298076 -33.352726 39.729183
-18.700993 -44.043968 32.150501
-4.2450056 -24.803581 39.73172
-9.2661295 -29.892508 39.717224
-6.3062711 -43.647598 39.007217
-14.295709 -28.112213 33.189331
-12.777699 -24.962553 39.675491
-17.327171 -43.511284 32.150505
-14.294318 -29.26391 37.103786
-14.295315 -32.664597 34.293793
-20.442245 -41.733513 32.150501
-14.294625 -35.213058 36.224777
-11.470157 -28.066368 39.691139
-6.7213855 -44.455704 39.00666
-13.626668 -47.402012 33.48777
-7.7870793 -43.421242 39.005226
-2.4676695 -27.406624 39.731747
-7.7257667 -33.138733 39.725426
-14.29457 -26.469454 36.402275
0.48027781 -48.679401 39.016342
-13.453072 -37.55006 39.66433
-14.293618 -34.464428 39.054062
-19.559021 -36.152367 32.637688
-3.9209895 -25.209583 39.73172
-14.29418 -31.564693 37.486565
-13.628307 -40.680988 37.347702
-13.626637 -40.123493 33.41761
-5.2665348 -39.612484 39.008617
-4.4235253 -30.820717 39.959
-13.626283 -38.924088 32.582363
-17.08646 -27.869896 32.638741
-3.2307141 -39.18763 39.011349
-14.294085 -35.245274 37.745865
-8.3545933 -38.126709 39.486462
-14.299958 -37.543625 32.6399
-2.1264699 -27.087606 39.73175
-14.295677 -31.188704 33.281433
-2.4728947 -31.861376 39.743118
-7.1082883 -28.229286 39.742592
-17.664442 -45.835228 32.150501
-14.293984 -27.569891 38.038723
-14.536855 -34.019684 32.639801
-9.2601976 -29.855112 39.717289
-14.294749 -31.716473 35.887196
-14.295803 -36.714001 32.914768
-13.711313 -42.500481 32.150501
-4.8026485 -45.112221 39.009239
-10.555001 -25.027319 39.701637
-5.4753232 -42.873909 39.008331
-14.295432 -37.090641 33.957504
-7.4702573 -47.340851 39.005653
-14.294741 -35.229046 35.90358
-16.314642 -43.775524 32.150501
-14.607684 -39.415497 32.150501
-15.941898 -29.837486 32.639217
-3.8907905 -28.714231 39.731724
-8.2449951 -31.460077 39.72937
-14.293928 -29.564051 38.198154
0.33439732 -43.837852 39.016144
-14.295891 -30.970345 32.666725
-20.191212 -40.739815 32.150501
-14.29547 -27.441236 33.871574
-14.163424 -26.632431 39.659336
-3.113534 -33.227295 39.724201
-13.627693 -46.289791 35.900265
-13.627628 -46.013855 35.753075
-18.961683 -44.307953 32.150505
-0.052678585 -45.731663 39.015621
-14.294015 -25.678898 37.933086
-11.995838 -41.005714 38.999569
-5.9618435 -45.939251 39.007683
-1.3516107 -42.896633 39.013878
-6.2541275 -38.889462 39.007286
-19.922695 -30.266941 32.637558
-2.6800938 -37.820271 39.698231
-13.627319 -38.783382 35.02317
-13.626131 -44.544765 32.224792
-16.14452 -48.260078 32.150501
-13.422857 -46.386299 38.183105
-13.55465 -47.159557 37.787354
-13.626776 -39.016304 33.741177
-8.6049109 -31.276039 39.725121
-8.0596876 -32.488396 39.731644
-6.2608013 -30.637192 39.762657
-14.295607 -30.405195 33.481853
-15.873707 -26.454607 32.639244
-13.62834 -45.163696 37.425991
-6.7750568 -30.329815 39.746563
-14.293827 -33.855259 38.468746
-13.601734 -45.192451 37.645973
-9.9553356 -35.32642 39.695126
-1.5073748 -41.97113 39.013668
-13.626574 -43.084885 33.266315
-6.4325795 -28.594984 39.750641
-4.0480409 -43.033844 39.010254
-17.415018 -37.578125 32.638588
-21.172127 -29.058397 32.637035
-7.0971975 -46.917538 39.006157
-19.40736 -29.111643 32.637775
-13.627007 -47.601364 34.283249
-2.8065712 -48.560993 39.011925
-1.8000178 -46.6707 39.013275
-19.270649 -29.375347 32.637833
-2.8323846 -42.826279 39.011887
-19.426819 -33.205273 32.637756
-12.071477 -39.624058 38.99947
-13.628142 -41.882206 36.959839
-10.564692 -31.832531 39.702122
-20.620071 -26.305893 32.637272
-0.14974976 -39.765472 39.015495
-14.294648 -29.101982 36.17395
-2.1983833 -30.644955 39.959
-9.1120434 -26.246771 39.718723
-13.627592 -44.665539 35.664989
-14.293654 -31.769197 38.945026
-14.664198 -46.9515 32.150501
-19.725647 -44.306923 32.150505
-14.294708 -32.698822 35.997189
-4.7647419 -25.509535 39.731709
-14.29472 -37.234589 35.954872
-3.4852476 -40.295006 39.011009
-14.294024 -24.929596 37.905361
-13.626375 -48.428894 32.798775
-15.02791 -33.931561 32.639595
-12.459416 -36.53373 39.678402
-18.891434 -41.497231 32.150497
-8.8729773 -37.574574 39.679039
-13.627393 -47.940811 35.194878
-19.994535 -41.574715 32.150501
-8.7170534 -26.579971 39.723427
-1.3731775 -35.398659 39.716743
-6.2043986 -35.145832 39.702129
-13.62702 -43.548424 34.317974
-14.294205 -29.334034 37.422478
-13.628077 -41.805988 36.805283
-20.480635 -37.717148 32.637299
-5.1054907 -45.916443 39.008831
-5.0059166 -36.806499 39.696411
-16.144375 -26.901035 32.63913
-14.293863 -25.033607 38.353088
-14.294024 -27.734123 37.929218
-14.294676 -35.907379 36.083126
-13.626699 -47.078781 33.56168
-19.358353 -30.74666 32.637794
-17.878658 -28.873768 32.638412
-10.99954 -42.19178 39.000908
-18.856174 -29.651274 32.638004
-14.624446 -38.874527 32.150501
-14.295761 -33.779831 33.04002
-9.6858206 -46.359077 39.002678
-13.627634 -46.426239 35.766418
-4.8777008 -32.669304 39.73193
-13.627487 -42.74781 35.416489
-13.626771 -43.951164 33.730892
-7.2814641 -35.097488 39.698826
-13.530941 -45.129868 37.858547
-14.29409 -31.888227 37.737865
-3.1141064 -24.064722 39.731735
-0.20302057 -47.014027 39.015419
-19.342003 -30.929264 32.637798
-11.017202 -43.499023 39.000885
-21.056538 -33.928711 32.63707
-5.6429543 -31.228752 39.751884
-2.3999507 -35.494057 39.712769
-0.22065258 -41.791019 39.015396
-4.6178236 -46.410351 39.009487
-2.0889983 -45.704948 39.012886
-14.293622 -30.102949 39.033871
-14.295787 -35.162205 32.962929
-3.5998237 -45.645882 39.010857
-13.62806 -43.399612 36.765789
-13.490763 -42.776291 37.979198
-9.7792721 -42.431213 39.002548
-10.508499 -38.511322 39.022911
-9.0059824 -44.748299 39.00359
-14.716439 -35.109047 32.639725
-10.111905 -29.114286 39.707211
-14.295284 -31.476463 34.384575
-13.833952 -26.5723 39.663208
-5.2719536 -41.845879 39.00861
-16.921717 -37.864719 32.637005
-7.1308517 -42.374691 39.006107
-10.594352 -26.649559 39.701317
-13.627167 -47.692802 34.663879
-16.34391 -28.49123 32.63905
-0.52926469 -33.576073 39.730209
-15.786222 -32.012897 32.639282
-14.295572 -28.755821 33.58075
-5.179409 -24.172314 39.731701
-7.3250108 -24.907766 39.740013
-15.014854 -28.428894 32.639603
-9.6461411 -41.347538 39.002724
-3.249732 -32.11496 39.739609
-3.1577563 -25.20089 39.731735
-12.209902 -41.180668 38.995014
-2.2605186 -30.571575 39.959
-13.627523 -47.838333 35.50251
-14.295679 -27.901241 33.276436
-13.433194 -40.267387 38.152061
-8.1948605 -33.311131 39.723038
-12.950006 -30.809376 39.673973
-14.879141 -24.83835 32.639656
-13.627049 -39.202732 34.386646
-14.29503 -37.448669 35.084515
-15.050949 -29.137024 32.639587
-21.096104 -34.807487 32.637047
-14.293571 -34.339451 39.177082
-13.477771 -45.577587 38.018211
-9.5478363 -29.93124 39.713913
-4.8693352 -30.567247 39.959
-7.6683779 -44.892078 39.005386
-16.866163 -30.95244 32.638832
-9.516201 -36.901073 39.68084
-13.627302 -46.860336 34.983597
-10.515644 -38.474422 39.072258
-10.212891 -25.877632 39.705738
-10.786338 -22.957504 39.69878
-10.976798 -40.531658 39.000938
-8.8467283 -33.155674 39.722439
-8.0689802 -47.32169 39.004845
-14.293844 -34.669609 38.421623
-2.7699728 -32.441204 39.735092
-13.272966 -47.684399 38.633194
-20.683218 -37.264378 32.637215
-12.009691 -26.925022 39.684692
-17.239574 -30.158087 32.63868
-1.1220181 -48.19714 39.014187
-0.97212321 -38.247017 39.387932
-13.257915 -39.43853 38.644276
-17.459171 -37.825428 32.638569
-18.768011 -47.373199 32.150501
1.0040131 -48.021252 39.017044
-12.462365 -28.233536 39.679482
-18.034969 -25.411608 32.638344
-12.671762 -27.7225 39.676975
-3.4419024 -44.876869 39.011066
-9.6841011 -39.677853 39.002674
-10.51215 -37.958405 39.668758
-19.19663 -29.096542 32.637863
-20.900864 -26.517828 32.637154
-20.133774 -34.151188 32.637455
-18.642588 -38.202522 32.392487
-4.3684282 -32.876263 39.729065
-2.9867413 -27.571657 39.731735
-13.627789 -39.527599 36.126865
-14.955014 -25.826099 32.639626
-14.29484 -25.817726 35.645691
-5.9351997 -38.884068 39.007717
-5.2870407 -35.917717 39.700672
-13.62674 -39.7206 33.659248
-7.4689898 -48.58498 39.005653
-4.5206962 -48.432762 39.009621
-12.307451 -44.955139 38.962368
-19.954197 -35.07233 32.637527
-14.712869 -33.799221 32.639725
-13.627069 -40.75095 34.432068
-3.5432467 -46.307518 39.010933
-3.7655444 -25.337624 39.731728
-1.672174 -44.696083 39.013443
-14.295561 -32.163467 33.607944
-10.830837 -31.418867 39.698956
-9.5947628 -32.717186 39.713608
-13.627934 -48.267982 36.467743
-5.1794329 -43.005722 39.008732
-14.341075 -47.996952 32.150501
-13.564198 -39.344246 37.758686
-16.236347 -37.440468 32.639084
-9.5203362 -29.284946 39.71418
-18.066048 -40.43544 32.150501
-14.692573 -24.547068 32.639736
-14.293875 -28.093906 38.323967
-13.615917 -26.380131 39.665756
-15.832743 -41.960968 32.150501
-8.4686985 -38.567135 39.004307
-20.945484 -37.203701 32.6371
-14.927132 -48.133263 32.150501
-4.5335646 -45.242214 39.009602
-2.4772396 -33.516777 39.724068
-16.775373 -33.290375 32.63887
-12.550003 -38.914532 38.881195
-14.097205 -43.175896 32.150501
-8.8194733 -29.344345 39.722431
-14.294329 -28.866894 37.071903
-14.294327 -36.997261 37.0616
0.63065267 -45.859447 39.016541
-10.595709 -39.031139 39.001453
-10.15764 -26.670792 39.706455
-10.062628 -38.093987 39.5149
-17.084785 -39.411064 32.150501
-5.9599657 -22.200958 39.95369
-9.3849907 -32.054981 39.716015
-15.937118 -35.705513 32.639217
-3.9954748 -25.240414 39.73172
-14.295206 -33.454636 34.59763
-10.907204 -27.638239 39.697723
-14.293667 -28.488087 38.906174
-13.884695 -27.756939 39.662712
-13.627295 -38.733536 34.964264
-16.568855 -44.760654 32.150501
-0.64070088 -48.112053 39.014828
-14.617734 -44.651707 32.150501
-4.8917937 -34.858574 39.708183
-6.9863434 -45.468601 39.006302
-8.0770502 -43.855217 39.004837
-1.8615906 -23.875521 39.731758
-15.65245 -37.164883 32.639332
-13.627815 -43.322983 36.190964
-2.7234058 -44.582127 39.012032
-9.9198112 -43.78492 39.002357
-14.295049 -36.991707 35.03141
-3.4536481 -30.808615 39.959
-0.66622531 -31.158329 39.769054
-13.62643 -47.713013 32.927925
