# .PCD v0.7 - Point Cloud Data file format
VERSION 0.7
FIELDS x y z
SIZE 4 4 4
TYPE F F F
COUNT 1 1 1
WIDTH 1515
HEIGHT 1
VIEWPOINT 0 0 0 1 0 0 0
POINTS 1515
DATA ascii
-32.104343 -37.828331 23.481239
-29.09639 -44.73233 32.150501
-24.989731 -24.132889 32.635445
-27.168121 -37.839695 32.63448
-35.783787 -37.887798 27.175278
-32.104267 -30.096241 20.910673
-23.88982 -45.588249 32.150501
-34.669086 -37.887798 21.99337
-34.231136 -37.887798 19.027229
-32.1133 -32.641895 14.187918
-25.642403 -41.755615 32.150501
-32.104328 -35.101974 22.144705
-38.006248 -33.897461 30.7346
-32.104355 -26.343697 25.151031
-31.651901 -39.869244 23.213055
-24.420023 -46.738346 32.150501
-21.941647 -30.62672 32.636703
-34.977951 -39.777035 31.62879
-32.104401 -28.132538 26.638519
-37.202446 -35.33379 30.7346
-32.10458 -34.252365 32.017754
-32.104343 -28.782658 24.164246
-29.974083 -47.249756 32.150501
-31.992195 -38.105396 27.381487
-32.10453 -26.937531 30.638327
-26.154671 -43.658504 32.150501
-32.1133 -34.435921 17.42478
-32.104294 -29.64975 22.063683
-32.986801 -35.108131 30.018953
-33.969604 -37.887802 24.799608
-21.765329 -32.491951 32.636772
-25.925262 -48.412838 32.150501
-31.651897 -40.892647 21.225956
-31.651899 -39.57745 15.318837
-30.567705 -36.682255 32.633053
-32.10434 -32.835632 23.226801
-24.853882 -46.804516 32.150501
-27.89547 -43.984379 32.150501
-37.122929 -42.399303 31.423271
-31.651899 -43.788368 17.589241
-36.554962 -37.887798 23.14559
-21.77264 -35.17065 32.636761
-31.651901 -39.520737 17.224533
-31.651899 -46.50145 29.450945
-32.104496 -36.590015 28.766457
-36.401718 -33.685711 30.7346
-32.836243 -40.238384 31.935501
-32.10453 -32.551868 30.555309
-26.860252 -30.425642 32.634636
-31.651899 -43.939274 25.067352
-32.190781 -36.197922 18.253534
-29.121567 -44.776241 32.150501
-22.579298 -41.50515 32.150501
-31.651897 -43.895046 18.223303
-29.038458 -40.08947 32.150501
-32.104439 -30.191101 27.801235
-31.651897 -44.187725 22.749323
-32.104351 -32.943638 23.427925
-33.897099 -35.619247 30.10387
-31.651899 -46.155907 21.440506
-33.158978 -30.558178 29.553028
-33.363659 -35.821484 29.6679
-29.943354 -24.682741 32.633358
-33.897099 -30.873178 30.634769
-32.104332 -31.22319 23.245514
-32.104454 -31.300325 28.15583
-27.326166 -45.017776 32.150501
-35.465256 -38.268208 32.044182
-35.203041 -37.887798 22.055679
-26.781698 -37.046425 32.634647
-34.426285 -31.598814 30.7346
-31.651897 -39.158676 23.005304
-31.651899 -48.200409 19.893747
-31.908348 -38.198994 16.281166
-28.683918 -23.68412 32.633892
-22.486462 -45.193001 32.150501
-32.104424 -30.196449 27.195272
-32.104446 -32.222363 27.505264
-22.107786 -32.282158 32.636631
-31.651901 -41.497772 30.86936
-31.651899 -48.313271 30.532194
-32.885948 -37.887794 18.6012
-32.104301 -27.78503 22.597855
-24.671814 -32.437721 32.635551
-26.894625 -40.469452 32.150501
-33.897099 -33.124474 29.874662
-32.986801 -32.688335 29.88744
-32.1133 -32.116009 17.390724
-32.104416 -29.688143 26.864697
-32.10429 -25.032747 22.73381
-32.10458 -33.530205 32.010563
-32.147999 -28.657612 19.554569
-32.1133 -35.714031 19.45982
-31.651901 -47.102024 22.290581
-23.241611 -36.486473 32.636135
-32.104362 -30.454512 24.537939
-30.052767 -33.026283 32.633286
-34.171101 -37.887798 24.4284
-31.651901 -41.340988 20.740433
-32.104431 -26.257679 27.648829
-32.3218 -36.976055 15.314792
-34.064873 -47.283131 31.846361
-32.104309 -32.218494 22.145868
-31.651899 -39.79903 23.284168
-32.104359 -29.520746 24.711451
-31.651897 -48.241863 30.710386
-30.442379 -25.263035 32.633148
-36.915142 -37.887798 24.637074
-32.591824 -37.887798 25.864418
-32.948357 -37.887798 25.044046
-31.651899 -41.899139 24.3512
-29.15427 -29.987921 32.633671
-32.703037 -44.700283 31.935501
-32.1133 -31.498838 18.253839
-23.546183 -25.418295 32.636051
-31.538273 -44.204582 32.150501
-22.675964 -28.960365 32.636406
-26.441856 -29.39584 32.634815
-24.001411 -42.683884 32.150501
-28.269794 -46.418552 32.150501
-32.104362 -37.901142 24.457226
-35.037781 -30.631298 30.869061
-32.055851 -39.991421 31.935499
-35.006172 -32.666946 30.7346
-31.793226 -38.326359 24.184256
-36.607117 -37.887798 18.229765
-31.651901 -43.265568 18.983004
-32.104443 -32.894238 27.292509
-22.009258 -33.597736 32.636669
-24.650915 -34.728905 32.635551
-27.998413 -27.077236 32.634171
-32.986801 -32.872551 30.725353
-30.238586 -27.861423 32.633224
-26.257336 -45.854675 32.150501
-26.892385 -43.01889 32.150501
-31.651897 -44.566055 30.535038
-36.461601 -37.887798 25.178408
-31.651899 -42.665367 17.679567
-32.1133 -34.81205 18.05335
-33.345978 -45.302704 31.935497
-32.780876 -37.887798 26.38023
-26.713917 -23.803869 32.63472
-31.651899 -39.44413 29.021362
-32.104435 -31.806026 27.298748
-25.628183 -35.699894 32.635136
-32.104427 -37.102711 25.692631
-33.30455 -31.204138 30.912001
-27.176476 -37.078308 32.63448
-33.648823 -31.040016 30.912001
-28.212141 -34.69384 32.634052
-32.3218 -32.513893 19.721149
-31.651901 -41.960419 24.744274
-30.812267 -37.739204 32.632946
-31.651901 -44.280312 21.487816
-31.651899 -43.441959 31.876366
-35.310577 -37.887802 26.135571
-34.421062 -33.648598 30.734598
-23.779163 -26.440695 32.635948
-32.104591 -31.753136 32.411079
-31.651897 -43.948433 30.451075
-26.652506 -42.525383 32.150501
-23.646811 -47.412094 32.150501
-35.299393 -37.887798 23.144627
-23.903488 -45.717056 32.150501
-31.651897 -47.050598 16.575527
-31.651901 -43.591545 16.244776
-32.104149 -37.257313 16.229198
-37.560307 -40.124973 31.423265
-34.292423 -37.887798 31.071005
-31.773167 -33.559158 32.632557
-28.727928 -29.875902 32.63385
-34.333073 -30.323154 30.702297
-26.106627 -34.570992 32.634937
-32.104401 -31.657917 25.861679
-33.849762 -45.673859 31.935501
-29.987318 -40.387421 32.150501
-34.370464 -37.887798 30.240524
-30.731417 -37.424164 32.63298
-31.651899 -46.84124 26.608719
-32.056843 -26.763081 32.632465
-33.88475 -32.411682 30.912001
-33.980339 -41.671448 31.935499
-29.887333 -44.727001 32.150501
-26.801094 -43.694984 32.150501
-31.505772 -30.434284 32.632683
-32.104404 -30.28179 26.382477
-34.463017 -48.086182 31.935497
-27.414019 -35.28981 32.634384
-31.651897 -41.10862 23.461983
-32.104275 -37.306435 20.001642
-27.117577 -30.386354 32.634529
-32.104248 -24.329205 21.157753
-32.104404 -26.080196 26.831081
-35.675026 -37.887798 15.41556
-32.1133 -29.67075 17.298281
-37.861782 -35.629868 30.7346
-32.1133 -25.759617 18.442329
-31.651901 -43.352417 31.400856
-32.428658 -37.887794 17.599218
-32.104271 -30.093653 20.79114
-31.533489 -36.143806 32.632648
-32.104267 -37.81266 20.822565
-21.959734 -39.242126 32.150501
-31.651897 -43.875076 17.850803
-32.104515 -36.210796 29.533884
-36.297874 -37.887798 30.863132
-32.1133 -25.209251 17.868921
-33.07283 -37.887798 21.162645
-21.838026 -34.042725 32.636738
-32.104248 -26.0672 20.820911
-30.910069 -33.598686 32.632919
-27.905998 -43.115311 32.150505
-31.651899 -47.836655 30.085688
-27.611069 -24.742842 32.634342
-32.1133 -25.609417 19.452442
-30.869215 -40.657516 32.150501
-27.434198 -31.362301 32.634392
-32.3218 -36.842358 15.223967
-32.986801 -33.846523 29.849314
-32.104416 -31.498081 26.618389
-31.966825 -41.128365 31.935499
-32.104511 -24.312944 30.085911
-36.355762 -32.352245 30.7346
-32.1133 -30.064953 16.191021
-32.104465 -24.676399 28.661434
-31.651901 -41.895756 18.808437
-32.389408 -37.887798 23.446505
-32.104523 -30.4007 30.341223
-36.400696 -33.196625 30.7346
-35.58094 -41.165619 31.423288
-31.651901 -44.382156 27.471249
-25.560474 -33.175941 32.635174
-22.992952 -33.12439 32.636253
-31.103315 -27.377907 32.632862
-32.10458 -31.46991 31.986759
-32.104443 -33.644024 27.289326
-32.104446 -26.965874 28.080112
-31.651899 -46.117485 21.070345
-32.104504 -36.986839 28.861202
-32.104561 -34.042419 31.394005
-32.104416 -33.730072 26.013395
-32.1133 -33.599686 16.195379
-31.651899 -46.831184 19.138115
-31.651901 -39.502346 22.378801
-29.261723 -44.292568 32.150501
-31.651901 -42.393261 23.114136
-35.899277 -37.887798 20.583675
-22.441748 -43.657028 32.150505
-31.651901 -46.017746 24.643118
-23.422089 -31.289118 32.636082
-31.651899 -43.764297 22.040264
-32.104271 -27.586308 21.481792
-31.651897 -43.617416 18.790874
-31.651901 -43.259323 16.242596
-32.037777 -38.054569 32.351429
-36.726982 -37.887798 21.264717
-26.995825 -40.788261 32.150501
-31.570107 -25.888847 32.632671
-31.651899 -43.123688 26.608852
-31.651899 -39.730595 26.958433
-32.104431 -37.890335 26.649147
-31.954117 -38.147984 20.775627
-32.104179 -37.49913 17.064966
-31.651897 -42.119026 30.196941
-31.651901 -41.643562 20.690968
-31.651901 -45.687622 28.914452
-32.1133 -29.798344 18.191187
-24.293564 -36.893921 32.635693
-32.86837 -37.887798 15.101046
-27.879982 -46.231583 32.150501
-30.106438 -23.92622 32.633293
-31.651897 -45.91172 17.176474
-34.032116 -48.046394 31.935501
-31.942822 -38.15995 32.272621
-32.1133 -26.202709 18.446621
-35.566261 -37.887798 15.873496
-30.857403 -46.583851 32.150501
-25.396212 -44.514973 32.150501
-27.282539 -25.88867 32.634476
-32.104507 -26.288784 29.849199
-32.1133 -25.496819 18.000387
-31.651899 -44.247704 22.117287
-20.712137 -47.268673 32.150501
-36.227989 -46.194302 31.423279
-35.378231 -37.887798 23.740299
-29.15411 -26.041603 32.633686
-32.1133 -32.61459 17.341528
-31.651897 -42.714996 16.595085
-32.104481 -33.267765 28.922344
-31.651899 -42.426556 27.37751
-31.651899 -42.725372 24.807571
-31.651899 -39.928192 30.091293
-27.89913 -46.860012 32.150501
-26.501205 -28.44742 32.634796
-32.104553 -32.836945 31.290951
-23.222847 -28.103439 32.636177
-36.086487 -31.583639 30.7346
-31.651901 -42.230457 27.580107
-32.104317 -32.471207 22.248718
-30.564528 -37.638096 32.633049
-32.104145 -37.941338 17.082495
-32.770184 -37.887798 27.261217
-32.10458 -37.937454 31.820107
-24.08503 -39.830906 32.150501
-37.446953 -36.580994 30.739401
-25.0252 -44.228928 32.150501
-26.854866 -43.869652 32.150501
-27.548756 -45.577053 32.150497
-28.989418 -25.811735 32.633759
-32.10458 -33.149132 32.039219
-32.104458 -26.75404 28.460258
-31.651899 -47.690933 24.872667
-32.10429 -25.521416 22.612995
-31.651899 -40.498127 25.283092
-29.475483 -25.681005 32.633553
-31.651899 -46.838955 25.695885
-34.968727 -37.887798 28.317291
-35.204823 -37.887798 30.013254
-32.104412 -30.054993 26.71656
-30.691547 -44.722679 32.150501
-32.1133 -28.756622 15.877384
-32.1133 -28.811779 17.388668
-26.551903 -24.614113 32.634789
-24.139658 -47.315006 32.150501
-32.10434 -31.812311 23.352896
-34.002491 -29.741573 31.062201
-32.10442 -27.682701 27.306156
-37.046787 -37.887798 22.955757
-31.919136 -38.18668 23.169138
-32.104599 -25.661201 32.612659
-23.85743 -29.058037 32.635906
-20.85573 -45.551105 32.150501
-31.651897 -42.537502 25.126905
-31.651897 -46.017769 26.24288
-33.401821 -37.887794 31.331444
-31.651899 -46.970852 23.913713
-35.354443 -37.887798 29.38295
-35.407501 -30.582193 30.702297
-32.1045 -28.098457 29.748028
-35.163078 -37.887798 24.241665
-36.679157 -37.887798 28.694748
-33.058769 -29.4897 29.737003
-33.649132 -37.887798 26.053379
-32.986801 -36.096535 30.540173
-35.058731 -39.717606 31.740871
-28.451365 -30.453091 32.633965
-31.676506 -38.460823 21.127872
-26.568106 -30.653847 32.634758
-28.429058 -44.442474 32.150501
-28.885151 -38.653328 32.150501
-36.586327 -45.929394 31.423275
-34.666527 -42.218773 31.423296
-34.321323 -30.782248 30.7346
-31.651899 -39.943768 16.322685
-31.651899 -44.046844 16.297874
-31.651901 -46.274776 28.955599
-31.651899 -42.916992 26.0938
-27.095797 -39.256863 32.150501
-31.651899 -40.014896 16.197998
-26.85058 -41.522636 32.150501
-32.1133 -29.510834 17.438148
-31.651899 -46.427795 25.538729
-24.175514 -24.377993 32.635788
-25.364639 -34.846783 32.63525
-32.1133 -29.264547 16.921398
-32.104424 -35.759953 26.039064
-34.119041 -44.212364 31.776859
-31.651901 -44.648273 22.553116
-31.651897 -40.571014 21.737232
-31.651897 -38.499641 29.16835
-32.1133 -31.292118 16.946095
-28.532116 -27.350235 32.633942
-31.850367 -34.584934 32.632519
-22.475269 -26.902443 32.636497
-22.332897 -39.143501 32.150501
-32.104416 -33.082584 26.118376
-32.1133 -30.665356 15.312931
-31.651899 -40.816376 29.788912
-32.104553 -36.520535 31.112089
-28.012426 -39.124969 32.150501
-31.651901 -42.466915 18.366043
-25.101276 -32.328243 32.635372
-32.359844 -37.887798 19.980387
-32.104347 -34.521385 23.136509
-22.022203 -43.741302 32.150501
-31.651901 -38.556385 31.821278
-33.697224 -29.84333 31.062199
-31.941214 -37.887798 28.00629
-32.104397 -30.150631 26.016479
-32.104328 -35.20332 22.148886
-23.898357 -38.681023 32.150501
-23.267113 -45.529945 32.150501
-31.651899 -45.849796 21.294432
-30.381638 -35.022728 32.633137
-34.294853 -32.117958 30.7346
-32.104275 -25.258739 22.115223
-31.651897 -43.304871 19.889032
-26.429546 -46.091858 32.150501
-27.236355 -25.67696 32.634495
-32.104347 -30.531902 24.001842
-32.104469 -37.394634 27.474485
-32.104458 -34.187187 27.822378
-31.651897 -43.859612 30.381134
-31.651899 -47.483936 26.396572
-32.104542 -29.963499 30.927406
-32.104408 -31.906015 26.156378
-31.651901 -41.141792 20.913956
-23.980543 -37.587372 32.635822
-32.104336 -24.965239 24.590393
-31.651899 -42.980865 29.325424
-32.986801 -32.611473 30.389435
-33.825363 -37.179073 29.6679
-32.104534 -35.827564 30.427383
-33.712631 -37.887798 20.638609
-31.651897 -47.968307 25.402056
-32.104343 -26.896793 24.562511
-31.651899 -45.351295 16.931767
-31.651899 -43.225037 20.18935
-22.709639 -36.106525 32.636364
-32.113304 -28.832254 17.1395
-27.868065 -23.860876 32.634239
-27.709244 -27.711031 32.634289
-32.262482 -37.887798 16.718025
-29.151424 -26.56255 32.633686
-32.104538 -36.318825 30.52109
-20.766535 -46.193436 32.150501
-32.1045 -35.031387 29.254166
-31.651897 -47.15136 31.236044
-22.103716 -38.092964 32.47094
-31.10438 -46.793282 32.150501
-32.633961 -37.887798 24.946188
-33.075089 -37.887798 22.860344
-32.104454 -30.566448 28.379162
-31.651901 -38.689186 31.488152
-32.104431 -25.036461 27.670925
-33.018997 -37.887798 26.007233
-24.439732 -41.573689 32.150501
-32.1133 -34.526939 19.451328
-33.201866 -37.887798 27.112106
-31.651899 -44.178047 28.672716
-36.309326 -37.887798 28.867504
-24.077915 -42.231354 32.150501
-27.336655 -26.740902 32.634449
-32.104404 -24.428093 26.804287
-21.982332 -37.226048 32.636665
-32.104298 -26.143614 22.899918
-31.651897 -46.26955 29.033981
-36.217075 -30.692913 30.7346
-32.104599 -33.850529 32.622894
-29.00392 -30.427711 32.633732
-28.103701 -47.384205 32.150497
-31.651899 -44.785187 19.230072
-31.651901 -46.536213 29.543686
-28.319878 -35.626514 32.634003
-32.341457 -44.171364 31.935499
-28.668434 -37.411644 32.633846
-27.498816 -33.030567 32.634357
-31.651897 -42.40802 19.959675
-21.206024 -45.583488 32.150501
-36.722008 -37.887798 28.962837
-32.104328 -30.375809 23.146137
-32.104336 -24.563358 24.749447
-32.1133 -32.29274 15.066289
-31.651897 -40.620773 18.153757
-32.104298 -32.475925 21.511429
-32.615883 -42.671612 31.935497
-32.104485 -27.995007 29.122768
-35.615673 -37.887802 15.292464
-32.104515 -31.927727 30.163881
-22.570585 -40.686859 32.150501
-31.651901 -45.383091 22.174482
-35.746559 -44.78347 31.423285
-32.104523 -35.406971 30.097977
-31.651901 -40.256531 22.890583
-29.575336 -45.460442 32.150501
-31.651899 -40.085819 26.092937
-37.392929 -39.35902 31.935499
-28.21273 -30.114935 32.634071
-33.897099 -31.310356 30.458681
-32.104542 -29.451511 30.863388
-32.986801 -33.464436 30.283951
-34.280537 -37.887802 27.911064
-25.884663 -39.200428 32.150501
-31.651897 -42.792118 25.035919
-31.651899 -40.005486 27.94776
-32.1133 -34.563499 15.181889
-26.273026 -29.133902 32.634888
-32.104324 -29.226288 23.186653
-29.616577 -37.363552 32.633453
-36.815731 -37.887798 27.989239
-22.752678 -32.461563 32.636356
-24.305328 -43.742737 32.150501
-29.943274 -37.799313 32.633308
-32.104454 -35.933502 27.082268
-34.333557 -36.053036 30.7346
-32.104473 -33.622204 28.33889
-32.10429 -32.77589 21.187126
-31.651901 -40.226006 18.140013
-24.987486 -36.996635 32.635403
-31.651899 -43.638752 29.135765
-31.651897 -45.620865 21.419617
-32.10429 -26.340302 22.473774
-32.104454 -32.984535 27.623657
-31.651899 -44.498589 17.805267
-32.104332 -34.193596 22.592598
-32.104443 -34.504982 26.955343
-31.651901 -41.697136 31.917095
-25.511889 -31.147242 32.635201
-35.103302 -37.887802 18.377533
-31.651899 -42.835388 19.678665
-28.781311 -38.784092 32.150501
-32.104584 -27.934385 32.24424
-31.651899 -48.072021 28.183481
-32.104317 -36.741467 21.439405
-32.104317 -35.958523 21.542179
-31.651901 -47.803772 17.917118
-29.923012 -28.114813 32.633354
-31.240208 -31.34804 32.63279
-23.143497 -43.489105 32.150501
-30.248684 -30.944096 32.633209
-32.104301 -36.523777 20.788086
-32.104355 -31.708214 24.044964
-31.651897 -40.114651 30.248463
-31.45425 -39.26506 32.150501
-32.295383 -37.887798 15.046197
-25.681484 -26.721075 32.635147
-32.104481 -33.618771 28.710146
-29.818754 -46.99192 32.150501
-32.19175 -37.887798 19.880686
-32.108501 -37.244476 19.232489
-22.436749 -32.046925 32.636494
-26.314148 -24.948196 32.634888
-32.3218 -36.641495 17.734129
-23.568672 -28.020563 32.636032
-31.651899 -41.025795 29.484381
-32.986801 -35.567051 30.108719
-32.104431 -35.014599 26.350945
-32.104267 -27.072372 21.33802
-24.090551 -39.487144 32.150501
-31.651897 -39.351925 25.741007
-35.709213 -41.006062 31.423283
-32.104237 -24.251652 20.762516
-37.139404 -37.887798 23.496771
-31.651897 -44.746311 25.227673
-32.10437 -29.553381 25.040661
-31.651897 -41.602608 19.350466
-32.104557 -28.636496 31.362488
-32.10442 -29.245554 27.249865
-31.651899 -47.285458 22.683983
-36.180542 -37.887798 28.412319
-37.929447 -33.99926 30.7346
-29.017914 -46.274754 32.150501
-35.946281 -37.887798 26.228575
-31.651899 -42.145588 19.272932
-25.672802 -42.781963 32.150501
-32.104366 -32.361481 24.304241
-33.381905 -37.887798 28.361185
-32.104523 -34.588589 30.276966
-32.104469 -30.416294 28.752193
-32.104465 -25.685328 28.607666
-32.287415 -25.67737 20.463493
-32.3218 -31.155733 20.343952
-31.651899 -45.453861 22.776308
-22.337524 -32.731651 32.636532
-32.895203 -48.220589 31.935499
-31.835457 -38.279736 19.33028
-32.179081 -37.174274 17.864756
-32.1133 -31.742819 16.844046
-32.256371 -32.921963 20.494366
-32.104458 -31.769775 28.163649
-33.897099 -34.286621 29.878887
-32.1133 -28.15192 18.178806
-31.651899 -39.641613 23.239206
-31.828205 -38.287434 26.239151
-21.381947 -31.012211 32.63694
-32.1133 -33.875 16.259256
-27.286924 -39.549442 32.150501
-31.651897 -45.814842 23.98839
-32.978565 -43.049145 31.935499
-35.078766 -37.887798 20.731033
-32.1133 -26.093884 17.423183
-33.402554 -40.793709 31.935499
-32.1133 -26.802341 18.689804
-26.172699 -44.364281 32.150501
-21.829107 -29.35817 32.636761
-34.589169 -37.887798 22.648201
-31.651899 -46.342865 25.531563
-27.680986 -36.805271 32.63427
-21.783709 -47.125229 32.150501
-35.508442 -37.946274 32.057732
-36.2677 -37.887798 15.524493
-33.828735 -37.887798 28.450817
-33.645477 -40.216564 31.935499
-28.663521 -45.929527 32.150501
-24.455198 -34.339886 32.635632
-28.244045 -30.361485 32.634056
-31.651897 -40.927002 16.683409
-29.226427 -24.927107 32.633659
-32.986801 -35.291119 30.43795
-28.778936 -31.897243 32.633823
-32.104336 -30.536932 23.444399
-24.564255 -38.798874 32.150501
-32.81179 -42.25779 31.935499
-32.986801 -32.38414 30.170177
-27.803192 -46.331806 32.150501
-31.961632 -38.139282 28.032715
-31.651899 -41.352306 25.631699
-31.651901 -39.771103 19.257465
-27.923183 -31.13888 32.634186
-32.104393 -31.348167 25.549353
-36.518158 -37.887798 17.370535
-32.104301 -24.397778 23.374922
-32.104362 -31.810116 24.122849
-31.651901 -44.482128 25.081999
-32.3218 -36.654121 17.286224
-35.031345 -37.887798 25.9699
-33.449238 -32.144691 30.911999
-33.315613 -37.887802 31.858574
-31.651899 -47.092804 22.56469
-31.651899 -48.685268 25.580456
-32.104263 -23.057419 22.125313
-33.355904 -33.373665 30.911999
-31.651899 -39.846085 26.84478
-32.1133 -30.661823 15.68364
-31.651899 -44.400291 27.833862
-32.104538 -34.555138 30.714973
-31.710768 -37.99017 32.621395
-32.104454 -25.653088 28.344217
-35.577171 -43.283287 31.423286
-32.10434 -35.636623 22.584141
-28.490501 -25.133736 32.633968
-32.104267 -27.798525 21.261776
-34.218899 -37.887798 24.711275
-31.651897 -46.071056 18.095615
-32.193367 -29.695953 20.557024
-32.1133 -33.985577 17.535521
-32.104355 -31.049419 24.123964
-31.651901 -40.409351 24.542229
-32.130428 -36.141273 15.011952
-32.113297 -31.439573 18.005219
-36.377338 -45.607758 31.423279
-32.62574 -45.443573 31.935497
-23.970055 -35.059181 32.635841
-32.1133 -26.179714 19.45719
-34.090847 -40.53801 31.813036
-31.651901 -41.870678 16.380909
-34.366306 -47.188042 31.4596
-32.104301 -37.347942 20.794569
-32.104538 -33.931011 30.728479
-34.799694 -37.887798 15.732989
-32.1133 -28.204077 18.557476
-21.72027 -43.580158 32.150501
-26.115231 -30.975716 32.634949
-28.305401 -26.893246 32.634041
-35.101753 -33.229145 30.7346
-34.010349 -41.340683 31.916319
-31.651899 -40.601509 23.690599
-33.29174 -37.887798 30.718956
-26.651226 -24.977665 32.634747
-32.104256 -27.261402 20.870789
-32.1133 -26.776833 16.469761
-32.104397 -33.706951 25.310343
-32.104343 -36.579372 22.494896
-29.587387 -28.564735 32.633495
-33.413033 -37.887798 20.030647
-22.577997 -44.41246 32.150501
-34.42831 -45.86108 31.423298
-31.651899 -44.797302 21.388868
-27.107965 -44.186005 32.150501
-23.345034 -46.732857 32.150501
-36.104912 -37.887798 21.22123
-34.079239 -40.704681 31.827927
-31.446785 -32.230202 32.632698
-31.651897 -40.419193 28.036577
-27.280594 -33.647671 32.634445
-32.104454 -31.954311 28.142241
-34.578045 -39.393318 31.935501
-34.896545 -41.860352 31.423296
-33.970478 -37.887798 18.728077
-32.10437 -32.788059 24.464493
-35.23204 -32.449829 30.7346
-34.034824 -37.887798 20.62685
-23.132805 -29.606485 32.636211
-32.994522 -44.39724 31.935501
-32.986801 -32.508179 30.40419
-35.718964 -30.6313 30.868481
-31.651897 -40.476677 29.165825
-31.651897 -45.763996 29.250546
-28.722263 -25.098999 32.633873
-31.651901 -44.627762 16.605806
-31.651901 -40.703407 25.232216
-31.651899 -42.621361 23.988882
-28.211033 -45.627014 32.150501
-25.194904 -45.642105 32.150501
-32.104351 -29.603746 24.20035
-26.684433 -44.114868 32.150501
-31.651899 -45.304581 21.693432
-31.651899 -46.462475 27.452335
-25.070013 -37.574436 32.635365
-34.0481 -30.200809 30.809134
-32.104462 -27.105822 28.575171
-32.1133 -33.800972 16.809498
-36.258923 -33.829426 30.7346
-32.1133 -31.829123 17.02873
-34.135727 -41.521835 31.755451
-36.250652 -34.041355 30.7346
-31.651901 -43.576195 28.455536
-23.019279 -45.632847 32.150501
-22.063168 -32.55238 32.63665
-32.1133 -32.326515 14.236216
-31.651901 -44.423824 17.475245
-31.651897 -48.311436 23.021732
-31.651897 -40.942787 29.541399
-31.651897 -43.151733 19.029684
-27.709423 -23.433754 32.634304
-31.651897 -45.054626 28.017548
-31.651899 -42.59919 25.320799
-35.827503 -41.907997 31.423283
-32.1133 -32.383266 15.215421
-32.104298 -33.714672 21.260744
-32.104492 -24.951017 29.407612
-31.651897 -48.308823 28.095985
-31.651897 -43.199577 17.174616
-32.104519 -26.217514 30.21699
-31.651897 -45.040905 30.442371
-33.650494 -37.887798 17.692574
-28.706577 -31.394592 32.633854
-31.651897 -41.639 24.161495
-31.791025 -31.049603 32.632557
-28.033169 -46.780746 32.150501
-32.104519 -34.209534 30.234661
-31.651899 -40.204266 24.309837
-33.120579 -37.887798 15.749434
-32.104507 -27.085268 29.960194
-35.342369 -38.044586 32.125099
-31.651899 -44.613354 18.027027
-28.405148 -43.928654 32.150501
-36.546337 -37.887798 31.685705
-32.104462 -36.132076 27.471008
-29.393274 -35.868401 32.633549
-32.986801 -34.043716 30.890682
-28.396877 -42.51239 32.150501
-31.93548 -38.168575 22.571892
-28.744026 -41.980934 32.150505
-32.104492 -34.808838 29.036665
-31.651899 -41.183907 20.541941
-32.3218 -32.142216 20.277054
-32.287117 -29.889317 20.463791
-32.104546 -31.817402 30.933216
-31.651897 -41.665413 23.90168
-32.104286 -30.721111 21.495615
-27.803076 -46.550148 32.150501
-33.897099 -34.230202 30.293465
-32.104542 -37.602951 30.383698
-32.104439 -37.503468 26.085062
-31.651899 -43.579796 21.950302
-32.10434 -27.409121 24.336964
-31.716709 -38.411091 27.733797
-21.378302 -37.158962 32.636921
-22.33077 -31.45962 32.636539
-35.366859 -30.452024 30.702301
-32.213013 -43.583839 31.935501
-29.070009 -41.859734 32.150501
-37.05431 -37.887798 25.664017
-32.3218 -25.951912 20.15593
-31.651901 -41.936577 28.716614
-33.151474 -29.4897 30.24567
-35.709877 -48.170731 31.935497
-36.865593 -43.210968 31.423275
-23.738258 -45.964615 32.150501
-31.651901 -44.072083 22.097244
-32.1133 -28.746588 16.016907
-24.061457 -43.012077 32.150501
-24.757824 -44.925793 32.150501
-29.411333 -32.36039 32.633553
-32.104568 -25.940514 31.70536
-34.408062 -35.158371 30.7346
-21.999657 -34.630821 32.636669
-35.450073 -37.887798 23.573782
-32.104546 -26.593256 31.12628
-35.483097 -44.41832 31.423288
-34.348686 -44.542671 31.482208
-32.104523 -32.06916 30.413902
-21.153866 -42.874542 32.150501
-33.890064 -30.792528 30.912001
-34.82468 -33.562962 30.7346
-32.104385 -34.205189 24.782246
-31.651897 -38.601601 16.784924
-30.564461 -28.118551 32.633087
-31.651901 -41.13131 21.001766
-32.104328 -35.67622 22.070793
-31.651899 -41.845413 16.491951
-32.104443 -36.01442 26.666241
-20.647057 -47.995132 32.150501
-31.651897 -41.278519 20.271503
-32.104328 -27.54739 23.745663
-32.104351 -24.653606 25.247032
-32.3218 -35.062771 19.816204
-31.651901 -41.621201 25.32542
-22.675289 -47.274998 32.150501
-30.95409 -27.974403 32.632923
-21.830885 -38.646194 32.150501
-32.104427 -29.934626 27.296562
-32.3218 -32.899147 19.932838
-34.967903 -36.626301 30.774208
-24.329391 -38.431347 32.233185
-22.537714 -29.089785 32.636459
-31.651901 -39.436951 20.940502
-32.10442 -33.884483 26.159353
-32.1133 -26.118572 18.816593
-31.651899 -43.97155 24.497389
-33.868721 -30.295036 29.5177
-32.986801 -32.172398 30.579184
-31.956097 -38.145546 25.654537
-38.110268 -34.428116 30.7346
-31.651897 -43.499802 25.221703
-28.95105 -32.075489 32.633751
-21.904596 -40.323391 32.150501
-32.113297 -25.753689 16.911528
-33.769798 -37.887798 22.508455
-27.766352 -45.885479 32.150501
-35.041824 -37.887798 21.435961
-35.811768 -37.887798 30.783636
-31.405006 -35.997696 32.632702
-31.651901 -42.171532 23.294619
-31.651901 -42.532127 25.740707
-31.423281 -27.386929 32.632725
-31.05731 -28.854164 32.632874
-23.296946 -37.806728 32.636112
-31.767584 -38.35688 20.124777
-33.026775 -46.090649 31.935501
-24.12611 -34.857254 32.635769
-29.900398 -34.414173 32.633343
-34.418442 -34.275742 30.7346
-32.104408 -32.258698 26.119703
-29.161503 -41.393532 32.150501
-32.1133 -28.159811 18.871929
-32.104416 -35.157227 25.739292
-23.379332 -41.557953 32.150501
-37.536251 -39.970795 31.423265
-32.104382 -35.549145 24.345135
-32.104595 -24.801538 32.529396
-24.429146 -42.760372 32.150501
-32.104443 -31.600485 27.523317
-32.28212 -37.887798 28.444744
-32.1133 -33.71616 15.927155
-22.25787 -27.998922 32.636581
-32.104382 -24.715214 26.136368
-30.309868 -37.761433 32.633156
-26.009741 -41.868439 32.150501
-30.880953 -24.654789 32.632965
-32.104599 -29.547419 32.594425
-31.651899 -44.253193 27.578917
-32.1133 -27.86063 16.913115
-36.794586 -38.416168 31.935497
-37.418411 -39.744804 31.689579
-32.1133 -25.390522 19.268356
-32.104458 -33.971088 27.635372
-32.1133 -28.557772 15.892763
-31.651901 -38.880379 19.230429
-27.306564 -39.136566 32.150501
-32.986801 -35.290756 29.71265
-32.369499 -37.887794 18.946312
-31.651897 -46.29491 29.195435
-32.104473 -37.945076 28.225632
-31.651897 -44.913761 18.877018
-28.013828 -47.977085 32.150501
-22.68924 -36.53038 32.636372
-32.259094 -43.809799 31.935501
-31.651901 -43.849236 21.881559
-28.423546 -46.795746 32.150501
-31.730824 -38.396297 25.161886
-34.939564 -37.887798 26.355654
-22.902008 -38.217228 32.379398
-32.986801 -32.427025 29.858299
-34.646156 -42.674084 31.423294
-32.104473 -32.469181 28.609568
-36.003078 -37.887798 17.215202
-24.864985 -35.722324 32.63546
-33.897099 -34.471069 30.620495
-31.651897 -48.237354 24.481958
-31.651899 -45.436726 20.629677
-29.360226 -31.32453 32.633583
-31.954304 -37.887798 19.219252
-32.104122 -37.437912 15.06984
-34.799461 -43.066795 31.423298
-26.877514 -40.480637 32.150501
-37.1189 -37.887798 21.774441
-32.104485 -33.498413 28.862263
-28.016657 -25.807823 32.634167
-28.642641 -42.804733 32.150501
-31.645384 -41.801033 32.150501
-29.597233 -37.310745 32.633461
-31.651897 -40.573067 21.098635
-31.651901 -42.867306 29.277882
-32.104591 -28.005299 32.437294
-35.76852 -48.193657 31.935501
-28.842348 -35.253181 32.633785
-32.1133 -32.716396 17.155907
-31.651901 -40.607372 24.221546
-24.566416 -39.172417 32.150501
-32.113304 -30.497944 16.950714
-36.973427 -33.298542 30.7346
-32.104393 -26.084614 26.432076
-23.009323 -37.878868 32.63623
-31.651899 -40.217236 21.231781
-34.972279 -43.636078 31.423296
-31.651901 -42.55632 16.456396
-32.1133 -25.256687 17.49621
-32.10434 -32.123573 23.328255
-32.1133 -32.281334 18.550137
-32.405586 -37.887798 19.449375
-36.557125 -37.887798 20.618412
-32.986801 -36.710953 30.271503
-31.651899 -42.362572 18.809052
-35.462708 -37.887798 28.782133
-25.915318 -33.774445 32.635021
-31.651897 -41.474945 28.222401
-32.104351 -26.839598 24.839228
-32.113304 -26.007551 16.849102
-32.104393 -33.073402 25.273834
-25.496857 -26.126522 32.635223
-32.3218 -24.722897 19.742786
-25.24822 -36.249474 32.635292
-23.775963 -32.806042 32.635925
-32.199318 -37.887794 18.233229
-33.897099 -31.069996 30.883345
-31.651899 -44.972641 18.436924
-32.104347 -37.537682 22.964338
-23.111877 -36.113785 32.636192
-25.336212 -40.884075 32.150501
-29.098034 -37.844051 32.633667
-32.104424 -26.708084 27.381134
-32.104378 -34.615753 24.270237
-25.636068 -40.748371 32.150501
-36.210129 -37.887798 25.241993
-32.104309 -31.741158 22.085999
-32.104412 -36.884621 25.313787
-32.104309 -31.875204 22.095985
-30.646732 -26.935055 32.633057
-23.078697 -33.566814 32.636219
-32.104374 -36.305573 23.726578
-30.713722 -42.32518 32.150501
-31.651899 -46.765839 23.067589
-31.651899 -43.079903 30.559578
-32.104446 -30.778435 27.983618
-25.682678 -27.251907 32.635147
-32.986801 -34.654457 30.349693
-21.194387 -48.100307 32.150501
-32.104385 -34.210423 24.643021
-32.104427 -36.709202 25.75765
-32.104534 -35.514538 30.553471
-32.104378 -35.713348 24.205849
-34.523136 -35.70734 30.7346
-27.323566 -43.51123 32.150501
-36.060966 -37.887798 22.498486
-23.973145 -44.365028 32.150501
-32.104462 -30.371984 28.510199
-34.13134 -33.62104 30.7346
-27.44179 -24.37775 32.634415
-33.145981 -38.85601 31.935497
-34.527817 -33.285759 30.7346
-32.1133 -32.739792 18.544125
-31.651897 -44.777931 24.857037
-36.332714 -30.596064 30.960098
-23.456133 -36.881344 32.636044
-31.651899 -39.184528 17.765509
-36.419086 -33.430485 30.7346
-32.104496 -35.03796 28.974495
-29.925617 -36.254951 32.633324
-27.939198 -30.660858 32.634182
-32.1133 -34.52573 15.771148
-32.1133 -28.784744 16.97703
-34.282364 -40.571686 31.567305
-35.638111 -37.887798 23.560476
-23.163479 -40.282005 32.150501
-29.683109 -29.464005 32.63345
-22.922792 -44.813766 32.150501
-23.704254 -45.644356 32.150501
-32.986801 -35.042038 29.819912
-32.204102 -37.149429 18.66169
-31.651899 -48.565536 30.611845
-32.131531 -25.535378 19.53911
-36.843742 -46.527046 31.423271
-31.651899 -39.418728 16.554922
-32.104305 -30.86932 22.068233
-32.1133 -34.2658 17.232553
-31.958324 -38.143585 15.361313
-31.651901 -41.011356 28.48774
-37.536919 -33.073006 30.7346
-32.104435 -31.661333 27.30077
-32.104454 -25.895828 28.203644
-32.3218 -36.891338 19.903934
-32.236481 -37.887798 23.437366
-32.104374 -35.362511 23.989506
-32.104263 -27.706108 21.184574
-26.491705 -38.896172 32.150501
-31.651899 -45.915863 17.662472
-35.095276 -41.761879 31.423294
-29.870045 -47.690212 32.150501
-31.700558 -38.431442 24.402458
-30.946404 -26.587795 32.632931
-33.475178 -34.584167 30.912003
-21.14349 -42.174683 32.150501
-30.808321 -35.105015 32.632957
-31.651897 -44.029945 27.927549
-30.097399 -45.001389 32.150501
-32.1133 -33.084652 18.418539
-31.651899 -48.582687 22.861122
-33.397942 -45.343842 31.935499
-32.104588 -35.318748 32.275696
-24.823608 -34.720459 32.635475
-37.67057 -37.887798 29.794958
-32.104282 -26.016672 22.185635
-26.76701 -32.943562 32.634666
-31.651897 -41.264038 21.414661
-32.020744 -38.074226 17.133636
-31.651899 -48.383549 16.872915
-23.119259 -28.79604 32.636219
-32.104446 -34.799458 27.116812
-36.488308 -37.887802 31.817387
-33.897099 -32.094299 30.480383
-34.687164 -37.887798 30.717077
-33.502705 -29.790815 29.5177
-31.651899 -46.694229 26.849491
-31.484505 -48.591099 32.150501
-33.897099 -35.785965 30.589216
-31.651901 -43.269585 27.463587
-36.557602 -37.887798 22.666454
-32.104328 -29.130791 23.514984
-22.776918 -40.465786 32.150501
-22.918581 -42.318943 32.150501
-31.651899 -48.42355 27.108541
-31.651901 -41.186836 20.527868
-25.790279 -25.126774 32.635105
-25.149471 -43.426376 32.150501
-31.651899 -45.987972 17.989841
-34.109962 -37.887794 31.443115
-30.824238 -24.680817 32.632988
-31.651897 -39.209431 22.680099
-32.104439 -31.872131 27.415569
-28.701284 -42.757339 32.150501
-24.098259 -41.132469 32.150501
-24.5648 -35.450985 32.635586
-32.104565 -31.827377 31.63501
-22.64077 -42.125843 32.150501
-35.970039 -37.887798 27.679634
-32.258316 -36.261311 16.83032
-36.447834 -42.069916 31.423277
-21.162151 -46.453239 32.150501
-31.651897 -45.138336 31.799433
-24.02058 -31.67783 32.635826
-32.178429 -36.186333 15.520651
-28.309076 -47.191681 32.150501
-32.104454 -35.060932 27.301022
-31.651899 -44.46405 23.820362
-23.354816 -45.420261 32.150501
-21.195316 -44.901669 32.150501
-31.651899 -40.578411 26.310305
-32.104256 -24.547558 21.509251
-32.104305 -32.862167 21.66926
-31.651899 -47.879635 23.442726
-28.99052 -23.752487 32.633766
-36.928528 -37.887798 29.944324
-36.015991 -40.21904 31.423283
-31.651901 -42.97834 17.294693
-32.104416 -26.445198 27.068077
-33.393608 -30.113632 29.5177
-27.419809 -40.581898 32.150501
-32.104424 -30.570234 26.923954
-33.897099 -36.946236 30.273682
-32.104351 -37.165207 22.645689
-27.322887 -44.475624 32.150501
-31.887363 -38.22216 18.779684
-30.897167 -39.556084 32.150501
-34.787807 -38.610481 31.935499
-32.104576 -30.137955 31.954845
-24.640785 -30.351837 32.635571
-37.647018 -33.89621 30.7346
-28.969675 -36.506409 32.633728
-32.1133 -25.701115 16.887798
-32.104458 -25.528683 28.407101
-33.546043 -37.977303 32.122589
-36.723137 -35.204296 30.7346
-36.893917 -36.235001 30.788008
-31.651901 -46.141918 16.503017
-32.266884 -41.906658 31.935499
-32.104351 -35.491436 23.053997
-29.776617 -48.522778 32.150501
-32.104404 -37.783268 25.560701
-26.346069 -23.10474 32.63488
-31.651899 -47.443699 20.290827
-22.621405 -40.752983 32.150501
-23.399725 -34.09631 32.636082
-32.104103 -37.622963 14.866206
-37.074383 -37.887798 22.826866
-32.104431 -30.463743 27.310059
-31.651897 -44.73336 17.552971
-22.750561 -36.967079 32.636345
-32.1133 -35.697021 14.984722
-32.10437 -30.524448 24.929077
-32.104401 -27.170897 26.704971
-32.104576 -28.612915 31.957319
-28.973923 -42.8899 32.150497
-31.651901 -45.269691 20.521799
-35.248699 -37.887798 27.66576
-21.833155 -35.798962 32.636734
-29.993183 -44.369076 32.150501
-31.051828 -38.349827 32.30381
-31.37928 -39.101593 32.150501
-22.796314 -44.048424 32.150501
-32.1133 -35.214314 17.556019
-31.651897 -46.698997 18.11125
-26.756596 -23.903507 32.634705
-35.77882 -33.280426 30.7346
-28.660702 -23.644508 32.633904
-32.104336 -30.144064 23.51663
-26.17421 -24.613581 32.634945
-24.778549 -27.613178 32.635521
-27.080292 -47.361061 32.150501
-36.042397 -37.887798 15.574923
-31.651897 -42.159851 25.923504
-33.387039 -37.887798 26.226494
-32.104362 -35.702747 23.533619
-36.876877 -36.626297 30.841057
-35.412647 -46.399948 31.423288
-32.104343 -37.48951 22.775951
-32.986801 -37.026951 29.998276
-26.909931 -29.29023 32.634621
-25.443565 -37.289898 32.635208
-31.651897 -46.97142 30.928825
-33.673546 -37.887798 17.93779
-31.90514 -38.202324 20.911329
-31.651901 -44.024601 16.919584
-37.174763 -37.887798 31.72197
-32.104347 -36.469139 22.677952
-26.177834 -31.215738 32.634922
-32.104431 -28.017624 27.533978
-32.825817 -37.887798 31.88657
-32.104347 -33.156574 23.237623
-32.104321 -26.113659 23.750313
-27.795547 -27.110968 32.634254
-31.651901 -46.135384 19.955738
-32.104416 -33.678066 26.030659
-28.545258 -34.727413 32.633911
-31.651899 -47.09129 24.303143
-31.937241 -38.166672 21.607319
-27.183636 -32.260105 32.634495
-31.651899 -45.142853 16.712307
-32.104404 -36.605835 25.01973
-21.045704 -47.56385 32.150501
-29.184013 -41.667828 32.150501
-34.597496 -48.140617 31.935497
-32.104507 -37.403069 29.056938
-32.104118 -37.30661 15.143733
-25.496862 -39.584206 32.150501
-29.735535 -33.401455 32.633415
-28.88625 -41.956146 32.150501
-32.104271 -30.218069 20.896626
-31.651897 -45.95702 28.804873
-26.5163 -23.073891 32.634811
-26.132664 -30.542961 32.634941
-31.651897 -42.161072 21.249092
-24.173859 -26.567467 32.63578
-32.1133 -25.717493 16.986237
-31.651897 -47.134987 25.997503
-33.479069 -37.887798 21.960497
-25.218376 -24.833183 32.635349
-32.104382 -30.503677 25.270811
-32.1133 -26.165438 19.147188
-35.817802 -37.887794 26.209433
-30.510263 -26.157269 32.633114
-24.402645 -44.195644 32.150501
-32.986801 -34.906872 30.376312
-29.421213 -33.272587 32.633549
-31.651899 -38.75005 28.888662
-31.651901 -43.538307 31.621475
-35.880619 -38.96714 31.935499
-32.104553 -25.999357 31.224415
-30.70595 -44.142479 32.150501
-32.104565 -30.937258 31.639921
-31.651901 -43.456192 24.002256
-32.104294 -31.976973 21.520765
-32.986801 -34.1315 29.673048
-36.962791 -37.887798 21.281425
-31.895346 -34.590267 32.6325
-29.143425 -38.45192 32.21571
-32.104286 -31.809738 21.229143
-33.897099 -33.017467 30.777067
-31.651901 -43.004166 25.564482
-32.420151 -37.887798 30.805393
-35.719391 -37.887798 31.108252
-24.256641 -34.023941 32.635719
-32.1133 -30.971222 16.346535
-31.651899 -42.144073 26.742956
-21.745943 -25.693714 32.636803
-32.104408 -30.872625 26.324228
-29.321003 -27.213169 32.633614
-32.90414 -37.887798 23.463404
-31.651899 -45.962631 25.45887
-31.651897 -43.657104 18.661102
-32.10434 -26.409206 24.441521
-32.188137 -47.939121 31.935499
-31.651899 -40.680386 23.817314
-32.159912 -33.537106 19.56575
-32.1133 -27.990273 17.824505
-32.1045 -36.36454 28.870239
-31.651899 -45.639034 26.486998
-32.284878 -36.286243 19.266504
-32.104485 -27.432873 29.121429
-32.104477 -26.307615 29.000099
-31.689142 -38.4431 27.025208
-31.651899 -48.085388 30.64579
-32.113297 -26.153084 18.83639
-32.104271 -25.493809 21.727547
-32.104488 -34.04089 28.984383
-21.974888 -30.935661 32.636692
-33.52993 -45.052326 31.935497
-32.1133 -35.119541 16.979383
-32.198372 -29.273046 20.552048
-34.928631 -37.887798 30.186445
-32.104332 -28.692101 23.682842
-24.446081 -39.874378 32.150501
-32.038334 -38.054474 21.823086
-24.4189 -48.271072 32.150501
-32.104504 -36.974205 28.981323
-31.651899 -43.589211 27.032085
-28.311501 -41.934204 32.150501
-32.760162 -37.887798 21.966263
-31.651897 -47.567257 31.406101
-34.298107 -45.188683 31.547108
-32.104275 -28.040737 21.500948
-32.042389 -36.605038 32.632431
-32.1133 -34.792793 15.507762
-21.829676 -34.695728 32.636742
-27.543018 -36.423985 32.634331
-32.104496 -36.556961 28.801418
-31.651899 -48.144096 31.442417
-32.104294 -30.934462 21.666348
-33.540077 -37.887798 31.554787
-32.264771 -36.267368 16.339876
-26.382858 -24.198273 32.634861
-32.104462 -37.466862 27.135473
-32.104362 -32.405411 24.137909
-31.651899 -40.21666 29.568836
-32.104397 -32.654922 25.593853
-32.620598 -37.887798 21.037941
-31.651901 -41.20393 19.741835
-32.104336 -29.06818 23.813835
-31.714333 -38.417473 21.056644
-31.651901 -41.587589 20.594843
-33.474411 -37.253162 30.911999
-32.104588 -26.888327 32.289261
-32.104492 -35.97966 28.805761
-32.104481 -34.513672 28.550201
-31.651899 -45.825733 32.08638
-32.104469 -33.663177 28.346973
-34.725151 -37.887798 29.428719
-32.104324 -25.1731 24.210424
-36.215736 -36.598972 30.9972
-31.123709 -30.025158 32.632843
-32.3218 -25.673004 19.948257
-32.1133 -34.236462 16.568068
-32.104424 -29.049576 27.481049
-31.651901 -42.854015 32.017715
-31.651899 -40.444237 19.221622
-36.508202 -43.383553 31.423275
-32.104534 -24.551493 30.660259
-33.897099 -33.854237 30.436588
-36.734367 -30.404371 30.702301
-34.274464 -35.274609 30.7346
-31.651901 -45.336739 24.674425
-32.1133 -27.856995 18.603004
-32.138802 -30.093723 20.611269
-31.651899 -41.456406 26.07741
-32.3218 -27.443657 20.276398
-32.104351 -29.544214 24.292973
-32.104347 -35.622105 22.912529
-31.651899 -39.340809 29.980972
-31.651899 -39.443813 18.077225
-23.934685 -43.760769 32.150501
-33.897099 -33.948257 30.613003
-26.367434 -33.108116 32.634834
-36.029213 -37.887802 16.00304
-36.103989 -41.305511 31.423281
-26.594683 -35.676434 32.634731
-31.651897 -41.080273 18.297806
-31.651901 -45.954262 29.350246
-31.651901 -39.119366 23.97089
-32.104321 -28.838055 23.186672
-34.190186 -37.887798 31.844185
-32.1133 -31.353804 16.515701
-32.1133 -30.534658 19.263834
-31.651897 -40.814194 17.29628
-31.651901 -44.885021 18.735363
-27.669491 -23.679939 32.634323
-37.386086 -32.645 30.7346
-31.651899 -42.301132 22.60643
-24.854702 -45.890137 32.150501
-31.651899 -47.111984 17.021488
-31.651899 -48.406307 30.07575
-31.651901 -42.565166 25.452988
-35.058338 -37.887798 16.067396
-35.204784 -37.887802 19.963631
-33.205879 -29.4897 30.667788
-32.915138 -37.887794 20.829865
-31.651901 -42.505127 28.004608
-33.514614 -37.92482 29.6679
-31.651899 -46.888828 30.359087
-37.453255 -37.887798 31.065437
-36.387741 -30.654682 30.7346
-27.862003 -24.115294 32.634239
-34.113407 -37.887798 19.458645
-32.104343 -27.303011 24.480377
-32.104565 -28.027527 31.584064
-32.104317 -31.053486 22.550598
-29.159946 -44.42535 32.150501
-35.279617 -31.776686 30.7346
-32.10453 -37.936291 30.185911
-32.104347 -26.223688 24.973991
-20.939548 -38.493668 32.193409
-26.720751 -23.982893 32.634716
-36.118664 -32.09671 30.7346
-29.948128 -30.576797 32.633339
-34.453632 -37.887798 24.303263
-36.541725 -37.887798 23.164154
-31.651899 -39.730087 15.516605
-31.651901 -47.735977 25.686794
-32.104286 -34.006569 20.784573
-31.651897 -41.110718 26.266556
-32.104229 -37.866112 19.69418
-28.621439 -38.840145 32.150501
-32.104401 -30.111553 26.183937
-31.651899 -42.852585 24.70804
-32.104263 -28.466656 20.947746
-21.513233 -40.966774 32.150501
-32.104515 -26.727833 30.148453
-32.3218 -24.600262 20.407394
-33.897099 -35.485481 30.012753
-32.1133 -26.548267 18.159254
-32.3218 -29.938662 20.088818
-28.739025 -33.61034 32.633835
-37.312428 -40.252911 31.423271
-31.651897 -42.24815 25.026318
-21.474854 -32.16515 32.636898
-35.607925 -30.382271 30.9601
-31.651899 -39.807884 28.492414
-21.540808 -33.284447 32.636864
-25.129654 -41.129669 32.150501
-30.288864 -42.032318 32.150501
-24.968763 -41.880722 32.150501
-32.27462 -36.276611 17.613186
-31.180546 -35.178947 32.632801
-32.104553 -32.819725 31.259045
-32.104267 -30.215887 20.784458
-23.926657 -33.955971 32.635857
-32.104469 -33.480045 28.209581
-26.36924 -27.060532 32.634853
-31.651899 -44.635803 16.221825
-32.104557 -28.366812 31.365072
-36.918922 -30.240101 30.729504
-31.651901 -45.591846 32.015129
-22.931311 -45.461483 32.150501
-21.617191 -27.052055 32.636856
-32.104343 -37.470955 22.677197
-32.104324 -31.52491 22.798212
-31.651897 -38.756432 22.327772
-32.104408 -25.266548 26.923653
-32.104271 -23.73925 22.116093
-34.835197 -40.786259 31.423296
-32.104252 -27.030661 20.812759
-31.651899 -44.896557 18.893478
-31.651901 -41.663975 16.244244
-31.651901 -40.032478 19.734982
-35.133556 -37.887798 22.276802
-32.104431 -32.989628 26.90596
-31.706051 -33.348297 32.632584
-26.382837 -48.184101 32.150501
-26.981966 -45.851925 32.150501
-30.460815 -47.962524 32.150501
-21.195118 -45.9505 32.150501
-33.448605 -33.853836 29.6679
-33.029076 -38.104294 32.125099
-31.651901 -42.123383 16.969166
-26.41917 -44.569695 32.150501
-36.663822 -37.887798 22.587877
-28.007147 -36.750412 32.634129
-32.104511 -34.819931 29.580938
-33.897099 -35.695522 29.732723
-25.982159 -46.700123 32.150501
-36.908859 -37.887798 25.503605
-26.927006 -42.567966 32.150501
-34.943306 -38.32592 31.935499
-24.647478 -25.696579 32.635586
-32.10434 -37.141014 22.331707
-22.049612 -43.247829 32.150501
-32.104439 -25.89267 27.81863
-32.104279 -28.950262 21.431541
-21.263224 -36.439709 32.636971
-26.072916 -32.568314 32.634964
-37.390453 -37.887798 29.975616
-36.911137 -36.495434 30.739401
-29.723515 -43.864433 32.150501
-31.651899 -38.916954 26.450624
-30.454281 -33.186611 32.63311
-31.651899 -43.725204 20.167297
-30.48152 -36.364113 32.633087
-31.651899 -46.318146 17.854868
-32.8675 -39.187386 31.935501
-31.651897 -40.472027 23.245882
-31.966013 -37.887798 30.588924
-29.602871 -41.182983 32.150501
-24.167276 -41.847168 32.150501
-24.950001 -45.684803 32.150501
-22.044342 -26.367279 32.636681
-28.908733 -39.984928 32.150501
-32.104565 -26.381311 31.58041
-31.651899 -42.225945 29.5453
-29.068905 -44.844154 32.150501
-26.726631 -43.180817 32.150501
-30.906555 -45.008739 32.150501
-32.104301 -28.339306 22.481625
-32.104366 -30.605957 24.79636
-31.651899 -44.213287 20.550243
-33.897099 -36.299423 30.209044
-20.932571 -40.594017 32.150501
-25.737316 -29.973948 32.635113
-27.622025 -27.778578 32.634323
-31.8307 -38.284962 20.345793
-33.085346 -33.580227 30.912001
-21.990959 -31.959629 32.636681
-29.417553 -37.704086 32.633537
-32.835899 -29.51165 29.692602
-30.374592 -27.919863 32.633167
-25.746655 -23.471462 32.635132
-31.651899 -45.159618 30.160721
-26.262218 -35.02528 32.634869
-31.367254 -34.913063 32.632721
-29.392477 -31.095108 32.633568
-23.075821 -41.923515 32.150501
-32.104389 -34.893269 24.83308
-32.1133 -32.600754 16.11919
-21.152546 -48.301693 32.150501
-31.651899 -39.712769 31.955511
-21.777258 -33.020599 32.636772
-35.973984 -37.887798 21.538857
-22.818306 -25.551826 32.636356
-26.20108 -26.205128 32.63493
-32.104378 -31.057293 24.960236
-32.104443 -33.84285 27.086893
-31.651901 -44.304474 29.038998
-32.104412 -34.997761 25.838707
-31.353168 -48.446449 32.150501
-32.370968 -40.205273 31.935499
-35.608917 -37.887798 29.868155
-32.36681 -37.887798 21.230511
-33.243946 -47.857193 31.935501
-35.023735 -37.887798 19.789486
-23.520645 -47.034592 32.150501
-28.597828 -37.678524 32.633877
-22.119076 -26.545221 32.636646
-29.231392 -28.248051 32.633644
-31.651899 -47.510666 31.119118
-33.715328 -37.687637 29.6679
-32.1133 -35.767323 17.387617
-32.104301 -32.989204 21.547892
-32.104546 -31.186264 31.013351
-32.104378 -33.861076 24.424074
-32.1133 -33.103157 16.884277
-32.104424 -29.903454 27.201681
-33.072174 -34.587479 30.912001
-32.104511 -26.290434 30.08346
-24.242788 -39.753296 32.150501
-28.415197 -39.251274 32.150501
-32.104301 -24.540871 23.453911
-34.711742 -37.887798 15.516957
-37.331268 -38.701378 31.935497
-34.41993 -46.420082 31.4233
-31.651899 -40.547054 22.521845
-26.196905 -31.70952 32.634911
-32.3218 -24.39254 20.270954
-30.966492 -33.505142 32.632896
-32.986801 -35.166386 30.560738
-31.651897 -39.645153 24.277941
-31.651901 -41.766296 16.360245
-23.617931 -44.420868 32.150501
-30.835035 -39.087509 32.150501
-29.696039 -37.336872 32.633415
-32.104305 -32.394997 21.762314
-36.706676 -37.887798 27.138359
-32.104095 -37.921593 15.296926
-32.305172 -37.887798 27.227106
-32.967636 -37.887802 21.433506
-21.790836 -42.366337 32.150501
-30.705297 -37.418259 32.632988
-22.062622 -25.885794 32.636673
-31.651899 -40.685726 28.914139
-32.104393 -23.66975 26.471836
-31.651899 -44.657356 21.327671
-32.104435 -35.989216 26.384647
-31.110548 -42.662498 32.150501
-32.986801 -32.988091 29.843069
-34.0481 -30.502522 30.142689
-31.651899 -43.748871 30.043251
-31.368319 -48.515396 32.150501
-33.752056 -41.862118 31.935497
-34.186287 -47.340199 31.69058
-31.651897 -45.546181 21.428679
-22.988228 -34.863483 32.636253
-34.115406 -36.441692 30.9972
-32.104321 -35.304111 21.89514
-31.651899 -41.883873 19.731348
-32.1133 -33.664715 14.537191
-28.805264 -24.733082 32.633839
-31.651901 -44.654476 18.53808
