# .PCD v0.7 - Point Cloud Data file format
VERSION 0.7
FIELDS x y z
SIZE 4 4 4
TYPE F F F
COUNT 1 1 1
WIDTH 1467
HEIGHT 1
VIEWPOINT 0 0 0 1 0 0 0
POINTS 1467
DATA ascii
-9.0810699 1.7381842 -30.029667
-21.707283 -10.339833 -26.525568
-16.872662 -10.769199 -22.842522
-15.160991 -9.6703434 -25.21418
-8.1325951 -15.137038 -30.002495
-14.317265 -7.3027835 -26.689554
-14.317721 -13.702871 -27.872532
-14.315449 -2.7839594 -21.51429
-20.168512 -19.811682 -22.640932
-14.317006 -21.254896 -25.979195
-21.276237 -11.578026 -26.117641
-13.823734 -19.815228 -30.064777
-14.316775 -2.710104 -25.233135
-13.281219 -20.621637 -30.058842
-14.318031 -11.252813 -28.802307
-14.357825 -7.2140245 -15.9808
-14.317962 -3.7574229 -28.581123
-10.051327 -2.9089227 -30.036764
-14.318037 1.3235402 -28.734703
-18.11285 -10.769199 -24.350878
-8.2505569 -12.607857 -30.005095
-14.313754 -3.1691303 -16.787237
-14.317164 2.6157131 -26.309973
-14.79536 -8.3120651 -20.108316
-7.7862244 -18.851801 -29.998705
-14.317612 -11.444201 -27.671062
-5.7837124 -14.064404 -29.98333
-14.318043 -20.581995 -28.84329
-16.965427 -16.203329 -22.639862
-21.979553 -10.024275 -26.54026
-3.985168 -20.071445 -29.929546
-5.6731763 -15.202226 -29.980396
-17.3773 -7.2406044 -16.078758
-14.415125 -15.08765 -24.323456
-15.387941 -17.48526 -22.639326
-23.754604 -11.436239 -25.609398
-14.316732 -0.48278415 -25.112272
-21.741196 -8.4970446 -20.799187
-18.782532 -9.7676601 -25.577662
-14.314818 -4.4843621 -19.783741
-14.317601 -2.9469638 -27.554697
-14.31748 -20.093733 -27.278606
-14.423529 -11.568919 -24.646189
-14.317466 -15.330307 -27.179499
-16.013699 -10.7692 -24.722969
-14.560064 -7.7100029 -17.845173
-8.536665 -8.7554159 -30.014351
-7.3236527 -20.654617 -29.993641
-14.317894 -15.544797 -28.366837
-13.245558 -16.977524 -30.058456
-14.316956 0.2436167 -25.736111
-16.339243 -13.819692 -22.639658
-14.318342 -0.22086826 -29.601421
-20.160931 -10.948972 -25.609402
-17.801071 -8.8237028 -22.029732
-10.277596 -21.948784 -30.025974
-12.96354 -20.860712 -30.055365
-18.80802 -10.981332 -26.117556
-21.412777 -16.384001 -22.641365
-14.263497 -22.786318 -30.069572
-14.406313 -20.364328 -23.804337
-13.582987 -16.893801 -30.062149
-14.376995 -19.391901 -24.187164
-17.868481 -18.577942 -22.64016
-19.683071 -19.44311 -22.64077
-16.961437 -21.107067 -22.639847
-7.2158227 -5.6485782 -30.009802
-18.000851 -7.4943514 -17.032248
-17.875242 -7.2495389 -16.112022
-22.311676 -11.377638 -25.6094
-10.37327 -0.33322918 -30.039665
-9.3020973 -18.264214 -30.015297
-5.2438464 -13.114056 -29.980888
-17.95462 -8.1157455 -19.368252
-9.1366806 -4.5346746 -30.026711
-14.5373 -2.2556405 -17.815336
-14.318253 -6.656939 -29.405495
-14.31756 -9.3419962 -27.535078
-14.317034 -15.415799 -25.984516
-4.3268437 -17.420732 -29.978001
-14.038167 -11.045844 -30.067129
-14.317508 -17.290668 -27.318602
-14.320391 -6.7480669 -18.176233
-19.100578 -9.9153423 -26.132631
-21.558283 -8.6292877 -21.296436
-21.121286 -11.818506 -22.641283
-18.220146 -8.0302639 -19.046734
-14.317711 1.5822893 -27.83296
-14.343771 -20.74062 -24.341927
-17.375896 -10.3412 -26.445316
-9.5267916 -17.244492 -30.017754
-20.519966 -14.307302 -22.641071
-20.588888 -8.9774857 -22.60603
-14.130517 -2.4387503 -30.068747
-19.23782 -8.3818054 -20.367601
-16.194372 -19.99641 -22.639591
-16.360455 -22.635395 -22.639637
-7.5329485 -18.389296 -29.995932
-9.7528954 -7.0116158 -30.026955
-18.175825 -15.614641 -22.640272
-14.317515 -8.5592985 -27.410406
-14.317941 1.3158631 -28.47081
-14.317342 -2.0142493 -26.820721
-24.127174 -10.017113 -26.51194
-13.547407 -7.4822874 -30.06176
-23.672144 -10.769199 -24.992931
-14.316815 -21.232914 -25.480461
-14.316524 -1.7162756 -24.525902
-21.525192 -11.753208 -25.6094
-14.313765 -3.7327075 -16.833364
-21.197313 -11.817246 -22.64131
-20.939552 -10.436555 -26.11763
-16.428377 -7.5350475 -17.186258
-14.142169 -18.685062 -30.068266
-12.247776 -6.4168301 -30.047537
-14.317098 -16.329338 -26.169655
-23.136551 -10.7692 -25.000469
-21.949678 -13.331807 -22.64156
-17.778036 -13.542145 -22.640146
-14.316575 -5.7075796 -24.726894
-14.548861 -16.830301 -22.88381
-11.986889 -20.050076 -30.044682
-18.64916 -20.353306 -22.640419
-14.31787 -1.0769297 -28.305944
-17.615416 -12.151937 -22.640097
-14.317884 -15.159612 -28.336704
-5.8550773 -15.855623 -29.98061
-12.567598 -8.0409765 -30.051037
-22.304058 -11.399734 -26.117678
-14.5373 -1.2751126 -17.690903
-21.065893 -14.608974 -22.641254
-20.254688 -8.8906746 -22.279903
-14.146526 -17.137661 -30.068319
-15.847052 -11.8008 -25.814474
-14.998705 -8.9550667 -22.525391
-14.315117 -2.7745478 -20.58238
-14.31684 1.8664317 -25.414536
-14.006174 -17.558157 -30.066782
-17.066341 -10.7692 -24.317894
-21.953985 -8.6113605 -21.228788
-13.393139 0.92486334 -30.063038
-8.7447319 -5.6203265 -30.02169
-14.315393 -0.62884516 -21.357012
-10.130878 -10.996097 -30.024366
-19.394072 -11.541053 -22.640701
-14.316261 -3.9395225 -23.814516
-14.317095 1.4275527 -26.128662
-6.4524446 -19.844984 -29.984108
-7.1774855 -15.48309 -29.992041
-17.155327 -7.5785446 -17.3493
-14.318479 -0.27103946 -29.97386
-7.3806067 -5.5229244 -30.011307
-14.318384 -7.1955295 -29.759583
-14.314576 2.2022243 -19.064083
-17.441851 -19.775124 -22.640011
-22.273224 -8.8781281 -22.231428
-16.537558 -10.7692 -24.425358
-10.902672 -0.87453663 -30.043764
-14.318047 -11.996762 -28.846207
-14.315517 2.2225969 -21.702614
-11.840631 -1.9519312 -30.051023
-16.408371 -18.060364 -22.639671
-18.591375 -15.74688 -22.640413
-18.132767 -22.919708 -22.640236
-14.317333 2.1593835 -26.784416
-14.317486 -6.6991601 -27.301353
-14.314409 -2.587173 -18.597437
-10.289392 -3.6920407 -30.037176
-22.491215 -10.7692 -24.125376
-6.9794254 -17.760523 -29.989874
-14.318464 -7.839088 -29.975208
-19.638239 -13.831429 -22.640774
-14.315061 -4.4882917 -20.45616
-4.7560768 -19.638992 -29.929523
-14.292006 -3.6861532 -30.06991
-6.3328581 -11.284622 -29.992664
-12.390365 -11.072248 -30.049099
-8.3472929 -2.328311 -30.023987
-20.085634 -18.596586 -22.640909
-12.869172 -22.456568 -30.054325
-9.8798304 -21.767984 -30.021618
-14.317215 -1.8123585 -26.465412
-15.251297 -7.2258325 -16.024609
-14.31434 -5.5238461 -18.485312
-16.237389 -8.6242085 -21.280802
-23.356041 -9.4602451 -24.419041
-15.463161 -10.233415 -26.560457
-14.041651 -6.3993044 -30.067171
-14.453371 -11.186825 -25.19862
-15.026406 -21.312832 -22.639191
-14.316824 -18.20166 -25.47003
-10.701026 -12.870854 -30.030607
-20.165649 -10.173709 -26.560329
-22.953838 -10.502739 -26.117701
-19.855427 -17.806334 -22.640833
-13.837958 -14.599013 -30.064943
-16.774788 -7.5436068 -17.218208
-14.317996 -14.950852 -28.646141
-11.245438 -11.627308 -30.036566
-14.011337 1.726758 -30.067823
-12.767852 -6.8326502 -30.053228
-20.819918 -18.700768 -22.641155
-16.016575 -10.7692 -23.057402
-14.315552 -3.9378209 -21.825228
-14.31559 -7.5849366 -22.015469
-14.316593 -6.2170224 -24.787828
-13.518274 -9.9942722 -30.061443
-17.334906 -10.769199 -24.161823
-14.317923 -9.3636522 -28.512697
-14.534844 -16.034658 -23.104504
-14.31756 -16.82597 -27.460079
-19.677807 -9.7405901 -25.475319
-19.744715 -11.579304 -22.64082
-17.821434 -24.349819 -22.640125
-16.780174 -17.174902 -22.639797
-16.976883 -8.7337646 -21.692171
-16.016857 -10.54409 -26.117458
-7.0388851 -12.886031 -29.995203
-7.4979281 -17.43244 -29.99555
-14.316328 -3.4067335 -23.992989
-14.595022 -11.537808 -23.058113
-14.317872 -2.5920019 -28.308998
-21.841764 -9.5751524 -24.85199
-14.315339 -5.236876 -21.252716
-16.577314 -16.085289 -22.639732
-4.5819039 -17.358389 -29.978001
-18.904594 -12.577215 -22.640532
-14.317847 -16.828968 -28.254063
-14.315282 2.8451309 -21.041531
-6.0083017 -20.707075 -29.979246
-15.77994 -9.3729992 -24.095989
-8.079751 -2.6000822 -30.021915
-9.1561823 1.1940192 -30.030247
-11.43425 -14.009785 -30.038631
-14.317982 -3.2890134 -28.626717
-10.243287 0.81270289 -30.038658
-3.4255052 -19.457066 -29.929546
-8.2161541 -16.893681 -30.00341
-14.317725 -8.9227886 -27.978823
-14.316271 2.1711359 -23.816591
-14.537307 -7.5862956 -17.38014
-14.316439 -8.0771675 -24.391336
-14.31593 -7.2515755 -22.952669
-20.161858 -8.8793879 -22.237534
-14.315764 2.0646751 -22.396912
-19.734108 -8.7763357 -21.850416
-14.315073 -1.5117269 -20.453911
-14.98194 -7.0481524 -15.35684
-9.6061401 -20.993895 -30.018623
-16.845757 -10.555952 -26.117487
-18.542276 -15.337406 -22.640398
-14.316124 -7.762249 -23.502352
-20.457499 -9.3786592 -24.114223
-11.680715 -21.272682 -30.04133
-15.958672 -8.5163584 -20.875553
-15.625154 -10.162394 -26.560299
-14.315716 -0.92476934 -22.25869
-20.65345 -8.630888 -21.303041
-12.162677 -9.3294029 -30.046604
-6.9946184 -8.7737904 -30.002377
-14.318253 -0.20007896 -29.349207
-14.315056 -5.3697844 -20.471752
-22.023251 -9.4507484 -24.384207
-18.905481 -8.1922207 -19.655121
-5.5903134 -18.173058 -30.152121
-21.466057 -11.341207 -26.117649
-14.5373 -1.4011565 -17.875507
-14.31805 -14.969288 -28.859921
-19.046288 -20.451126 -22.640553
-14.318315 -5.887754 -29.572052
-18.202284 -20.335426 -22.640266
-17.89893 -11.058635 -22.640196
-15.551006 -10.000454 -26.454893
-14.317705 -11.838869 -27.925457
-18.261993 -7.045033 -15.342981
-6.2237368 -11.717185 -29.99103
-14.386217 -16.502373 -24.430645
-20.735008 -19.859602 -22.641123
-14.45233 -15.849846 -23.891369
-4.2388401 -16.931768 -29.978001
-14.314125 -4.8183341 -17.868013
-20.346592 -13.253502 -22.641018
-4.8471413 -17.441563 -29.978001
-14.313915 -5.707994 -17.315157
-7.5806227 -8.7331085 -30.006989
-14.318509 0.55220312 -30.046062
-14.338051 -11.957776 -25.395222
-14.572667 -12.965673 -23.10298
-18.277016 -17.675499 -22.640301
-19.976307 -12.042564 -22.640894
-17.233187 -23.802879 -22.639931
-14.374216 -20.613689 -24.073822
-10.788876 -11.017315 -30.031567
-17.784321 -7.4061861 -16.700954
-14.316794 -8.3729439 -25.393593
-18.397095 -9.3449831 -23.988968
-14.318153 -16.98629 -29.104473
-14.317955 -13.269423 -28.599272
-14.316197 -8.5844412 -23.732323
-18.437683 -23.751514 -22.640337
-14.315232 -5.9465637 -20.973564
-14.426538 -17.032232 -23.996082
-14.314311 -1.5512697 -18.318558
-14.318474 -9.3946266 -29.998348
-16.300364 -21.449203 -22.639622
-19.571838 -7.7017441 -17.810867
-18.549931 -11.187265 -26.117546
-9.177001 -2.7102063 -30.030357
-15.512482 -11.173616 -22.639389
-17.219419 -10.769199 -24.316866
-20.128391 -14.349923 -22.640938
-9.6260099 -9.6378088 -30.021172
-14.314931 -2.2205517 -20.061409
-17.175573 -14.486048 -22.639938
-24.119684 -9.5649929 -24.812317
-9.8648806 -7.8729453 -30.026249
-5.8446412 -14.740733 -29.982567
-18.334209 -23.055782 -22.640305
-14.317575 -22.317799 -27.568235
-14.269283 -17.443941 -30.06966
-14.329184 -8.0378895 -19.771345
-13.458014 -18.129089 -30.060781
-18.411636 -10.005805 -26.473148
-13.069771 -1.69963 -30.060535
-14.315334 -4.4207778 -21.222727
-16.878761 -13.899923 -22.639841
-14.317394 -22.871338 -27.076881
-8.6514711 -20.91239 -30.008175
-14.317911 -0.85916841 -28.421455
-14.617571 -11.468674 -22.856709
-14.318167 -16.483622 -29.135511
-11.636871 -14.382835 -30.04085
-19.217575 -22.174267 -22.640604
-7.2600517 -7.9554992 -30.005928
-14.316777 -6.6527386 -25.312717
-14.534096 -11.077279 -23.882191
-16.692516 -7.9818392 -18.865685
-14.316703 -8.2768354 -25.13154
-19.644815 -10.807126 -22.640787
-14.317609 -21.508875 -27.651566
-14.316392 -8.3053808 -24.266062
-13.10967 -5.4349618 -30.056969
-12.419456 -5.8310251 -30.049759
-10.529362 -21.937969 -30.028728
-15.678003 -7.767808 -18.061747
-14.316031 1.3293334 -23.145344
-22.601311 -11.333608 -25.6094
-14.317186 -13.921307 -26.384907
-14.316231 -3.152076 -23.7131
-8.5628891 -6.4282365 -30.018806
-14.318192 -12.799768 -29.241264
-14.553791 -14.879858 -23.060169
-14.31779 -11.339379 -28.152424
-14.315573 -3.2375877 -21.870625
-16.751665 -15.77854 -22.639793
-12.043828 -0.17978573 -30.052597
-14.315876 0.58018076 -22.709435
-8.0898285 -15.63376 -30.002028
-14.825235 -23.380472 -22.639118
-21.741932 -10.7692 -23.606754
-15.196627 -10.7692 -23.527973
-6.35673 -18.449816 -29.983059
-14.31674 -8.8690033 -25.24822
-14.386189 -18.149372 -24.24334
-14.316629 -8.0942373 -24.924522
-11.428546 -21.504833 -30.03857
-13.224972 -20.704006 -30.058224
-14.317619 -8.6666842 -27.691845
-18.894325 -7.6605368 -17.656401
-13.585167 -3.8102386 -30.062479
-14.317664 -3.9352655 -27.751848
-13.931848 -3.3863759 -30.065969
-20.00186 -7.8815918 -18.486679
-14.31638 0.1328119 -24.124039
-10.216665 -21.595737 -30.025305
-17.822918 -18.929453 -22.640144
-14.316861 2.7973351 -25.472351
-14.633192 -20.690287 -22.639061
-7.9651804 -17.779482 -30.000662
-17.137024 -15.07041 -22.639925
-12.364989 -21.371122 -30.048819
-12.364531 -1.9232874 -30.055077
-10.195916 -1.2810658 -30.038292
-8.5977774 -12.223454 -30.008486
-5.078618 -17.389893 -29.978001
-14.999614 -10.7692 -23.014944
-11.158537 0.75735307 -30.045742
-23.419979 -9.3941078 -24.17037
-17.594402 -10.830403 -25.6094
-14.31382 -3.0149779 -16.968391
-14.316128 -6.1213946 -23.477386
-18.272652 -14.098073 -22.640312
-19.059238 -13.220652 -22.640581
-15.493056 -11.585663 -22.639381
-11.084911 -9.1429358 -30.034809
-12.238873 -16.685776 -30.047436
-8.6571541 1.5114998 -30.026386
-24.776709 -10.225519 -26.560448
-14.314594 -3.773438 -19.137056
-17.751402 -12.538319 -22.640141
-6.2967024 -14.246393 -29.986971
-17.678358 -10.7692 -22.920658
-19.692455 -10.769201 -22.653845
-15.213947 -15.531613 -22.639275
-17.561855 -22.774305 -22.640045
-6.6299829 -14.237985 -29.989567
-19.116886 -8.295784 -20.044304
-11.548083 -1.7141633 -30.048759
-6.9026184 -9.2017221 -30.000883
-18.015335 -7.3369837 -16.440655
-9.4230709 -10.288108 -30.018414
-14.315872 -4.0453801 -22.725069
-17.864702 -7.8069768 -18.207573
-14.316289 0.27698004 -23.866913
-14.314312 -4.1918311 -18.370235
-14.318398 -21.225845 -29.838753
-10.249214 -15.871387 -30.025661
-14.561961 -16.2621 -22.826931
-14.318447 -19.323536 -29.952919
-14.315013 -1.343762 -20.289062
-14.316372 -3.0655632 -24.108397
-8.9395828 -13.376693 -30.011328
-7.6027555 -21.393307 -29.996696
-7.178288 -11.73085 -29.998394
-10.024301 -15.336445 -30.023201
-16.071163 -14.394479 -22.639568
-15.95962 -18.504087 -22.639517
-4.331203 -18.577045 -29.929508
-22.130301 -9.415616 -24.252064
-11.011703 -4.3968883 -30.041481
-14.338871 -19.234978 -24.558867
-11.075939 1.8980992 -30.045105
-9.4662151 -21.445375 -30.01709
-14.313931 -5.7095156 -17.356543
-16.075642 -8.7106962 -21.606035
-3.8099828 -17.988804 -30.184401
-12.613626 -13.614786 -30.051538
-21.676546 -11.756403 -26.117657
-14.315213 -3.0697429 -20.857143
-14.315931 -6.9794316 -22.945501
-19.026808 -13.309612 -22.64057
-8.5385952 -20.051151 -30.006939
-14.37544 -13.980642 -24.81785
-21.761885 -10.7692 -24.716
-13.862164 -22.050196 -30.065187
-17.906748 -12.340629 -22.640196
-8.2675419 -1.8754699 -30.023367
-14.31782 -3.8829947 -28.184059
-6.0444508 -12.60234 -29.988022
-15.343462 -9.3191366 -23.893787
-9.2958975 -19.476879 -30.015228
-14.316983 -15.697476 -25.856428
-14.316226 -4.451714 -23.723835
-11.878548 -22.363697 -30.043491
-19.197104 -8.9658041 -22.563023
-14.317274 -10.672472 -26.761343
-14.404482 -19.970688 -23.866152
-17.022308 -17.655598 -22.639877
-14.317146 -11.460863 -26.252159
-15.383137 -17.563271 -22.639324
-14.33294 -8.0576258 -19.18211
-22.646769 -11.380749 -26.117691
-14.315626 -4.8950434 -22.048851
-14.316004 0.11251771 -23.069046
-14.317158 -15.319031 -26.322418
-14.315527 -1.8220642 -21.728748
-14.316748 -16.222242 -25.243155
-14.316346 -4.0121121 -24.052418
-14.315662 -1.215641 -22.109501
-14.31844 -19.322426 -29.928923
-14.317927 -17.093899 -28.480072
-16.007383 -10.769199 -23.676647
-22.474377 -10.3412 -26.275932
-12.658645 -3.3284392 -30.056187
-5.2616701 -14.109042 -29.979206
-19.790838 -11.8008 -25.768284
-13.483853 -5.070693 -30.061066
-11.337052 -13.467949 -30.037567
-14.316908 0.82262278 -25.605301
-14.569315 -9.9973173 -26.443737
-9.6874475 -5.427021 -30.029345
-13.322954 -22.459431 -30.059286
-21.763817 -9.4994917 -24.567616
-17.704514 -21.980684 -22.640095
-11.081122 -10.288998 -30.034767
-14.317724 -19.239407 -27.945698
-16.983589 -7.0723252 -15.446411
-17.15107 -20.62534 -22.639912
-14.315466 3.0414171 -21.558334
-14.317757 -8.425972 -28.063046
-17.504469 -8.5727921 -21.086689
-14.316296 -1.2954159 -23.886299
-21.625782 -9.0015898 -22.695969
-14.313786 -3.7096667 -16.889595
-14.314968 0.67956555 -20.160606
-5.9447637 -10.825123 -29.990498
-19.065002 -11.511284 -22.640591
-11.434413 1.8276478 -30.047878
-12.714875 -0.18632603 -30.057789
-18.305256 -20.704323 -22.640301
-10.710298 -10.814909 -30.030708
-14.31515 0.3217631 -20.673815
-12.63034 -10.970512 -30.051723
-4.6594138 -20.580868 -29.929543
-16.933945 -10.769199 -25.195871
-20.438221 -18.425743 -22.641027
-14.31838 0.27567616 -29.695696
-7.2784309 -17.666573 -29.993147
-14.316559 -0.23385203 -24.62812
-18.740515 -7.7774816 -18.096123
-19.461952 -10.7692 -23.541088
-14.315908 -1.4183756 -22.799801
-11.62236 -13.85407 -30.040691
-14.314667 -5.454495 -19.39279
-11.726917 -3.4805112 -30.048693
-18.900368 -24.314404 -22.640488
-21.182873 -9.130908 -23.182394
-14.317019 -17.588448 -25.964466
-14.328508 -21.538887 -24.39267
-19.057795 -11.763071 -26.117563
-14.317104 -2.7986207 -26.156765
-13.710302 -19.140415 -30.063541
-17.51148 -24.177822 -22.640022
-6.8905582 -17.041145 -29.988901
-15.676847 -9.6788073 -25.245665
-16.684082 -19.105274 -22.639759
-14.313692 -4.9662018 -16.672163
-14.494747 -18.735075 -23.169113
-14.313963 -5.318512 -17.435167
-14.315638 -5.538002 -22.095535
-15.404323 -15.797974 -22.639338
-18.361258 -9.2133074 -23.49399
-14.316996 -5.2743025 -25.900928
-19.583317 -22.933411 -22.640724
-17.61208 -8.2324781 -19.807301
-14.317982 -4.7905631 -28.656628
-14.315127 -2.2473221 -20.610355
-14.318107 0.090227842 -28.945141
-14.316114 -5.3838091 -23.428476
-22.497604 -8.7879677 -21.892345
-16.083935 -9.0448847 -22.862328
-12.885092 -22.602711 -30.054499
-14.316711 -0.4640491 -25.052078
-7.2666836 -12.79774 -29.997128
-14.683638 -20.457573 -22.63908
-18.155869 -11.8008 -25.695654
-20.249001 -8.3575916 -20.275917
-14.314468 -4.9164858 -18.825066
-14.318214 -5.6336489 -29.301378
-13.454669 -21.082846 -30.060736
-20.422173 -13.741318 -22.641041
-8.958746 -16.891218 -30.011538
-14.317185 -5.1976471 -26.43022
-18.739685 -23.721901 -22.640438
-16.036926 -22.47776 -22.63953
-15.420594 -16.405437 -22.639341
-16.452227 -12.375937 -22.639704
-14.316695 -16.529381 -25.106081
-14.391704 -8.6632595 -21.428802
-22.02499 -9.2301722 -23.555004
-14.316647 1.3010021 -24.871641
-13.451899 -6.4801397 -30.060715
-13.151186 -4.4628797 -30.057926
-18.785378 -16.878429 -22.640474
-14.316301 -4.6773844 -23.937874
-14.31523 0.97394878 -20.898165
-14.316724 -16.192541 -25.179287
-14.3152 -0.64663708 -20.81465
-14.317862 -21.059793 -28.346199
-16.080843 -13.548249 -22.639572
-14.314449 -2.0376618 -18.704956
-14.315213 2.3739583 -20.850136
-12.767571 -13.213552 -30.053226
-14.3329 -7.9285469 -18.880363
-14.31843 -20.070591 -29.911644
-14.315001 -5.2296476 -20.312151
-14.316607 -18.26223 -24.886164
-17.249535 -9.757412 -25.540136
-14.327976 -7.3619518 -18.359373
-22.136312 -8.9914989 -22.657701
-16.623703 -17.289631 -22.639744
-14.318304 -4.1044183 -29.54191
-14.316086 -7.0831723 -23.380535
-14.318351 1.5940022 -29.594868
-21.466393 -11.036299 -22.641403
-15.326415 -8.2913008 -20.029919
-14.315941 2.9967756 -22.892132
-18.977776 -7.7973499 -18.170658
-12.020755 -2.6052914 -30.052416
-14.317219 -21.370205 -26.57056
-9.1965761 -14.349354 -30.014139
-15.871227 -7.5602455 -17.281347
-11.199278 -0.84558642 -30.046061
-14.317444 -15.804146 -27.122078
-14.316044 2.9185038 -23.181431
-17.389664 -17.457458 -22.640003
-12.990805 -14.800381 -30.055668
-14.323292 -6.6319203 -17.407164
-11.283327 -8.9371424 -30.03698
-12.980193 -19.475384 -30.055552
-5.9464002 -20.152742 -29.978567
-9.9854422 -2.3725073 -30.036665
-14.317209 -6.4677672 -26.519436
-14.317835 -2.2586203 -28.203695
-14.314425 -5.0301504 -18.708313
-14.317719 -5.3213797 -27.929245
-13.205607 -2.6549275 -30.061588
-21.542305 -11.157785 -25.609398
-20.434814 -10.769201 -22.932934
-14.313734 -5.4206734 -16.803339
-11.595735 -2.6633413 -30.049126
-14.31814 -22.101534 -29.131424
-20.323406 -19.028988 -22.640987
-14.315669 -7.3201518 -22.229921
-12.445896 -14.58003 -30.049704
-16.677994 -7.6533976 -17.631001
-21.434763 -11.936899 -22.641388
-23.420624 -9.6279259 -25.049351
-15.86112 -9.5185375 -24.643051
-24.386869 -11.058679 -26.11775
-18.163515 -11.249383 -22.640285
-14.317301 -20.427887 -26.786846
-14.316728 2.0411911 -25.099062
-14.316927 -22.959658 -25.782528
-13.231599 -20.410864 -30.058298
-19.866814 -11.8008 -25.981754
-19.35614 -9.9888124 -26.408657
-14.318493 -4.6660509 -30.052433
-17.772137 -9.178441 -23.3633
-14.315692 -6.3040967 -22.261312
-14.317883 -6.4087758 -28.402687
-11.052498 -1.2223533 -30.044922
-14.826372 -7.880352 -18.485384
-10.242973 -19.1689 -30.025593
-21.850555 -11.252782 -25.6094
-15.084985 -10.7692 -24.44997
-23.25926 -10.566673 -26.117712
-18.895779 -9.215786 -23.50296
-12.499244 -4.7166414 -30.052414
-14.318212 -12.097458 -29.293312
-13.128927 -9.5570192 -30.057178
-21.978571 -12.408957 -22.641569
-14.316383 1.1819035 -24.133736
-14.488356 -15.551634 -23.590965
-11.778782 -4.7068958 -30.046854
-12.912725 1.520141 -30.059319
-14.31484 -0.51009685 -19.805382
-14.314953 -1.9842772 -20.119152
-14.31448 -0.37128854 -18.792511
-4.7621245 -19.107662 -29.92951
-11.593426 -17.897997 -30.040373
-13.952701 -15.026136 -30.066196
-14.316935 -23.139288 -25.80191
-14.316714 -21.801529 -25.213257
-14.768883 -11.044328 -22.639139
-9.5168762 1.4282596 -30.033039
-14.31441 -3.1969628 -18.610859
-19.382858 -9.392231 -24.165939
-15.911946 -9.893178 -26.05138
-9.4231529 -0.47830057 -30.03231
-8.9271936 -0.37993681 -30.028475
-12.120641 -20.10544 -30.046146
-15.700682 -7.0969195 -15.539701
-14.316658 -17.119949 -25.008455
-14.316793 -23.137032 -25.439945
-9.8929176 0.48879838 -30.035946
-14.318367 -12.862968 -29.712975
-14.317228 -22.594828 -26.611959
-14.317945 -15.887481 -28.512865
-19.932577 -9.37325 -24.094233
-14.316099 -5.8307428 -23.393986
-9.8456955 -1.0638262 -30.035582
-10.731153 -17.608372 -30.030937
-9.3780031 -9.9096975 -30.018753
-14.315885 -4.9275422 -22.775789
-14.317787 -12.977163 -28.146561
-14.317074 -16.199657 -26.099308
-8.5053558 -16.39082 -30.006575
-14.416096 -7.2344432 -16.057522
-16.02466 -20.108835 -22.639534
-20.435925 -20.321793 -22.641022
-11.22678 -21.55397 -30.03636
-14.566807 -9.3669958 -24.074211
-14.133199 -5.7219543 -30.068172
-14.316967 -4.2666969 -25.800289
-7.2664933 -10.762332 -30.000847
-9.9019518 -6.7162557 -30.028648
-14.314005 -3.0156689 -17.479893
-6.9684496 -18.844805 -29.989754
-16.035236 -8.2930422 -20.036001
-21.183544 -8.6652927 -21.432034
-8.0046396 -11.495647 -30.005222
-14.430933 -8.0401278 -19.086275
-20.135036 -7.7590256 -18.025837
-14.315014 -2.9955745 -20.296778
-16.05493 -10.7692 -23.065666
-16.937651 -11.8008 -25.922672
-11.105171 -7.7109003 -30.036148
-18.790371 -20.378443 -22.640465
-14.318409 -2.526897 -29.814274
-11.055994 -18.781519 -30.034492
-23.283363 -9.1880283 -23.395758
-14.318055 1.7378438 -28.77894
-14.314575 -0.11121476 -19.062044
-20.926338 -13.304003 -22.641212
-14.318392 -13.368529 -29.778107
-10.073247 -0.54471064 -30.037344
-17.57324 -11.615934 -22.640083
-8.1085358 -21.005081 -30.002232
-19.744238 -12.469743 -22.640816
-8.437027 -15.668764 -30.005827
-10.721064 -11.203343 -30.030827
-17.766626 -7.4534078 -16.878483
-14.336694 -17.742956 -24.748993
-14.315428 2.2753291 -21.456738
-18.833931 -9.5716715 -24.84086
-20.915737 -15.534105 -22.641199
-7.6094084 -17.266491 -29.996769
-6.932519 -14.114842 -29.992134
-15.307524 -9.9184322 -26.146711
-14.413863 -23.263218 -23.404129
-12.355955 -3.5352917 -30.053465
-12.990733 -14.115991 -30.055664
-14.31526 -5.0650468 -21.023727
-20.188847 -10.3412 -26.314903
-14.316525 -6.163321 -17.432812
-14.317109 -1.5750251 -26.168688
-9.7367954 -12.564894 -30.020052
-21.293453 -11.219046 -25.609402
-19.707096 -18.022982 -22.640779
-10.267603 -13.605572 -30.025864
-20.520067 -10.862356 -22.641085
-14.317379 -5.1825962 -26.972759
-16.853184 -7.5036244 -17.067854
-10.398774 -16.565819 -30.027298
-14.315398 -4.046319 -21.395449
-21.898865 -11.155364 -22.641548
-20.595905 -7.97082 -18.821722
-21.052521 -18.550192 -22.641233
-14.316266 -8.3726826 -22.759529
-14.317924 -4.3034587 -28.483631
-14.31495 -1.82921 -20.112083
-15.906564 -7.2785416 -16.222328
-15.884773 -19.291395 -22.639488
-5.4782953 -15.767098 -29.978001
-18.97834 -14.189743 -22.640551
-14.63562 -20.904842 -22.639063
-14.317968 1.5818536 -28.540567
-14.316935 -7.7056127 -21.05121
-10.401988 -5.6096215 -30.034544
-14.317839 -6.8229952 -28.284569
-19.329252 -9.0184507 -22.760847
-14.318962 -6.1327262 -16.946875
-15.538704 -11.231216 -22.639399
-12.44128 -18.297819 -30.049652
-20.021935 -7.5505414 -17.242167
-5.4748383 -19.036306 -30.184402
-14.317881 -11.513159 -28.400465
-14.317551 -15.157166 -27.411686
-14.614374 -15.453225 -22.639072
-14.320008 -7.5019679 -20.04373
-14.317108 0.91381037 -26.166618
-21.457809 -9.2033596 -23.454578
-20.981737 -12.44553 -22.641233
-14.322001 -6.2975192 -16.826168
-4.8330293 -20.17267 -29.998837
-14.317178 -0.9875356 -26.360802
-14.316962 -14.592146 -25.792969
-14.660364 -11.615169 -26.117411
-8.1034145 -11.729634 -30.00556
-19.349176 -19.850428 -22.640656
-6.9404745 -7.338758 -30.004581
-14.332545 -7.7852616 -18.597923
-6.0060554 -14.743408 -29.983812
-16.78664 -11.300099 -26.117485
-14.317637 -8.2165537 -27.74156
-14.471932 -18.609297 -23.395184
-14.315931 -0.28723496 -22.867664
-21.806721 -15.245136 -22.641502
-14.317339 -11.363726 -26.85228
-10.61888 -12.193077 -30.029705
-19.102489 -8.1795826 -19.607483
-14.314531 -1.8051724 -18.940241
-16.558401 -10.7692 -25.301922
-14.317697 -7.9490495 -27.899893
-14.31373 -5.2798929 -16.78536
-14.316845 -15.520639 -25.500118
-16.571335 -10.134929 -26.560238
-16.0881 -18.959253 -22.639559
-11.670855 -12.919218 -30.04122
-14.317221 -5.7044873 -26.542473
-19.723873 -15.767204 -22.640797
-18.775021 -23.004436 -22.640451
-15.527998 -12.28339 -22.639391
-17.519253 -9.323637 -23.90929
-14.317762 2.0903306 -27.964043
-14.457031 -22.680809 -23.069809
-18.108582 -10.471499 -26.117531
-14.317451 2.57375 -27.099253
-14.314103 -3.1572626 -17.759552
-14.315397 2.4273832 -21.366306
-14.316933 0.28893507 -25.676323
-11.130146 -9.1091461 -30.035303
-11.021738 -14.019981 -30.034115
-18.493624 -23.818272 -22.640354
-8.8852768 -20.570087 -30.010735
-14.315708 -3.7425764 -22.257614
-20.032578 -10.3412 -26.315376
-11.530167 -5.9469767 -30.042664
-10.737206 -1.7305112 -30.042482
-14.317047 -1.9748857 -25.997807
-7.5676146 -9.0313311 -30.006342
-14.316281 -2.8513491 -23.849686
-14.322399 -5.9990721 -16.045033
-14.316717 2.3653617 -25.071888
-9.2590494 -16.872116 -30.014824
-16.976219 -13.29429 -22.639875
-14.479115 -23.16547 -22.809662
-8.8014326 -1.2619362 -30.0275
-14.318329 -20.971275 -29.643038
-14.316822 1.3145233 -25.363441
-19.152546 -7.3209529 -16.379654
-14.316139 0.055600882 -23.449608
-17.042364 -10.7692 -24.787189
-14.315372 -7.6113729 -21.416862
-14.321381 -5.7718878 -15.674154
-12.376355 -8.9311018 -30.048944
-14.314919 -4.4466643 -20.061302
-20.388981 -11.747143 -26.117611
-13.94628 -17.362156 -30.066126
-14.316082 -3.7166696 -23.306492
-6.6771188 -14.912407 -29.988701
-18.585312 -21.403944 -22.640392
-15.275349 -10.972945 -22.639311
-14.314327 0.62127763 -18.365757
-13.075471 -18.239563 -30.056595
-8.2761517 -12.798643 -30.004944
-14.317394 -0.34318995 -26.971592
-14.317105 -16.553816 -26.191685
-14.315655 -7.6087041 -22.199389
-12.954807 0.38966346 -30.059645
-19.310959 -9.4373732 -24.33569
-18.005796 -10.121588 -26.560209
-14.317769 -14.815875 -28.011032
-17.372484 -9.1879883 -23.399452
-8.9281321 -0.70589888 -30.028481
-7.1250777 -13.209158 -29.995281
-14.317645 -3.4952812 -27.690161
-23.301331 -10.793924 -25.6094
-13.964483 -15.710825 -30.066326
-14.317611 -10.152377 -27.669027
-14.315392 -6.8399715 -19.242655
-11.760441 -16.321144 -30.042204
-22.071039 -8.9778423 -22.606407
-14.317364 -4.2198658 -26.911102
-14.322406 -8.5643349 -22.177866
-14.322573 -7.4375896 -19.455448
-16.152264 -7.9672503 -18.811193
-14.575946 -13.032451 -23.064936
-14.317909 -21.178299 -28.478388
-14.32074 -17.614288 -24.911709
-11.724229 -8.214282 -30.041805
-14.31783 -17.680756 -28.216335
-16.982628 -14.967993 -22.639874
-11.337909 -0.048525333 -30.047132
-13.810906 -8.0587549 -30.064646
-10.167603 -18.534016 -30.024769
-12.894221 -21.140097 -30.054605
-4.1242952 -18.802523 -29.929518
-10.864866 -3.4937723 -30.041994
-14.316957 -8.3376064 -25.845873
-9.9213619 -8.2986803 -30.025906
-14.317327 -18.149326 -26.832794
-14.317844 -3.3300626 -28.248425
-6.3171601 -12.813147 -29.989748
-18.402859 -8.964344 -22.558048
-14.31727 0.10986328 -26.622665
-14.318322 -21.565832 -29.632799
-8.1890202 -4.3440504 -30.01972
-19.882376 -13.334146 -22.64086
-16.467871 -10.7692 -22.965435
-14.316394 -1.1271552 -24.163797
-14.316507 -1.5653075 -24.479877
-11.999422 -17.255863 -30.044819
-19.645107 -19.449413 -22.640757
-4.5193658 -18.522898 -29.996925
-19.565125 -21.3902 -22.640724
-16.490694 -19.544258 -22.639692
-12.792453 -21.631432 -30.05349
-11.043869 -9.1602497 -30.034359
-18.238583 -12.701239 -22.640305
-14.760549 -9.7982616 -25.69532
-14.995441 -7.4599905 -16.905031
-14.317502 -6.6907959 -27.345085
-14.318272 -22.068209 -29.50176
-6.5952144 -19.877806 -29.98567
-13.036819 -18.727182 -30.056173
-21.605381 -8.4983006 -20.803997
-14.314362 -3.68116 -18.489136
-15.180759 -10.479653 -26.11743
-14.497405 -19.694307 -23.03521
-16.778097 -14.748079 -22.639805
-14.318455 1.1692376 -29.885584
-14.328942 -7.0314608 -17.405588
-14.317902 -3.312099 -28.404404
-14.31701 -18.028423 -25.949261
-14.317513 -2.6049657 -27.305603
-18.472769 -24.563147 -22.640345
-11.690242 0.22212481 -30.049858
-14.317078 2.1911404 -26.075836
-14.316527 -0.7624889 -24.536217
-17.949144 -14.251074 -22.640202
-14.436504 -23.201317 -23.201042
-6.4404998 -8.3484917 -29.998863
-13.686372 -17.374157 -30.063282
-12.454862 -9.5888634 -30.049801
-14.519169 -16.932331 -23.14776
-14.315153 -2.8102899 -20.68461
-14.406161 -8.5189676 -20.886368
-17.083 -7.0492744 -15.359694
-16.405701 -15.10271 -22.639677
-5.2823019 -19.433861 -30.184401
-5.9782262 -18.184605 -29.978916
-12.099669 -9.1888409 -30.045914
-14.31711 -8.3330288 -26.277882
-15.569332 -10.3412 -26.520454
-14.086581 -10.639226 -30.067661
-14.315612 -3.5383472 -21.983431
-14.389809 -12.451397 -24.858643
-14.317976 -17.97905 -28.624388
-17.126186 -10.7692 -25.261377
-4.7285471 -15.677813 -29.978001
-17.587315 -21.080423 -22.640057
-22.032833 -9.2837315 -23.756342
-16.36367 -10.7692 -23.398916
-14.468937 -21.629896 -23.078979
-14.315134 -1.4605448 -20.625687
-6.4339256 -8.9537411 -29.997705
-19.211712 -17.782923 -22.640615
-14.424442 -17.783667 -23.929956
-14.315428 -0.83946449 -21.451025
-21.521851 -8.2528982 -19.881523
-14.315746 2.4209595 -22.348919
-20.101524 -8.3504496 -20.249163
-10.416181 -4.6514592 -30.036404
-14.820457 -21.67872 -22.639122
-21.33967 -13.375296 -22.641352
-14.318237 -10.170118 -29.362434
-9.4761887 -17.526098 -30.0172
-9.8291359 -19.826778 -30.021065
-13.459344 -13.582813 -30.060795
-12.761183 -0.10170007 -30.058147
-13.604605 1.5838835 -30.064672
-6.882411 -16.878801 -29.988813
-14.318382 -2.9239237 -29.743011
-6.6230936 -19.956913 -29.985973
-14.317556 -4.518435 -27.455555
-14.31764 -18.617928 -27.700985
-13.86844 -1.0335653 -30.066715
-14.652144 -9.1522474 -23.266855
-14.314384 -5.919394 -18.622568
-14.315929 -3.0330939 -22.86627
-11.05011 -11.932725 -30.034428
-17.014362 -19.122759 -22.63987
-10.234454 -18.187204 -30.025501
-8.9497128 -18.997742 -30.01144
-14.316964 -15.466734 -25.806223
-15.220717 -14.434701 -22.63928
-14.317906 -0.68657923 -28.40386
-14.315096 0.94860113 -20.522495
-14.317464 -13.154589 -27.142706
-14.318466 -14.38608 -29.97776
-14.317892 -4.001616 -28.390963
-14.317892 -10.963044 -28.429325
-17.543282 -20.168987 -22.640045
-14.318291 -10.455597 -29.50679
-14.346502 -23.240868 -24.031849
-14.317162 -4.6951323 -26.355103
-19.790134 -15.763716 -22.640818
-6.5591059 -6.8730092 -30.00248
-3.6902184 -19.939299 -29.929546
-18.507931 -16.219238 -22.640385
-18.448561 -9.7021046 -25.33144
-14.317194 -11.511794 -26.384155
-9.9782877 -21.796053 -30.022696
-19.466133 -10.3412 -26.23534
-14.547785 -17.757072 -22.788261
-21.25782 -9.1878939 -23.39657
-14.33283 -6.9206142 -16.481968
-11.859315 -3.5984945 -30.049503
-14.317675 -0.024894238 -27.756542
-14.315942 1.7463146 -22.895103
-11.027004 -9.0355053 -30.034174
-9.3704586 -18.51976 -30.016043
-11.345713 -10.189158 -30.037663
-4.9010401 -18.576427 -30.135309
-15.924642 -9.7188845 -25.396162
-16.150047 -8.2797146 -19.985826
-19.735298 -7.2646761 -16.167715
-15.136895 -9.4113073 -24.240417
-14.318031 -7.8697605 -28.804735
-15.336683 -6.9521856 -14.995846
-13.399693 -6.5254555 -30.060144
-8.7926483 -15.590527 -30.009718
-12.3616 -10.803226 -30.048782
-20.296616 -16.782791 -22.640985
-14.317201 -12.272486 -26.403799
-22.72776 -9.8744659 -25.976604
-18.641602 -8.0851498 -19.252787
-15.05609 -11.459353 -22.639233
-9.8921022 -15.648404 -30.021753
-20.158726 -9.0093632 -22.726143
-13.531558 -9.0904608 -30.061586
-14.244638 -18.519049 -30.069386
-14.318496 0.026790263 -30.015923
-13.094567 -15.650198 -30.056803
-14.317591 -5.3696752 -27.571205
-13.287317 -18.018171 -30.058912
-20.552208 -9.4988451 -24.565971
-15.581215 -22.922932 -22.639376
-11.305077 -19.40386 -30.037218
-11.713656 -0.58212256 -30.050039
-14.316991 -8.5048637 -25.946497
-14.316084 -1.0374932 -23.293396
-13.800939 -0.34403527 -30.066196
-14.314444 -1.1613739 -18.6952
-14.314497 -3.84057 -18.869308
-10.379563 -7.2545037 -30.031364
-14.316936 -23.089846 -25.807831
-14.318333 -17.109898 -29.602074
-14.114866 -5.4749007 -30.067972
-14.316942 -1.6582658 -25.700033
-15.43406 -10.769199 -25.482412
-14.314466 1.4212649 -18.755812
-10.489281 -3.8930955 -30.038357
-18.124298 -10.7692 -22.901861
-20.28406 -9.7177286 -25.388981
-14.316555 -3.2298942 -24.626148
-24.27417 -9.7214336 -25.400314
-16.843456 -21.765068 -22.639805
-14.323439 -5.9380713 -15.723083
-19.24473 -11.835637 -22.64065
-8.1637955 -8.7191896 -30.011528
-12.904819 -16.86097 -30.054728
-17.427118 -9.3666468 -24.071037
-10.019557 -4.544054 -30.033527
-21.304661 -16.041357 -22.641331
-16.142824 -20.940468 -22.639572
-14.314439 -4.2657466 -18.722862
-14.314641 -6.1931429 -19.343204
-14.940794 -9.0483265 -22.876009
-14.318301 -1.2753813 -29.501087
-20.808777 -11.89803 -22.641178
-17.522902 -8.9172554 -22.381603
-23.437277 -11.075849 -26.11772
-18.137598 -8.2816782 -19.991915
-14.316973 -12.305535 -25.800663
-18.51088 -11.088199 -22.640404
-23.358521 -9.6516562 -25.138599
-20.072638 -12.045562 -22.640928
-16.373669 -10.7692 -23.940136
-14.317036 -5.4788375 -26.016979
-23.417025 -9.7113953 -25.363136
-14.317287 -0.55169284 -26.667313
-11.299248 -17.637856 -30.037155
-20.35701 -8.6908836 -21.528774
-14.31432 -4.047976 -18.385603
-22.606373 -10.7692 -23.365219
-14.317687 0.56842411 -27.78397
-14.314468 -2.4650567 -18.760883
-21.447805 -8.374464 -20.338566
-14.316573 -5.3951149 -24.718088
-11.033996 -15.172832 -30.034252
-10.607857 -11.209983 -30.029587
-14.183233 2.0305381 -30.069151
-18.12344 -11.026562 -26.117531
-14.316478 -7.0787435 -24.480465
-11.63877 -19.522535 -30.040871
-12.784208 -0.34939289 -30.058325
-11.401578 -3.4218907 -30.04628
-20.023739 -8.3804989 -20.362177
-14.315032 -4.3173847 -20.374346
-14.31832 -2.8657577 -29.571236
-7.8221283 -2.0903096 -30.019922
-10.099663 -4.8259339 -30.033634
-7.8296213 -12.934051 -30.00124
-14.317945 -6.4460945 -28.573092
-14.317282 -7.9249239 -26.750668
-22.829269 -9.6869907 -25.271774
-14.317848 -21.619356 -28.318821
-14.347194 -2.1168981 -18.249331
-14.316547 1.5258652 -24.590824
-14.521854 -14.555353 -23.393539
-8.1895609 -20.154102 -30.003117
-14.617526 -12.289135 -22.763681
-17.144016 -10.959196 -22.639942
-6.4491301 -11.298594 -29.99354
-16.631947 -21.006487 -22.639736
-8.4123459 -19.373497 -30.005558
-21.981041 -9.1782303 -23.359772
-13.427634 -13.493401 -30.06045
-20.418636 -16.410709 -22.641027
-14.415572 -15.317316 -24.293156
-12.84444 -1.6599336 -30.058792
-14.316742 -2.9465389 -25.144554
-6.9398651 -13.153219 -29.99395
-14.318373 -0.51904249 -29.689329
-18.605412 -23.785103 -22.640392
-13.997388 -22.083124 -30.066666
-15.60346 -16.969635 -22.6394
-7.9490271 -8.1590843 -30.010891
-19.507034 -10.769201 -24.623877
-6.2907724 -17.79129 -29.982338
-20.491276 -8.702076 -21.570763
-14.317939 -1.1343616 -28.496136
-14.333247 -7.3076396 -17.336809
-11.042324 -12.618918 -30.034344
-14.314663 -0.98884398 -19.307083
-15.19065 -17.261101 -22.639261
-7.7263198 -8.1017094 -30.00927
-14.317357 -11.361643 -26.933704
-9.6170864 -19.372002 -30.018744
-11.216036 -8.5416307 -30.036243
-14.316503 0.57774067 -24.467533
-8.6871872 -20.620531 -30.008564
-14.5373 -2.3342323 -17.806215
-9.1848383 -10.38365 -30.016392
-14.318375 -21.945278 -29.783691
-14.314388 1.0948395 -18.535326
-17.766245 -10.7692 -23.736504
-20.997475 -7.7946529 -18.15921
-19.805271 -8.279459 -19.982491
-14.317185 -17.690228 -26.431423
-14.328542 -8.5999775 -21.224186
-14.315737 -2.4698999 -22.316582
-14.31767 2.1896718 -27.70871
-11.311722 -19.070709 -30.037291
-11.680823 -16.580887 -30.04133
-19.239031 -7.3548388 -16.506983
-10.035007 -7.798852 -30.0277
-19.337372 -16.092939 -22.640663
-14.313545 -5.1688843 -16.269993
-18.840481 -13.990059 -22.640503
-14.318378 -19.431389 -29.760351
-14.317478 -21.156494 -27.284767
-12.232719 -9.0195017 -30.047371
-7.870285 -8.4080257 -30.009827
-14.676341 -19.777138 -22.63908
-13.440709 -19.778004 -30.060589
-11.24115 -3.2364578 -30.045378
-5.5378027 -17.151279 -29.978001
-12.913432 -13.321361 -30.054825
-4.8220167 -14.491661 -29.978001
-20.554184 -8.4971857 -20.800488
-14.316501 -6.6249261 -24.535
-10.147472 -16.814571 -30.024548
-14.31818 -6.3981428 -29.204744
-7.1317978 -14.6886 -29.992628
-14.31461 -2.9632521 -19.16567
-12.244004 -16.377079 -30.047497
-22.897102 -9.6306162 -25.059807
-14.31816 -5.0114026 -29.151552
-13.498766 -22.209053 -30.061211
-17.700357 -17.654572 -22.640106
-14.317621 -10.434315 -27.699736
-14.598985 -13.774494 -22.766613
-16.064833 -19.979176 -22.639547
-5.1789231 -16.46435 -29.978001
-17.676146 -14.055929 -22.64011
-9.4179487 -10.465048 -30.018047
-21.453716 -10.769199 -24.785805
-17.684032 -8.1119728 -19.354242
-10.60803 -19.980507 -30.029591
-14.315849 -2.234797 -22.636662
-14.389885 -22.733971 -23.686939
-14.316737 -7.5416756 -25.217613
-13.921364 -18.618914 -30.065853
-17.116497 -11.04259 -22.639931
-14.314703 2.1818657 -19.420958
-5.5161314 -13.142125 -29.982944
-17.879179 -23.531729 -22.640148
-14.317238 -5.9050689 -26.590649
-14.317144 -3.3580298 -26.282814
-14.318166 -8.9909763 -23.916313
-11.245459 -19.8118 -30.036564
-23.090096 -9.3243952 -23.908522
-19.55756 -10.7692 -23.600121
-21.615284 -11.549179 -22.641453
-22.296288 -8.6775799 -21.477501
-14.316397 -7.8007684 -24.265516
-12.843412 -15.134803 -30.054056
-15.237338 -17.915051 -22.639275
-20.525373 -8.9876165 -22.644157
-14.907757 -7.3432093 -16.466082
-14.699398 -11.800801 -25.658684
-11.25096 -12.873155 -30.036627
-14.532204 -12.074449 -23.57999
-14.316986 -21.991898 -25.933212
-9.4906063 -17.848135 -30.017361
-14.31813 -8.4246187 -29.07337
-19.312082 -9.4653835 -24.440987
-14.331552 -17.659271 -24.80624
-13.370653 -10.052217 -30.059826
-16.625578 -11.8008 -25.714491
-14.128354 -20.22604 -30.068108
-10.924276 -5.2343774 -30.039272
-18.728748 -19.325747 -22.640448
-14.611833 -10.009019 -26.487701
-14.317273 -0.27677 -26.632584
-6.8854208 -5.7830954 -30.006996
-9.7038136 -2.7893167 -30.034292
-18.691214 -7.8831582 -18.493422
-8.2033329 -13.818618 -30.003269
-17.301193 -18.877325 -22.639969
-14.315434 -5.2139626 -21.515924
-14.313662 -4.2635241 -16.567837
-19.381845 -14.670623 -22.640682
-20.731493 -10.769199 -22.828539
-5.4661527 -11.601328 -29.985374
-14.316675 0.092778325 -24.952244
-17.079353 -8.2773933 -19.97649
-14.31653 -21.58329 -24.712196
-19.777176 -10.7692 -23.50164
-12.492237 -7.2643895 -30.050211
-17.992647 -8.2502422 -19.873831
-14.316285 2.0726566 -23.857197
-19.330364 -9.6222134 -25.030539
-15.114587 -14.745901 -22.639244
-14.557792 -17.061302 -22.774612
-10.254393 -21.025183 -30.025721
-19.646854 -9.4019909 -24.202461
-8.207633 -1.0303912 -30.022903
-14.318108 -13.892985 -29.008497
-21.226334 -9.3687429 -24.076447
-16.839893 -19.400948 -22.639811
-14.317461 -10.697577 -27.26721
-14.527543 -13.515175 -23.459198
-17.528276 -7.3635464 -16.540829
-11.46465 -11.786474 -30.038965
-11.04701 -6.7147722 -30.037518
-14.318387 -5.6824551 -29.763988
-17.03511 -19.028143 -22.639877
-15.957252 -8.3216867 -20.143734
-8.0764065 -8.5561829 -30.01115
-14.314293 -3.9528396 -18.308172
-17.220657 -10.166 -26.56031
-17.572256 -11.739156 -25.609398
-9.3584261 -3.7982936 -30.029774
-14.31682 -21.317122 -25.492584
-9.2136879 -15.620982 -30.014326
-15.431242 -10.7692 -23.345512
-23.063011 -9.8513031 -25.889313
-14.317462 -19.840576 -27.226616
-14.802976 -10.3412 -26.148115
-12.235275 -13.308382 -30.047398
-14.689243 -9.6866179 -25.275663
-12.26722 -13.031139 -30.047749
-12.410238 -16.562346 -30.049314
-8.2913618 -4.007472 -30.02113
-14.318195 -5.0729518 -29.24687
-22.604546 -9.1709967 -23.332174
-21.468372 -14.732189 -22.64139
-14.31715 -21.177555 -26.376183
-14.31733 -1.5624759 -26.792656
-11.177033 -16.283207 -30.035816
-13.775123 1.9978026 -30.065994
-14.318504 0.93065524 -30.027174
-16.740149 -23.762321 -22.639763
-13.850361 -9.7107038 -30.065075
-14.317506 2.4338694 -27.253326
-14.314379 -6.3890128 -18.622715
-14.411284 -11.509561 -24.766581
-11.955257 -18.955597 -30.044334
-14.313692 -3.2468693 -16.619104
-19.23259 -14.452792 -22.640635
-14.316863 -8.0099125 -25.577734
-14.317397 0.83560002 -26.975561
-14.316148 -5.9216518 -23.530582
-21.465206 -8.4136686 -20.485933
-14.31466 -0.34638286 -19.29888
-22.206017 -10.485151 -26.117676
-14.317142 -8.1416454 -26.36231
-18.665462 -8.7971811 -21.929472
-14.31782 -17.948198 -28.193022
-21.378157 -9.2040939 -23.45739
-15.923288 -18.494204 -22.639503
-14.316767 -1.2402822 -25.208796
-17.437981 -7.2835102 -16.240011
-19.123634 -9.6653776 -25.192934
-14.316704 -7.5412321 -25.123161
-14.315102 -0.32168484 -20.534859
-14.316708 -21.668819 -25.191795
-17.352232 -17.815756 -22.639988
-14.318269 -20.371521 -29.468609
-19.198339 -10.7692 -25.254614
-14.317606 -6.3964443 -27.631081
-8.7297735 -16.015919 -30.009029
-18.043407 -12.529651 -22.64024
-14.08563 1.0214143 -30.068398
-18.19515 -7.0899148 -15.511745
-20.592833 -7.4813595 -16.981724
-14.318344 -16.083721 -29.65052
-7.7205563 -11.749541 -30.00256
-11.682782 -17.603073 -30.041353
-14.316013 1.5283307 -23.097212
-12.804668 -12.975599 -30.053631
-14.313942 -3.7136457 -17.326572
-14.316538 -7.969749 -24.668253
-6.2724304 -9.5545559 -29.995358
-9.740262 1.8795066 -30.034765
-21.864136 -8.9638405 -22.553904
-18.563271 -11.564528 -25.609398
-14.31604 2.1513302 -23.170012
-15.848413 -10.7692 -24.800011
-14.515171 -0.85430551 -18.055441
-14.317275 -8.8275795 -23.676498
-22.203245 -8.7273254 -21.664566
-24.062363 -9.6988678 -25.315622
-17.897747 -13.057848 -22.640188
-14.318106 -9.1144753 -29.005932
-14.317089 -12.978712 -26.104378
-12.182539 -19.231674 -30.046822
-5.8133616 -16.937214 -29.97831
-13.649168 -11.118514 -30.062876
-14.317747 -6.1584563 -28.024187
-7.0414753 -16.196686 -29.990551
-8.8668947 -16.024155 -30.010532
-10.298661 -17.289415 -30.026203
-12.121455 1.0489993 -30.053194
-14.316912 1.5577202 -25.616205
-4.2881641 -19.359234 -29.929527
-14.318267 -18.430695 -29.439045
-14.730267 -21.865116 -22.639091
-19.249517 -16.340786 -22.640633
-22.54443 -10.7692 -24.892673
-7.8578129 -6.4210296 -30.013361
-8.69837 -3.2797184 -30.02561
-21.247246 -7.9365187 -18.692352
-13.25208 -20.006193 -30.058523
-14.441557 -13.657301 -24.241047
-14.218204 -8.2943735 -30.069101
-14.317917 -19.907341 -28.486883
-19.771393 -11.423491 -22.640827
-16.449924 -11.8008 -25.866856
-15.847002 -10.27887 -26.56056
-13.713185 -12.205206 -30.063578
-20.53866 -7.6633821 -17.666027
-15.054093 -16.507137 -22.639217
-14.688412 -9.2542391 -23.650253
-15.359056 -7.0036907 -15.189453
-17.882032 -9.6408577 -25.101568
-14.314428 -1.6070337 -18.647703
-14.991005 -10.7692 -24.57543
-14.315845 -6.4087095 -22.693668
-7.269587 -7.5752645 -30.006695
-16.343914 -10.941154 -25.6094
-14.314637 -1.6089083 -19.234571
-14.317091 2.0396185 -26.118418
-11.920033 -10.145782 -30.043951
-14.317456 -2.3516929 -27.14361
-21.859049 -13.219883 -22.641527
-16.246691 -11.443728 -25.6094
-14.317419 -8.9421511 -27.152199
-19.896503 -18.163595 -22.640846
-14.317648 -21.289064 -27.761024
-14.634065 -9.0023165 -22.703243
-20.368668 -7.8378563 -18.322027
-23.724224 -10.769201 -25.384176
-20.853714 -10.7692 -24.409111
-16.418264 -8.9036999 -22.33136
-18.489704 -8.6812172 -21.493652
-14.315434 -5.3090997 -21.518536
-7.8848505 -11.270474 -30.004707
-19.012218 -8.8178768 -22.007046
-19.152752 -10.7692 -25.215063
-20.056866 -14.291113 -22.640915
-14.547485 -8.4626722 -20.674648
-14.316135 -1.2332048 -23.437271
-20.226372 -8.7046041 -21.580435
-14.315685 -2.97962 -22.183462
-8.5575256 0.31942844 -30.025614
-14.315361 2.4104509 -21.261961
-11.18399 -0.99078238 -30.04594
-14.317233 -11.948003 -26.493334
-19.385815 -10.784596 -26.117577
-17.468943 -14.97909 -22.640036
-17.219379 -22.886936 -22.639927
-5.8757215 -15.802702 -29.980867
-14.318374 -21.457615 -29.773411
-14.316871 -17.554634 -25.589909
-14.317945 -14.624009 -28.512897
-18.619553 -8.9334059 -22.441603
-14.317841 -11.105272 -28.292023
-14.883858 -9.2387104 -23.591747
-14.3166 -19.533844 -24.879135
-16.711611 -10.3412 -26.344452
-14.31584 1.4052727 -22.607319
-14.327517 -6.2213058 -15.709743
-14.331757 -7.2802258 -17.523821
-11.716892 -1.0273504 -30.050064
-23.898432 -9.5953627 -24.926628
-16.675823 -19.815828 -22.639755
-13.909689 -16.14131 -30.065725
-14.316648 -5.1861315 -24.919708
-14.317575 -10.055938 -27.575113
-8.1478386 -17.844255 -30.002663
-12.337961 -7.1964006 -30.048523
-7.5848417 -15.509867 -29.9965
-5.9609461 -14.386884 -29.984116
-6.7901564 -14.579808 -29.990183
-8.449502 -15.795675 -30.005962
-5.565167 -11.799031 -29.985781
-14.317076 0.34513485 -26.076576
-5.4713807 -16.965881 -29.978001
-18.010139 -10.769199 -25.166496
-21.079151 -17.912935 -22.641247
-20.286633 -19.896448 -22.640972
-14.31798 -11.339769 -28.664627
-14.318208 -2.9828863 -29.257456
-14.316643 -19.813219 -24.996887
-14.316553 -2.6965775 -24.610975
-14.316616 -0.5661248 -24.786341
-14.317026 -18.266602 -25.994612
-10.825466 -12.128967 -30.031971
-14.316661 -5.5454412 -24.963625
-14.316573 1.233831 -24.666592
-6.7492018 -10.388783 -29.997524
-14.317884 -1.2330269 -28.343397
-14.875034 -15.282547 -22.63916
-14.316465 -4.6273599 -24.402405
-14.315779 -0.026454687 -22.435966
-14.31455 1.407075 -18.988396
-14.314758 -4.6656733 -19.624069
-6.581192 -13.314443 -29.990875
-14.315419 3.1008618 -21.42844
-21.993141 -8.9998026 -22.689014
-14.315458 1.7782331 -21.535141
-8.1419477 -7.9295993 -30.012804
-14.317118 -12.119163 -26.169373
-14.314054 -2.9175124 -17.61031
-21.087067 -14.021276 -22.641264
-9.4088173 -1.6887559 -30.032204
-21.228451 -8.2027225 -19.693092
-15.812575 -8.2136288 -19.737612
-13.816662 -18.819818 -30.064705
-6.8202434 -20.741858 -29.988132
-14.316153 -5.9198742 -23.548664
-9.9563999 -19.360731 -30.022457
-10.837002 -19.159966 -30.032095
-14.076343 -11.209352 -30.067551
-14.317776 -18.83662 -28.079556
-15.071304 -22.293436 -22.639206
-18.765507 -21.329098 -22.640453
-19.32062 -8.0598278 -19.157156
-6.2472315 -13.94615 -29.987137
-14.316877 -18.711979 -25.613897
-4.8751545 -18.618967 -30.083357
-14.317047 -14.243118 -26.005062
-5.6744189 -10.305217 -29.989357
-10.772791 -14.11409 -30.031391
-14.317677 -21.282312 -27.83987
-18.326328 -15.415545 -22.640324
-9.287612 -10.402283 -30.017155
-16.503328 -10.3412 -26.218449
-12.379849 -16.43696 -30.048981
-20.028364 -9.2729416 -23.717087
-5.3259373 -18.799736 -30.184401
