# .PCD v0.7 - Point Cloud Data file format
VERSION 0.7
FIELDS x y z
SIZE 4 4 4
TYPE F F F
COUNT 1 1 1
WIDTH 1521
HEIGHT 1
VIEWPOINT 0 0 0 1 0 0 0
POINTS 1521
DATA ascii
31.056299 -46.687473 -32.737526
24.694664 -27.715729 -29.996502
29.218611 -40.943939 -36.0756
21.799213 -43.858799 -42.11343
33.905266 -39.052231 -29.343969
23.980921 -39.080864 -32.6828
21.666145 -47.259548 -29.360441
38.668274 -47.273613 -29.337559
28.396038 -38.020947 -29.95149
31.056299 -44.834122 -38.305656
29.294994 -43.723259 -39.468498
27.579624 -30.099564 -29.978001
22.221621 -46.181995 -46.254002
25.424545 -36.562782 -30.205009
28.110703 -45.790401 -45.877239
34.150818 -31.327671 -29.978001
29.155899 -44.181213 -29.350363
27.081839 -33.494068 -30.133986
34.021645 -42.652798 -29.343813
28.40085 -45.562103 -29.351377
36.985741 -33.381977 -29.9779
27.544666 -45.614002 -42.861198
28.10882 -45.790401 -44.762215
38.846825 -35.823021 -29.977531
25.307055 -38.081413 -29.871025
37.857189 -26.007261 -29.978001
28.613047 -40.930698 -36.0756
31.267529 -27.739862 -29.978001
39.2136 -42.759804 -29.336826
24.677643 -30.608046 -29.9965
22.541245 -39.995598 -32.929565
25.305754 -39.995598 -33.960773
41.34071 -45.380886 -29.333963
31.056301 -47.58564 -40.581459
29.088055 -36.593281 -29.978001
28.695934 -41.183479 -36.0756
25.292791 -32.505749 -29.996502
27.779423 -38.08345 -32.875416
21.545662 -29.088549 -29.996502
31.056299 -40.615902 -33.797802
22.608946 -43.858799 -41.799904
32.675804 -28.99802 -29.978001
31.056299 -43.553783 -34.453903
24.182884 -39.995602 -35.120964
31.097855 -38.38765 -31.594711
29.501953 -28.681288 -29.978001
37.675152 -41.931717 -29.338898
25.931759 -40.29414 -36.372604
24.985235 -34.005711 -29.9965
22.846752 -28.023088 -29.9965
31.056301 -46.987957 -33.336166
36.952866 -37.034164 -29.977516
31.2939 -34.778389 -29.978001
39.754379 -32.360207 -29.97784
31.056301 -45.02235 -42.356354
38.584354 -47.347359 -29.337675
24.173519 -39.995602 -34.18821
24.671272 -37.389515 -29.978001
25.179335 -28.004747 -29.996502
25.433514 -45.281818 -29.355371
28.612173 -45.318363 -42.861198
27.440813 -34.902359 -29.978001
26.883545 -39.995602 -35.802849
36.73048 -32.148335 -29.978001
21.508526 -44.59449 -29.360651
23.87451 -41.770283 -36.0756
22.262138 -32.26593 -29.9965
26.458185 -38.0639 -29.68095
29.021578 -42.459747 -29.350542
37.345913 -46.435692 -29.33934
31.90514 -33.739326 -29.978001
31.056299 -41.370682 -32.058243
29.616493 -28.895504 -29.978001
28.333971 -45.790401 -43.87542
26.46402 -39.995602 -33.13908
26.318516 -43.763512 -39.468498
30.924831 -42.983437 -29.347984
27.089863 -38.431351 -32.6828
36.249657 -28.981392 -29.978001
41.667679 -44.768879 -29.333525
24.845316 -39.995602 -35.44186
21.628435 -39.811283 -32.6828
32.232342 -47.165386 -29.346222
22.347164 -41.9272 -38.716415
31.142105 -43.867203 -41.757534
31.269791 -37.339268 -29.977827
31.056297 -46.799583 -38.429428
37.361134 -36.068184 -29.977594
25.090588 -38.624908 -32.6828
26.353283 -39.995602 -35.579399
22.83292 -45.790405 -43.710701
39.667492 -39.922447 -29.336218
38.879589 -47.408348 -29.337275
28.823931 -45.790401 -44.422684
24.462053 -45.669441 -29.356678
25.08625 -41.9272 -37.41148
32.637108 -38.985756 -29.345676
31.056297 -40.798676 -33.120537
31.338209 -46.053829 -44.513439
22.541822 -38.0639 -29.298483
26.988159 -38.0639 -31.871172
25.200195 -40.756821 -29.355686
31.45063 -47.796993 -29.347275
26.483433 -29.534945 -30.205
28.234488 -42.603783 -39.468498
29.164896 -42.803577 -39.468498
32.253929 -35.040176 -29.978001
31.056297 -41.728279 -35.229946
30.05953 -45.895359 -46.566299
30.101946 -43.858799 -40.406464
31.859106 -36.429947 -29.977888
31.056301 -43.880547 -29.76569
31.119061 -44.180084 -41.140125
30.716713 -39.995605 -32.993973
25.498676 -45.790401 -46.153923
22.424667 -30.35498 -29.9965
31.056299 -40.04562 -32.485294
31.35508 -26.830231 -29.978001
22.203001 -30.653509 -29.9965
31.866203 -34.27129 -29.978001
37.750942 -41.881538 -29.338795
23.263529 -45.979603 -46.566299
37.243427 -27.112791 -29.978001
32.437943 -46.977585 -29.345945
34.807354 -47.918587 -29.342754
30.039768 -46.214394 -29.349174
34.261177 -41.491421 -29.343491
30.410511 -33.578392 -29.978001
31.056301 -45.674896 -40.68066
24.046112 -43.841331 -39.468498
39.518188 -36.743126 -29.977392
31.806171 -37.286499 -29.977798
28.967449 -38.0639 -32.605698
25.719677 -38.186272 -29.731367
31.183668 -42.093338 -36.087524
31.056297 -39.820049 -31.411377
38.058372 -36.496391 -29.977507
22.736094 -35.470982 -29.9965
31.075254 -46.145645 -45.979317
24.392214 -41.9272 -38.055901
25.023682 -43.881226 -43.082218
29.014479 -31.989391 -29.978001
31.448341 -26.308636 -29.978001
26.965075 -40.531658 -29.35331
26.328815 -41.9272 -38.397255
26.398485 -45.357151 -29.354073
30.646786 -46.140522 -29.348358
29.036104 -29.26405 -29.978001
28.671267 -31.014498 -29.978003
32.123661 -30.804514 -29.978001
24.619879 -45.790401 -44.283001
27.966652 -46.70636 -29.351959
23.397974 -47.540558 -29.358112
35.072071 -43.89677 -29.3424
29.503784 -47.502747 -46.253998
28.26902 -48.316681 -29.351555
28.008953 -41.9272 -39.113514
34.690453 -44.564384 -29.342915
31.056299 -41.846478 -32.516441
26.977253 -38.0639 -29.508333
37.234634 -27.380196 -29.978001
25.258316 -43.858799 -42.258263
22.400133 -45.790401 -44.600136
22.492041 -43.858799 -41.403694
22.168045 -38.375107 -32.856228
22.418959 -41.9272 -37.391598
40.49102 -35.272385 -29.977489
25.811398 -45.790401 -43.717182
23.24049 -46.066174 -46.566299
29.542515 -42.6222 -29.34984
27.061432 -44.891357 -29.35318
32.182426 -26.419905 -29.978001
39.479256 -32.510807 -29.977842
40.182381 -47.320438 -29.335522
26.919033 -38.0639 -30.051767
23.94421 -43.776306 -39.468498
27.256939 -40.250858 -29.352921
42.732315 -47.546951 -29.332092
23.975014 -41.9272 -37.607662
28.585718 -48.661865 -29.35113
26.786751 -40.76619 -36.0756
31.056299 -45.960114 -32.160976
31.056301 -46.929752 -32.631901
23.968544 -42.086483 -29.357344
30.523876 -29.648474 -29.978001
31.056299 -46.775246 -30.852531
29.224277 -38.755131 -32.6828
23.677689 -41.9272 -39.17189
22.021561 -33.407471 -29.9965
27.778759 -28.300493 -29.978001
31.056297 -45.869717 -39.533009
33.132248 -46.720444 -29.345013
25.378866 -44.990723 -29.355446
36.935299 -31.56868 -29.978001
31.056299 -46.399979 -32.683205
23.974487 -41.9272 -37.416573
21.464188 -38.0639 -31.857275
22.809681 -44.117466 -43.173599
24.601851 -40.303841 -36.277065
31.056301 -43.24007 -29.418039
22.941505 -39.384357 -32.6828
22.010382 -38.0639 -30.728779
30.312046 -43.858799 -41.664021
29.774731 -41.9272 -37.504196
42.352894 -47.626629 -29.332602
24.968294 -43.858799 -42.678165
40.959385 -45.067196 -29.334476
35.943951 -42.343628 -29.341227
21.968987 -46.808762 -29.360035
33.173431 -32.876808 -29.978001
23.772326 -37.480843 -29.978001
34.545696 -39.486649 -29.343109
31.797825 -47.023956 -29.346806
27.376585 -32.052231 -29.977999
34.538742 -35.71508 -29.977802
29.843464 -45.816696 -46.513096
29.806894 -38.0639 -29.7953
29.98031 -43.889084 -43.159637
21.461952 -30.965832 -29.9965
23.54673 -46.511002 -29.35791
27.029905 -37.765198 -29.978001
23.888172 -40.02095 -36.32534
28.410408 -47.027874 -46.254005
29.366171 -41.470139 -29.350079
26.991467 -41.650898 -29.353275
25.252905 -32.489952 -29.9965
40.924007 -41.505543 -29.334526
27.695894 -38.063904 -30.772703
25.292627 -35.089531 -29.9965
24.543329 -40.57085 -36.0756
24.659351 -45.815582 -46.502068
28.444651 -27.576807 -29.978001
26.110224 -45.230301 -29.35446
22.736162 -39.995602 -35.253292
22.808052 -43.858799 -40.247265
24.067125 -45.763489 -42.861198
26.041195 -45.796711 -46.316166
26.766674 -48.390366 -29.353577
31.056297 -43.497036 -29.847662
34.356613 -25.465076 -29.978001
33.501675 -34.517323 -29.977989
26.224924 -39.999821 -36.117134
27.185097 -41.658363 -29.353016
33.445122 -41.837376 -29.344589
31.056297 -41.642548 -34.918957
31.056299 -40.153152 -29.690178
35.312035 -48.023941 -29.342075
31.056299 -46.60054 -36.506134
38.882179 -46.141392 -29.337273
31.056299 -46.357105 -39.618347
24.909958 -35.107498 -29.9965
40.364765 -44.327141 -29.335276
22.267891 -39.80154 -32.6828
31.138063 -38.071903 -30.08696
38.786037 -44.903759 -29.337402
31.216923 -43.881294 -43.082874
34.612217 -37.304863 -29.977631
31.056301 -43.51207 -36.282455
27.182825 -28.327818 -30.02795
32.738712 -45.462109 -29.345541
34.927551 -27.120789 -29.978001
25.556355 -43.858795 -41.271076
34.581909 -43.661415 -29.34306
26.644144 -33.047653 -30.204998
21.987864 -28.584381 -29.996498
31.056301 -43.669544 -37.896038
27.336567 -39.995598 -36.065231
31.344852 -46.047195 -44.256088
22.070076 -40.609238 -29.359898
31.056297 -47.419441 -38.334496
31.720207 -39.18837 -29.346912
39.641418 -39.286476 -29.33625
37.621605 -48.319168 -29.33897
28.880632 -41.338627 -36.0756
31.155991 -38.379963 -29.404085
36.019661 -35.592365 -29.977726
26.447536 -42.652733 -29.354008
29.777815 -42.195244 -39.780434
37.26643 -48.546951 -29.339447
31.959896 -33.318153 -29.978001
31.056297 -44.161777 -30.469612
32.936699 -27.506756 -29.978001
30.591541 -41.9272 -38.016846
28.013643 -39.343479 -32.6828
42.371132 -48.514824 -29.332577
23.782875 -35.700066 -29.9965
31.056301 -40.950703 -33.235779
21.602247 -39.261482 -29.360527
30.065365 -43.858799 -42.488472
37.466331 -26.560093 -29.978001
26.961304 -39.208027 -32.6828
22.315407 -30.371159 -29.9965
38.26524 -40.797138 -29.338104
25.502954 -38.0639 -31.02264
26.318201 -38.971771 -32.6828
31.056299 -39.780075 -30.931194
30.859074 -31.880692 -29.978001
29.910614 -45.592152 -42.861198
30.39249 -40.72258 -29.348698
40.325432 -38.540146 -29.335331
22.561152 -35.942749 -29.996502
29.893764 -38.0639 -32.022926
29.434843 -39.995602 -34.161911
35.784229 -38.834038 -29.341442
31.410931 -38.042526 -29.922562
27.725586 -40.014572 -36.262508
39.523788 -47.763893 -29.336411
38.741745 -29.334652 -29.978001
37.275646 -25.749069 -29.978001
27.034275 -43.886292 -43.132103
21.424507 -43.811363 -29.360767
34.981258 -32.414249 -29.978001
26.524469 -37.374516 -29.978001
31.056297 -43.886425 -34.901169
23.517954 -38.0639 -29.61475
23.823841 -39.334358 -29.357536
24.684841 -30.605896 -29.9965
30.924398 -43.863041 -42.902985
41.388515 -40.962212 -29.3339
34.334099 -41.883343 -29.343393
34.748501 -31.115553 -29.978001
24.967316 -47.171509 -29.355999
39.520355 -43.968266 -29.336414
25.333729 -43.922115 -29.355507
29.994396 -41.137192 -36.0756
29.808773 -26.434296 -29.978001
36.915119 -39.792595 -29.339918
23.986355 -33.219875 -29.996502
35.408787 -30.901495 -29.978001
30.439152 -43.858799 -40.592945
27.094818 -27.229923 -30.120354
31.056297 -42.60535 -35.90213
34.046791 -34.147865 -29.977997
41.345791 -40.709133 -29.333956
22.498379 -45.034618 -42.861198
31.056297 -46.11068 -35.007339
38.327267 -44.131573 -29.33802
24.215897 -44.346954 -29.35701
30.818022 -47.600586 -46.254002
26.72298 -34.114952 -30.205
30.11006 -45.813126 -46.477867
30.081436 -37.683983 -29.977861
27.055386 -47.585777 -29.353189
32.262852 -45.317379 -29.346182
23.254232 -39.857803 -29.358303
34.771347 -34.593613 -29.977907
30.538786 -43.858795 -40.467052
24.53426 -47.058643 -29.356583
26.986971 -43.858803 -40.09568
34.052265 -48.389015 -29.343773
41.370098 -48.085217 -29.333923
36.167305 -39.751862 -29.340925
30.166771 -35.617962 -29.977999
28.996254 -38.203568 -29.708221
24.41762 -39.686241 -29.356739
24.920355 -48.502235 -29.356062
25.348974 -43.122562 -39.468498
38.185318 -28.252197 -29.978001
41.482616 -42.079041 -29.333775
39.437019 -42.918442 -29.336525
36.783573 -31.282677 -29.978001
37.159363 -30.278561 -29.978001
23.626127 -39.374382 -32.6828
31.056299 -40.625504 -36.014965
21.488953 -29.729385 -29.996498
31.056297 -46.485622 -39.328667
36.898388 -31.888996 -29.978001
22.049257 -39.830456 -29.359924
31.056299 -46.11908 -40.500366
37.52755 -30.557852 -29.978001
27.786674 -36.674053 -29.977999
23.360981 -46.136204 -46.365269
23.124048 -44.243759 -29.358479
28.756197 -37.977882 -29.977911
25.434362 -47.182392 -29.35537
37.805832 -42.195862 -29.33872
30.628136 -43.858799 -42.435299
29.017048 -46.348335 -46.253998
24.12282 -38.331799 -29.537533
28.15493 -38.58609 -32.6828
37.557503 -46.361546 -29.339056
35.641148 -39.5168 -29.341635
23.47633 -38.0639 -32.609356
25.054295 -40.015831 -36.274918
27.157804 -39.468224 -32.6828
27.983892 -46.008331 -29.351938
35.378681 -29.225262 -29.978001
36.898094 -36.371674 -29.977589
31.056299 -46.62328 -38.380638
35.451981 -31.419304 -29.978001
22.377554 -41.958664 -29.359484
21.655069 -33.19614 -29.996498
33.464523 -46.760269 -29.344563
42.314739 -46.51651 -29.332653
29.055727 -43.858799 -39.596802
30.804285 -39.995602 -35.922737
29.002798 -42.208294 -39.780418
29.323887 -40.284363 -36.387802
27.635143 -35.802887 -29.978001
39.987442 -35.785545 -29.977467
25.392853 -38.0639 -31.985123
26.213427 -44.555267 -29.354322
22.957003 -45.790401 -46.035324
22.358727 -41.9272 -38.117943
28.489723 -43.256763 -39.468498
26.302763 -38.067078 -32.714096
22.668154 -48.236305 -29.359093
35.816776 -32.641537 -29.978001
31.597445 -40.358631 -29.347076
32.536762 -48.175564 -29.345812
27.904675 -43.858799 -41.117565
22.644974 -45.790401 -43.074303
26.285936 -43.89957 -43.173599
22.579788 -31.675667 -29.9965
31.799685 -47.706703 -29.346802
26.975515 -44.319626 -29.353298
24.777596 -46.535107 -46.254002
32.915031 -33.54882 -29.978001
21.710413 -42.793285 -39.468498
40.358353 -44.076561 -29.335285
40.749336 -38.275543 -29.611635
23.719114 -39.995602 -34.160004
27.265369 -38.0639 -30.301779
23.780464 -39.995602 -35.452358
39.487137 -31.66703 -29.977932
29.134546 -30.390736 -29.978001
26.142572 -38.0639 -30.727631
31.056299 -46.995396 -43.388897
22.764959 -46.429901 -46.254002
31.530497 -26.120764 -29.978001
31.056299 -46.152702 -43.846821
40.551785 -36.192303 -29.97739
42.956417 -47.035141 -29.331787
31.056299 -44.195747 -40.72023
27.869644 -40.838226 -36.0756
31.359734 -32.90448 -29.978001
24.844778 -41.9272 -39.399796
22.073559 -44.077667 -43.173599
27.093693 -47.683411 -46.254005
31.056301 -44.747562 -34.534962
25.768635 -43.858799 -40.468025
29.229429 -29.288462 -29.978001
26.315594 -42.186115 -29.354183
37.492256 -33.168167 -29.977894
35.849434 -46.012882 -29.341352
24.302015 -41.9272 -36.178917
29.869202 -42.406643 -39.468498
27.649315 -38.0639 -31.25309
23.517355 -43.858799 -41.226265
31.095928 -42.102669 -29.347752
29.216141 -45.306656 -42.861198
35.100697 -45.411789 -29.34236
32.011112 -45.445961 -29.346519
27.455534 -31.986818 -29.978001
30.5362 -39.995602 -33.840115
38.244995 -30.59025 -29.978001
22.423759 -43.858799 -41.920357
28.184381 -41.9272 -38.65593
39.092915 -32.316505 -29.977886
23.428764 -43.996998 -29.35807
32.237736 -48.407463 -29.346214
23.429893 -41.168884 -29.358067
36.401321 -45.453255 -29.340612
26.505157 -45.790401 -45.507477
27.258751 -43.858795 -39.653851
34.616989 -37.644745 -29.977592
36.478138 -25.14599 -29.978001
31.056297 -41.698471 -34.332218
26.55324 -38.0639 -29.825993
22.098145 -41.532288 -29.359861
26.238058 -30.717625 -30.136309
30.731005 -45.408237 -29.348244
40.676998 -47.316532 -29.334858
22.870672 -43.858799 -40.80117
21.752172 -39.790188 -29.360325
26.02416 -45.287144 -29.354578
31.056297 -44.72348 -34.787861
30.835064 -30.709999 -29.978001
35.999855 -35.272514 -29.97776
31.056301 -44.433865 -42.212891
39.905792 -41.002052 -29.335896
29.18788 -45.790401 -43.253353
30.630053 -45.790401 -44.039566
28.380533 -41.954235 -39.73476
31.056299 -47.674164 -38.383537
35.850803 -31.880016 -29.978001
31.056299 -40.93959 -32.584393
30.514307 -43.705109 -39.468498
31.056299 -44.274776 -31.451632
23.562473 -44.515205 -29.357887
33.755592 -30.164211 -29.978001
40.112103 -44.440819 -29.335617
22.824072 -38.0639 -29.506401
27.553146 -38.063904 -29.772635
23.685083 -44.330521 -29.357723
31.056297 -46.692215 -30.615307
32.938358 -33.350922 -29.978001
31.848652 -26.044388 -29.978001
23.302622 -38.0639 -31.708771
39.930504 -38.892704 -29.335861
30.204552 -33.005451 -29.978001
30.251991 -43.858799 -41.395481
28.642752 -41.857407 -29.351051
29.622309 -43.858799 -42.462982
29.458021 -46.222992 -29.349957
30.785391 -29.265526 -29.978001
29.500902 -46.937515 -46.254002
35.40086 -30.94212 -29.978001
29.897905 -38.0639 -32.619453
28.641394 -28.134474 -29.978001
28.051905 -41.9272 -37.153339
37.665916 -28.804615 -29.978001
26.461231 -36.30135 -30.204998
36.228203 -31.845808 -29.978001
22.927641 -45.311069 -29.358742
23.911308 -38.136997 -29.796993
37.426121 -45.913567 -29.33923
35.175602 -44.228294 -29.342262
32.674282 -38.024921 -29.94594
27.810572 -42.735729 -39.468498
27.067787 -43.024414 -29.353172
36.332554 -35.815948 -29.977684
38.305962 -38.492027 -29.323441
25.922544 -43.858799 -40.128242
40.438126 -35.08968 -29.977512
34.660183 -39.753998 -29.342953
26.578074 -45.81356 -46.48217
40.840591 -39.760048 -29.334637
28.638592 -35.14587 -29.978001
30.769789 -45.790401 -45.411793
27.236406 -43.370152 -29.352945
29.150959 -38.0639 -31.16424
24.145679 -43.858799 -39.730068
24.002794 -45.40416 -29.357298
39.484718 -42.184299 -29.336462
23.061008 -41.9272 -36.902752
31.056297 -45.302773 -39.247238
30.93087 -41.9272 -37.1866
31.056301 -40.950439 -30.982363
25.804964 -41.9272 -38.304161
31.056299 -39.849728 -30.068497
25.974174 -38.733185 -32.6828
24.546566 -39.995602 -35.842766
36.671711 -44.759045 -29.340248
36.799679 -45.716434 -29.340075
33.341045 -30.281971 -29.978001
24.645397 -42.203499 -29.35643
31.056299 -47.671082 -45.092617
31.056301 -40.141457 -31.746845
34.493107 -26.250973 -29.978001
25.06106 -36.596642 -30.205013
22.033844 -48.493874 -29.359945
27.505135 -38.0639 -30.984562
28.667856 -44.865967 -29.351021
24.30109 -39.995602 -34.503151
28.869682 -37.996407 -29.977901
38.224022 -27.073372 -29.978001
33.92263 -40.430843 -29.343946
32.363411 -31.268253 -29.978001
23.688496 -39.12664 -29.357719
25.673717 -39.995605 -35.732018
26.650965 -43.121357 -39.468498
22.694574 -39.476982 -29.359056
36.522095 -36.499416 -29.9776
24.833311 -45.094284 -42.861198
31.056299 -46.406536 -43.593475
29.181379 -41.9272 -37.581303
31.905807 -29.280617 -29.978001
32.430405 -36.916 -29.977802
40.440849 -40.912407 -29.335175
23.722857 -28.079107 -29.996498
26.472904 -39.07645 -32.6828
31.291203 -40.302479 -33.224121
28.921736 -40.828598 -29.350677
41.135353 -47.104568 -29.33424
28.780792 -47.993507 -29.350868
32.519611 -39.254726 -29.345833
33.318188 -47.651024 -29.344759
27.09444 -32.717762 -30.12075
33.383041 -41.979752 -29.344673
30.297787 -41.9272 -36.840424
31.056299 -46.046371 -32.386894
26.777151 -30.022066 -30.204998
41.120522 -47.741207 -29.334261
22.834621 -41.944622 -39.640072
37.12854 -38.289593 -29.593136
31.116655 -45.797718 -46.035271
25.265299 -28.958256 -29.9965
28.075356 -42.246014 -39.566093
27.390224 -46.973083 -46.254002
25.436411 -38.0639 -29.946718
31.468357 -34.501144 -29.978001
22.226795 -41.942566 -29.359686
32.539227 -32.598061 -29.978001
34.72192 -40.729736 -29.342873
21.994753 -40.845394 -29.359999
25.643572 -40.707092 -29.355089
30.956964 -43.888538 -43.15427
25.786213 -35.998795 -29.9965
30.081749 -43.138317 -39.468498
23.586792 -29.641003 -29.996498
24.566242 -34.502468 -29.9965
36.738728 -31.002361 -29.978001
27.7341 -38.0639 -31.169968
28.18745 -46.471107 -46.254005
31.056299 -46.162342 -30.07198
26.40836 -39.995602 -35.171917
24.623905 -38.0639 -29.341812
38.093288 -39.028667 -29.338335
40.675308 -47.184967 -29.33486
31.546593 -42.314476 -29.347145
27.123922 -39.995602 -34.756599
32.663822 -47.810894 -29.345642
26.31237 -43.858803 -40.643829
22.356274 -43.858803 -39.686085
37.185287 -26.681538 -29.978001
31.056297 -41.129921 -30.509346
25.76948 -39.995602 -34.136715
26.471397 -30.99098 -30.205002
22.817831 -33.869213 -29.9965
28.140648 -45.790401 -45.329498
25.368601 -46.99231 -29.355459
31.056301 -43.199196 -37.280121
25.809309 -39.995602 -35.872681
26.171762 -45.790348 -42.861198
31.056301 -47.027782 -33.049538
30.48727 -38.063904 -32.541786
23.468491 -43.625381 -39.468498
40.675434 -46.553703 -29.33486
32.320667 -45.507114 -29.346102
26.174875 -46.455585 -46.254002
28.226887 -45.790398 -45.839314
31.056297 -43.263279 -33.567467
32.960892 -44.488815 -29.34524
25.837587 -38.0639 -31.700068
21.580154 -32.51527 -29.996502
33.688053 -29.489059 -29.978001
40.196613 -34.458897 -29.977592
22.274855 -38.967308 -32.6828
29.842175 -38.0639 -31.851082
38.413109 -32.805126 -29.977877
22.588709 -36.181732 -30.056757
21.891806 -46.477329 -29.360136
21.455811 -35.527695 -29.996498
23.985939 -38.0639 -29.306778
31.056299 -43.411552 -35.444519
31.637947 -46.868259 -29.347023
27.197674 -43.603115 -29.352997
40.825745 -38.282806 -29.601946
31.056299 -40.655586 -30.224827
25.260624 -47.611927 -46.254005
39.037498 -48.00716 -29.337065
34.637943 -45.091324 -29.342983
26.974421 -46.180943 -46.253998
27.61878 -38.140274 -32.995132
28.387877 -38.0639 -32.3647
31.518795 -41.337769 -29.347183
29.407953 -39.286926 -29.350021
24.145889 -38.151741 -29.777359
31.936342 -46.425499 -29.346621
34.945969 -25.24317 -29.978001
28.423824 -34.975872 -29.978001
39.061871 -30.950352 -29.978001
27.37146 -41.950699 -39.699959
35.278912 -39.324814 -29.342123
22.76643 -42.982071 -29.358961
36.006615 -31.773729 -29.978001
35.770809 -47.472153 -29.341459
31.180931 -38.338612 -32.995281
35.877159 -41.857018 -29.341316
30.431629 -41.932781 -29.348644
31.056299 -47.04377 -41.144451
30.471006 -36.429695 -29.977974
22.980869 -38.0639 -30.338909
22.048344 -40.864788 -29.359926
21.785267 -40.356686 -36.0756
27.544518 -27.990711 -29.978001
29.976122 -43.858799 -42.222916
22.64115 -35.513313 -29.996498
28.406702 -45.790401 -44.445621
37.989349 -26.078938 -29.978001
30.313431 -38.0639 -30.231298
31.077629 -45.792492 -44.273148
29.28688 -37.045742 -29.977978
31.056299 -45.558617 -37.45639
24.247684 -38.08218 -32.862904
24.212116 -45.607956 -42.861198
21.659941 -48.665031 -29.360451
31.251675 -37.205788 -29.977842
21.513353 -32.149357 -29.996502
35.062874 -30.038094 -29.978001
39.896564 -48.166382 -29.335907
39.415497 -43.662914 -29.336555
30.035467 -39.902504 -29.349178
34.302734 -37.833809 -29.977592
25.105062 -41.720207 -29.355812
27.224674 -41.9272 -38.417126
21.993088 -41.917587 -36.0756
24.931339 -47.183174 -29.356047
21.927223 -45.525803 -42.861198
43.146828 -47.422939 -29.331533
29.008467 -41.9272 -36.093231
31.335278 -42.230759 -37.505783
26.196093 -40.025387 -36.369026
29.970856 -35.65696 -29.978003
26.230179 -28.906754 -30.127903
36.770393 -32.936398 -29.977961
27.245983 -39.995605 -33.566036
22.455641 -42.52713 -29.359379
31.056299 -42.335091 -39.094868
27.816414 -37.383495 -29.978001
31.056301 -43.967613 -32.93042
28.307728 -45.790405 -44.091541
31.056301 -42.39642 -37.208488
31.056299 -46.897015 -36.230801
26.201012 -47.819748 -29.354338
31.056301 -47.006905 -31.480717
27.198696 -45.346779 -42.861198
21.744038 -41.9272 -37.556465
33.294388 -38.568817 -29.344791
29.822348 -41.9272 -39.076305
30.87224 -45.173241 -42.861198
26.837009 -33.916294 -30.204998
23.3888 -42.42664 -29.358124
34.528725 -38.455078 -29.372883
31.056299 -46.461472 -35.280666
26.188944 -39.292686 -29.354355
26.030846 -32.731411 -29.9965
31.345802 -38.15572 -30.649666
31.310444 -40.098831 -35.411736
39.624218 -32.202583 -29.977867
27.517584 -39.995602 -34.09045
35.029739 -36.21159 -29.977718
31.056301 -42.0555 -35.055462
27.458845 -44.200756 -29.352646
42.661446 -46.276451 -29.332188
38.974197 -31.748051 -29.977955
30.055136 -43.599144 -39.468498
41.776951 -46.388908 -29.333378
38.008503 -43.894653 -29.338448
22.956436 -39.995602 -35.339111
39.273178 -43.748989 -29.336746
22.953514 -45.790401 -45.074165
23.879494 -39.995602 -35.763779
34.44099 -35.675804 -29.977812
23.094881 -28.439682 -29.9965
32.193886 -47.636841 -29.346273
29.40892 -29.504452 -29.978001
31.203352 -47.280582 -29.347607
37.443687 -30.109119 -29.978001
30.620438 -29.039181 -29.978001
30.85508 -41.9272 -39.379234
31.056297 -44.86216 -38.172237
30.063595 -32.771584 -29.978001
28.834057 -45.494034 -42.861198
41.415672 -44.484882 -29.333862
36.217213 -28.706314 -29.978001
29.712132 -43.858799 -41.646667
25.662382 -29.662128 -29.996502
21.708462 -34.026855 -29.9965
25.726757 -43.451664 -39.468498
29.901821 -38.0639 -31.50317
24.454214 -46.919037 -29.356689
31.346029 -40.251663 -34.031097
23.35334 -30.148945 -29.9965
34.526638 -26.571472 -29.978001
27.835808 -43.858799 -40.936623
28.998676 -43.858799 -41.9744
35.395481 -30.278217 -29.978001
25.480659 -41.9272 -37.616405
33.887695 -25.339794 -29.978001
24.149647 -38.066849 -29.89043
24.325243 -34.348789 -29.996502
38.802654 -41.914474 -29.337379
23.846251 -39.995602 -35.650875
22.594318 -35.633694 -29.996498
26.098156 -37.020603 -30.205009
25.66589 -45.202229 -42.861198
28.286106 -40.234325 -36.387821
25.366688 -38.212082 -29.696987
23.051304 -36.193657 -30.069469
28.48432 -31.166531 -29.978001
28.897425 -46.41703 -29.350708
30.503399 -46.087402 -29.348549
32.022644 -26.863089 -29.978001
27.238705 -41.9272 -38.22295
35.990818 -46.031399 -29.341164
32.635326 -36.916325 -29.977787
24.887264 -47.348549 -46.254002
31.056299 -46.735733 -32.228981
39.261555 -38.143322 -29.787834
35.633289 -27.657557 -29.978001
33.264156 -34.847103 -29.97797
30.846951 -46.129219 -46.434082
38.740875 -38.432571 -29.402603
23.685207 -38.390789 -32.701656
26.725313 -31.904213 -30.204998
22.458759 -43.397552 -39.468498
22.273628 -42.781219 -29.359623
27.666517 -32.689999 -29.978001
32.425205 -43.42535 -29.345961
29.537922 -41.270756 -36.0756
24.245302 -46.896862 -46.253998
37.546181 -33.069778 -29.9779
29.186575 -38.455265 -29.372963
25.706455 -40.951973 -36.0756
22.563166 -47.408497 -46.254002
29.98632 -41.982903 -29.349243
22.371456 -43.222733 -29.359493
25.045895 -40.45018 -29.355892
27.272556 -30.187441 -29.978001
29.370625 -36.06377 -29.978003
37.462215 -46.40012 -29.339182
28.99431 -44.251095 -42.861198
31.920412 -39.213684 -29.34664
25.648067 -28.007801 -29.9965
31.056299 -44.281834 -39.743595
35.835453 -36.343571 -29.977657
22.530033 -41.9272 -38.975288
30.584503 -32.317928 -29.978001
33.040333 -45.322769 -29.345133
26.419914 -45.199814 -29.354042
28.084225 -40.285545 -29.351803
31.056301 -45.258156 -34.432186
39.39843 -37.102882 -29.977364
28.700289 -43.858795 -39.941933
27.233179 -38.0639 -31.57534
32.714653 -47.467216 -29.345573
38.004002 -35.695435 -29.977596
31.056299 -44.207092 -34.916695
31.769728 -42.399696 -29.346844
34.165009 -36.847931 -29.977705
28.587845 -42.129826 -39.780506
34.894203 -42.711639 -29.34264
28.478125 -42.138721 -39.780499
38.312294 -41.887768 -29.338039
25.247976 -43.858799 -40.109901
37.499893 -40.297157 -29.339134
31.206299 -46.130241 -45.439583
31.056301 -40.829987 -29.84523
23.009029 -43.005394 -39.468498
22.995874 -44.592094 -29.35865
23.965506 -45.790401 -45.688404
31.056297 -45.711281 -35.3074
31.056297 -46.271603 -39.122112
29.062735 -45.790398 -43.457592
30.269775 -40.025635 -29.348864
23.611977 -41.117035 -36.0756
39.193459 -38.241856 -29.656591
41.685066 -42.745056 -29.3335
26.514353 -35.415001 -30.205002
27.719696 -38.332359 -29.536753
24.32552 -43.718594 -39.468498
23.788435 -34.2882 -29.9965
28.695568 -34.810905 -29.977999
23.848125 -45.790401 -45.656517
23.246258 -42.853073 -39.468498
28.614714 -43.858799 -39.840263
31.056299 -45.366528 -37.730465
23.881966 -46.133713 -46.389832
31.520655 -47.682568 -29.347179
29.482079 -41.812473 -36.0756
31.44841 -40.582016 -29.347279
27.413696 -38.0639 -29.752079
31.056299 -46.828819 -32.197861
29.172377 -38.0639 -29.499338
26.401512 -47.180286 -46.254005
24.425699 -41.9272 -38.178871
33.89827 -34.632153 -29.977955
31.056301 -45.232765 -33.87262
22.554031 -43.858799 -41.521889
26.322435 -43.858799 -39.486969
28.019352 -39.770515 -29.351891
22.722477 -45.325218 -42.861198
35.068932 -31.269951 -29.978001
27.177786 -38.0639 -29.325779
24.782921 -43.858799 -39.685566
22.981823 -43.332607 -29.358671
26.746004 -43.858799 -42.4352
30.203796 -42.226746 -39.756252
31.056299 -46.874561 -42.292809
31.231239 -43.855984 -29.347569
31.056299 -39.400551 -32.125645
28.661657 -43.858799 -41.404694
22.952154 -38.0639 -29.376581
22.570808 -37.342468 -29.978001
25.254185 -46.595528 -46.254002
29.971073 -38.214828 -29.693161
24.663748 -32.544189 -29.9965
26.809639 -43.858795 -42.34325
24.298811 -29.827745 -29.9965
29.334087 -33.70752 -29.978001
27.437582 -40.718494 -36.0756
30.534416 -31.055634 -29.978001
26.13097 -38.381077 -32.797379
29.632753 -39.995602 -34.283691
31.056299 -44.779388 -37.663166
23.612587 -37.451679 -29.978001
25.959446 -39.816162 -32.6828
32.271503 -33.237072 -29.978001
31.219236 -38.375031 -31.069096
32.260494 -28.547527 -29.978001
30.845968 -28.660561 -29.978001
28.640465 -32.845764 -29.978001
34.57119 -42.787025 -29.343075
31.818451 -40.628563 -29.346779
27.301905 -45.530197 -42.861198
31.056301 -46.604408 -39.110779
34.434898 -30.313583 -29.978001
21.995174 -39.496796 -32.6828
38.804855 -45.127262 -29.337376
30.043835 -41.934296 -39.538391
21.92498 -45.330223 -42.861198
31.136831 -41.935623 -38.788868
27.994282 -38.825287 -29.351925
34.526512 -27.525227 -29.978001
27.247614 -46.521255 -46.254002
26.007267 -42.247036 -39.556
30.676352 -41.9272 -36.079288
25.731085 -38.0639 -31.855225
32.349274 -31.818178 -29.978001
25.33511 -38.074642 -32.788601
30.977684 -41.942276 -39.616993
31.056299 -40.738655 -31.419796
43.033962 -47.569855 -29.331686
26.215483 -41.102036 -29.354321
29.223513 -45.790401 -45.752953
26.382578 -27.539131 -30.204998
26.37829 -34.20158 -30.205
31.056299 -45.984257 -40.616577
32.729736 -47.653481 -29.345552
31.056297 -47.2715 -44.061131
37.746231 -30.054958 -29.978001
26.361397 -47.208385 -29.354124
30.292484 -44.176876 -29.348831
22.042107 -42.99567 -29.359934
35.70816 -48.108376 -29.341545
32.583183 -42.505581 -29.345749
31.934681 -37.217983 -29.977798
27.107508 -46.339191 -46.254002
30.013878 -40.009403 -36.211601
39.197525 -43.381882 -29.336849
26.069061 -28.683208 -29.9965
31.056297 -47.566299 -38.940903
27.784994 -45.431229 -29.352207
31.251766 -38.084618 -31.112814
29.570456 -30.589695 -29.978001
31.056301 -38.755886 -31.199413
31.056301 -44.653301 -32.960041
28.45797 -47.556419 -29.351301
30.910543 -41.9272 -37.912735
22.702099 -39.720867 -32.6828
37.283527 -43.729675 -29.339424
22.583849 -41.804535 -29.359207
24.362244 -45.340378 -29.356812
28.04318 -43.858799 -41.327328
29.535076 -41.9272 -39.325729
31.132427 -46.139736 -45.553764
34.221237 -30.261284 -29.978001
40.633923 -42.641273 -29.334915
29.192961 -38.075912 -29.878229
25.375088 -41.9272 -37.557198
31.056297 -43.776524 -31.650629
40.750504 -44.224102 -29.334759
31.501787 -25.92152 -29.978001
21.826168 -38.0639 -32.111984
25.433298 -28.514553 -29.9965
39.407864 -43.68116 -29.336565
34.007336 -43.271919 -29.343832
23.706696 -43.418957 -29.357697
24.214054 -44.540073 -42.861198
35.723614 -38.624325 -29.341522
31.933777 -26.154583 -29.978001
35.813107 -27.807598 -29.978001
33.762802 -29.356873 -29.978001
35.739033 -30.871716 -29.978001
23.686277 -44.418869 -42.861198
32.956493 -43.607243 -29.345247
31.056299 -40.6464 -35.782444
23.275772 -39.995602 -34.15097
31.056297 -40.347153 -34.188599
31.056297 -45.365028 -41.129402
30.239861 -45.814857 -46.494919
23.849052 -45.808922 -46.436462
31.17989 -45.802502 -43.405029
30.933208 -39.995598 -35.468071
22.954586 -48.115726 -29.358707
27.075062 -45.470497 -29.353161
40.312992 -39.671417 -29.335346
31.056299 -46.794441 -30.233143
37.646637 -44.408257 -29.338936
33.037861 -41.680244 -29.345139
29.032484 -45.790401 -44.900356
33.133442 -45.126064 -29.345007
22.771416 -43.858799 -40.5709
24.483414 -38.0639 -29.353313
25.814617 -39.268444 -32.6828
31.094536 -47.869091 -29.347754
24.41021 -43.847263 -29.356747
26.102463 -41.684612 -29.354471
39.399841 -39.407139 -29.336575
31.200005 -40.311527 -32.929195
22.596739 -39.700851 -29.359188
26.321625 -47.689091 -46.254002
26.978054 -27.784616 -30.205
36.917137 -44.07885 -29.339916
31.056299 -46.587475 -40.780903
27.509319 -46.428429 -29.352577
31.056297 -47.433128 -39.241371
29.812672 -41.9272 -38.321152
32.084576 -45.263676 -29.346418
27.289858 -45.790398 -45.636456
35.408649 -32.714546 -29.978001
24.348688 -39.995602 -34.973923
22.842319 -32.00631 -29.996498
23.084259 -34.296448 -29.996502
34.099895 -29.170679 -29.978001
26.26446 -44.989113 -29.354252
31.056301 -45.165558 -37.760178
28.070141 -38.0639 -29.71538
22.918253 -43.858803 -41.136948
35.449493 -41.425331 -29.341892
26.485779 -31.860203 -30.205002
28.650942 -34.690189 -29.978001
24.382296 -40.559586 -36.0756
30.751791 -48.183823 -29.348215
25.589752 -44.092339 -29.355162
35.397057 -30.28669 -29.978001
28.006512 -38.0639 -30.241381
24.173355 -38.372314 -32.88377
23.030453 -41.9272 -37.95385
37.763062 -44.774441 -29.338778
25.486729 -37.413616 -29.978001
24.196083 -45.790401 -43.368835
29.930176 -41.869541 -36.0756
26.185038 -30.016476 -30.07979
31.056301 -41.839344 -34.731419
30.805159 -38.939987 -29.348143
27.787649 -39.995602 -35.137203
30.9918 -38.063904 -32.286224
31.056297 -45.804863 -42.347717
25.846752 -43.858799 -41.898335
35.23558 -41.692299 -29.34218
36.380936 -29.297449 -29.978001
36.042175 -30.771664 -29.978001
24.198135 -44.469105 -29.357033
22.961357 -40.002792 -36.146465
39.049606 -31.486225 -29.977978
34.48455 -26.72253 -29.978001
31.056297 -45.912434 -30.596666
31.056299 -42.966194 -33.376701
26.773851 -39.995605 -34.549286
31.056297 -44.954659 -29.604305
34.952179 -33.478584 -29.978001
22.38295 -39.995602 -33.950165
26.406916 -43.858795 -42.379044
34.051628 -28.562962 -29.978001
31.056299 -43.287865 -30.735001
22.716423 -38.0639 -31.639538
23.615431 -41.9272 -38.797485
24.733936 -38.0639 -32.101768
30.449833 -41.626438 -36.0756
35.00666 -46.757477 -29.342487
25.958321 -43.496635 -29.354664
24.968168 -38.0639 -29.645796
30.55373 -41.9272 -38.936699
26.627167 -39.587898 -32.6828
31.056301 -41.674042 -33.317932
31.056299 -45.376038 -40.447212
38.289375 -28.642838 -29.978001
24.391033 -47.443733 -29.356775
37.669369 -30.014175 -29.978001
24.279341 -42.224403 -39.779388
25.429892 -32.120377 -29.996498
22.744221 -34.108383 -29.9965
24.0688 -30.332415 -29.996502
34.943657 -25.932753 -29.978001
23.128023 -37.514645 -29.978001
31.056299 -44.777718 -38.735977
26.938593 -46.563835 -29.353344
37.977367 -31.536629 -29.978001
26.684603 -41.9272 -36.877815
28.630424 -47.369423 -46.254005
38.856052 -46.899345 -29.337307
35.094986 -27.693455 -29.978001
27.898558 -38.183548 -29.734947
31.056297 -47.452057 -42.9128
31.056301 -42.575092 -32.86792
36.301098 -45.65189 -29.340748
25.894049 -33.979309 -29.9965
27.374731 -38.063896 -29.725912
26.61405 -41.9049 -29.353783
21.72665 -45.380722 -29.360359
33.251034 -46.354679 -29.344852
26.119148 -38.0639 -31.149384
31.056297 -40.851635 -32.541492
22.755331 -38.0639 -29.649294
33.934025 -25.890152 -29.978001
22.94553 -41.919491 -29.358719
22.299477 -44.478447 -42.861198
29.576065 -26.776352 -29.978001
25.084625 -38.0639 -30.513752
24.365307 -40.5093 -36.0756
42.119217 -48.057308 -29.332916
38.823368 -48.264454 -29.337353
37.185364 -30.611164 -29.978001
26.646706 -41.9272 -37.632481
36.785233 -42.383305 -29.340094
30.805504 -47.043789 -29.348143
31.020559 -43.186615 -29.347853
26.326382 -42.419304 -39.468498
28.846832 -37.814487 -29.977922
29.459261 -40.464825 -36.0756
30.91597 -43.858799 -41.973919
28.734936 -38.0639 -31.330933
23.233517 -46.41346 -46.253998
28.39246 -36.54538 -29.978001
24.771702 -39.995602 -33.258156
27.578108 -45.790401 -43.537781
31.975426 -34.320236 -29.978001
33.334446 -35.964142 -29.977848
24.411724 -40.823475 -36.0756
25.834455 -28.997559 -29.9965
24.084993 -43.858799 -41.419285
25.178558 -46.952354 -46.254002
25.407045 -31.904099 -29.9965
31.056301 -43.623386 -31.716949
27.76026 -38.846153 -29.352242
26.005714 -44.953674 -42.861198
26.71674 -41.595913 -36.0756
24.646948 -45.790401 -45.248905
22.687258 -42.597446 -29.359068
37.989525 -24.982813 -29.978001
25.423376 -47.41803 -29.355385
23.180763 -43.858799 -42.740311
31.056299 -46.519382 -34.368534
31.056299 -42.136486 -35.632671
31.919445 -27.792727 -29.978001
42.689384 -48.198803 -29.33215
28.330387 -39.772346 -29.351475
33.691841 -45.292618 -29.344257
25.58482 -32.227715 -29.9965
31.056297 -47.597435 -39.766251
27.082256 -32.104343 -30.133543
35.236534 -45.649872 -29.342178
23.244846 -43.033993 -39.468498
31.58061 -28.452843 -29.978001
27.858648 -38.092316 -29.856468
28.83761 -40.800468 -29.35079
22.269238 -44.535294 -42.861198
31.274303 -28.300114 -29.978001
32.75827 -35.550323 -29.977926
41.329647 -46.014565 -29.333981
31.056301 -45.407196 -41.079353
31.056301 -42.323944 -38.909542
31.056297 -42.719971 -33.158279
29.108768 -43.488453 -29.350422
26.941225 -48.531326 -29.353342
22.650215 -43.699333 -29.359119
29.848902 -41.700356 -29.349428
30.664059 -44.8246 -42.861198
29.509142 -39.995602 -34.833702
22.589663 -38.31411 -32.995262
27.637173 -38.05283 -29.909073
27.128624 -45.347553 -42.861198
28.54747 -37.590717 -29.977962
31.056297 -43.785934 -29.732861
35.134686 -31.314095 -29.978001
25.408432 -34.579613 -29.9965
39.762707 -39.304173 -29.336086
35.802868 -25.095428 -29.978001
33.259106 -46.468838 -29.344839
25.111088 -41.9272 -37.36055
27.145 -47.49931 -46.253998
25.008343 -48.004555 -29.355942
21.588863 -46.980553 -29.360546
31.056299 -46.892502 -45.740829
27.089624 -28.836597 -30.125809
22.74206 -41.9272 -39.268097
24.870018 -30.47991 -29.996498
28.623743 -39.995602 -33.424408
30.405663 -38.0639 -30.083778
31.242308 -46.129284 -44.279453
28.882664 -35.039703 -29.978001
31.056301 -43.94429 -36.387394
37.758217 -33.647469 -29.977827
31.056297 -45.171925 -35.429474
21.900265 -43.231632 -29.360125
36.825947 -32.319107 -29.978001
23.190033 -38.34621 -29.518337
25.341564 -32.356045 -29.9965
37.506371 -46.698036 -29.339125
38.124779 -46.535423 -29.338291
26.502291 -45.790401 -45.902382
34.37381 -35.726768 -29.97781
31.056301 -44.938141 -38.218124
31.056299 -47.222031 -43.053604
34.346886 -39.497936 -29.343376
25.799294 -33.211372 -29.9965
29.536827 -43.858799 -40.703041
27.165501 -44.382084 -42.861198
31.056299 -45.862091 -36.902786
24.662151 -40.006027 -36.178333
30.966324 -38.857311 -32.6828
22.368862 -29.725105 -29.9965
26.668406 -45.650772 -42.861198
26.076933 -41.9272 -36.732994
28.771791 -32.790367 -29.978001
21.912922 -41.9272 -37.000996
26.00053 -39.89146 -32.6828
27.547043 -39.446083 -32.6828
28.143017 -42.534916 -29.351725
30.204918 -42.175941 -29.348949
35.477108 -27.712568 -29.978001
27.226357 -30.037884 -29.982246
39.408138 -31.423805 -29.977962
29.185541 -35.352688 -29.978001
38.384888 -28.632366 -29.978001
23.765131 -45.790401 -44.602303
36.329472 -43.758835 -29.340708
27.207949 -44.82457 -42.861198
33.279877 -38.308926 -29.567623
32.840256 -34.610794 -29.978001
31.056299 -47.249256 -31.533371
34.274212 -31.912678 -29.978001
29.893028 -29.99509 -29.978001
22.287096 -46.957642 -29.359608
27.298115 -37.030945 -29.978001
34.811462 -34.373795 -29.977926
26.530237 -39.995602 -35.291004
24.036154 -43.858795 -39.682701
35.71862 -30.597397 -29.978001
23.808285 -35.793961 -29.9965
31.056301 -44.361881 -38.792217
27.646194 -43.858795 -41.7435
27.455177 -39.984695 -32.6828
34.938042 -47.802822 -29.342581
31.056299 -46.620255 -43.610458
29.346455 -43.858799 -39.807594
26.288862 -34.285049 -30.19046
28.388191 -45.790401 -42.950691
24.448818 -45.43808 -42.861198
25.269609 -41.144814 -29.355591
31.056299 -42.670364 -36.182465
41.110023 -47.327953 -29.334276
36.561813 -37.837536 -29.977455
27.35791 -41.9272 -36.700069
22.092443 -46.5588 -29.359867
29.113537 -41.6437 -29.350418
35.921528 -30.832314 -29.978001
42.055977 -43.393093 -29.333002
31.056299 -44.435448 -38.612816
27.249401 -43.463936 -29.352926
30.035831 -33.365067 -29.978001
31.534622 -27.983028 -29.978001
28.965912 -42.20739 -29.350616
24.29501 -27.71298 -29.996498
27.631313 -41.952919 -39.72179
32.303288 -34.502785 -29.978001
30.567497 -46.134823 -46.378876
31.056299 -39.748669 -32.100563
23.799797 -34.129124 -29.996502
23.636698 -39.500237 -32.6828
26.30541 -38.732513 -29.354198
30.898191 -26.721861 -29.978001
28.429874 -38.063896 -30.30806
24.025753 -36.687065 -30.205023
37.939323 -31.02146 -29.978001
28.53018 -43.859657 -42.869637
25.431982 -32.614304 -29.9965
27.119381 -41.942917 -29.353102
24.696629 -38.0639 -32.661697
38.43232 -42.399765 -29.337879
26.409243 -42.313301 -29.354059
36.075817 -28.022049 -29.978001
36.830299 -47.659649 -29.340033
25.150358 -31.840141 -29.9965
37.063004 -41.375961 -29.339722
26.044735 -42.678226 -39.468498
26.473679 -30.778538 -30.205002
32.338715 -39.661922 -29.346077
22.243093 -46.132328 -46.403473
31.056299 -45.795486 -41.513687
31.021595 -43.858799 -40.083755
35.302734 -30.760117 -29.978001
22.165281 -46.405102 -46.254002
34.842651 -44.341125 -29.342709
27.076778 -45.790405 -45.329132
25.080725 -28.402199 -29.9965
27.111694 -38.949112 -32.6828
27.60183 -35.807468 -29.978003
29.696655 -42.522285 -39.468498
24.066837 -39.777763 -32.6828
28.944929 -39.363445 -29.350645
31.372595 -45.830269 -43.183567
28.328878 -42.474789 -29.351475
29.870148 -28.560358 -29.978001
30.99165 -35.807236 -29.978001
28.440964 -38.063896 -31.029999
35.40678 -37.939667 -29.977514
40.853828 -47.088028 -29.33462
28.807917 -43.897232 -29.35083
37.811268 -31.558422 -29.978001
31.056297 -47.697784 -39.69062
32.758751 -30.229538 -29.978001
31.297245 -43.882393 -39.617153
21.55514 -40.408905 -29.360592
24.059301 -29.088499 -29.9965
32.378403 -44.585899 -29.346025
34.361916 -41.325706 -29.343357
23.787891 -46.01289 -29.357588
27.081345 -41.9272 -36.978714
29.990852 -40.515297 -29.349237
31.056301 -44.450233 -30.116564
30.930435 -37.016617 -29.97788
31.364948 -45.898033 -43.479321
22.87015 -45.276215 -42.861198
30.278252 -45.790401 -45.217453
31.056299 -46.467094 -36.627422
37.673038 -46.501999 -29.338902
31.056301 -41.639214 -32.72401
29.688911 -38.350433 -29.512556
30.61817 -39.995602 -34.704773
29.754282 -38.0639 -31.180748
26.553566 -44.395599 -29.353863
35.541695 -41.40807 -29.341766
39.285416 -44.9627 -29.336729
31.359636 -41.958416 -36.758469
28.433298 -37.083199 -29.978001
33.504036 -38.124439 -29.813332
29.519402 -40.025101 -36.366184
30.979557 -40.916142 -36.075603
31.056299 -46.688671 -40.743317
31.056297 -42.613159 -30.488609
31.056301 -47.091934 -43.967445
29.568804 -40.578804 -36.0756
25.130859 -38.390236 -32.707111
29.379112 -43.858799 -41.474007
31.782688 -47.652435 -29.346827
26.620445 -41.9272 -38.850719
39.353867 -36.986862 -29.977377
22.514767 -45.600479 -42.861198
31.155798 -42.226757 -39.756176
27.067221 -39.995602 -32.80925
28.177925 -42.438866 -39.468498
31.056301 -44.191494 -38.23447
24.318153 -32.720806 -29.996498
32.899517 -45.239906 -29.345324
25.725996 -38.0639 -31.600515
22.285225 -39.995602 -34.591209
24.050293 -42.010258 -39.78064
30.254967 -43.858799 -40.249058
21.448164 -30.495119 -29.996502
27.916069 -45.790398 -43.258171
24.683727 -45.790398 -43.601532
23.586611 -44.066841 -43.173599
31.361168 -34.475677 -29.978001
31.056301 -44.050491 -33.960049
39.630753 -47.377808 -29.336266
31.056301 -39.852386 -29.955944
22.045607 -44.161598 -43.117226
23.486063 -37.920166 -29.978001
29.806166 -43.858799 -41.420448
29.552082 -46.678341 -29.349827
29.894154 -39.995602 -33.489063
37.788113 -32.744122 -29.977919
25.908291 -46.71069 -46.254005
28.792101 -42.137413 -29.350853
24.918436 -36.373959 -30.205013
22.852028 -44.388943 -42.861198
26.326309 -38.919872 -29.354172
31.056299 -46.754261 -43.491993
32.454483 -45.595337 -29.345924
23.774807 -43.858799 -41.396393
28.981531 -30.856596 -29.978001
27.762075 -29.208712 -29.978001
35.065636 -38.430267 -29.405899
22.187386 -41.9272 -37.034313
21.792902 -41.9272 -38.389961
24.676168 -41.835567 -36.0756
23.737213 -40.915569 -29.357655
27.841755 -47.595287 -46.254002
35.969791 -28.036694 -29.978001
29.592573 -43.858799 -42.475067
29.287125 -37.690731 -29.977909
30.655937 -33.065968 -29.977999
26.226898 -39.519783 -32.6828
37.958939 -42.677757 -29.338514
22.702564 -41.9272 -36.778843
23.912691 -39.462875 -29.357418
23.084793 -41.9272 -36.288834
27.587755 -38.398159 -32.6828
33.000019 -45.067905 -29.345186
22.244572 -31.442568 -29.996502
29.932098 -36.196861 -29.977999
27.996723 -42.33839 -29.351921
31.37005 -40.077843 -33.103031
28.548172 -38.063896 -31.092381
30.453405 -42.031345 -29.348616
31.056301 -43.15826 -38.592186
27.456734 -37.79641 -29.978001
30.606274 -36.915951 -29.977911
28.435358 -44.805286 -29.351332
37.026432 -33.539772 -29.977882
29.839911 -44.058338 -29.34944
29.796505 -45.790401 -45.627575
32.371281 -37.243965 -29.97777
24.298815 -31.572308 -29.996502
38.764591 -35.546368 -29.977564
31.056299 -41.975487 -30.673071
23.475849 -41.9272 -38.429066
39.379608 -31.89292 -29.977915
28.663855 -45.811054 -46.457458
26.316778 -28.53722 -30.205
27.299824 -39.995602 -33.365936
37.984558 -35.433338 -29.977623
37.697231 -27.929167 -29.978001
31.056299 -47.39473 -35.403629
24.794806 -32.282722 -29.9965
21.70038 -41.781765 -36.0756
32.864243 -32.687901 -29.978001
31.056297 -40.603958 -31.736874
25.657564 -40.29871 -36.327625
25.070818 -28.533768 -29.996502
37.084496 -35.809494 -29.97764
28.411055 -45.790401 -43.772453
29.495564 -35.167843 -29.978003
26.195471 -46.600052 -46.254002
35.346039 -32.57476 -29.978001
37.568642 -47.839912 -29.339039
31.268663 -38.084694 -29.710426
39.589767 -34.57959 -29.977617
30.248329 -27.595263 -29.978001
31.056297 -46.219452 -35.611916
39.464966 -47.918633 -29.336487
34.778679 -40.192734 -29.342796
22.577782 -38.165489 -29.759045
31.056301 -44.359238 -35.572067
31.056299 -44.151749 -39.104256
31.231564 -31.879345 -29.978001
34.49884 -35.52494 -29.977825
29.375423 -46.117313 -46.55143
27.890905 -37.041473 -29.978001
29.996578 -41.9272 -36.233742
35.987553 -33.937206 -29.977903
33.58865 -37.690651 -29.97765
31.156139 -42.251396 -37.432831
31.295692 -40.092144 -35.98259
33.636497 -40.559067 -29.344332
40.75856 -37.369469 -29.977253
28.313875 -43.858799 -42.429821
26.653336 -45.468102 -29.353731
26.765123 -41.9272 -38.762436
31.075504 -41.929081 -37.625946
32.749676 -43.780373 -29.345526
23.46645 -41.9272 -38.584103
22.100418 -38.0639 -30.403027
35.241634 -46.655094 -29.342171
22.352541 -34.567085 -29.996502
29.958488 -40.216545 -29.349281
37.649818 -45.226055 -29.338932
28.119081 -41.195511 -29.351757
31.056297 -47.186836 -35.203564
24.930637 -44.3596 -42.861198
35.515285 -30.702543 -29.978001
25.708632 -40.586033 -29.355
37.763115 -43.475601 -29.338776
37.644127 -36.646332 -29.977516
41.285217 -41.949722 -29.334038
26.067368 -27.248058 -29.996498
24.386784 -38.234241 -29.667477
31.056301 -46.21743 -31.304836
31.975031 -36.945595 -29.977829
27.946629 -38.0639 -31.455105
31.056297 -46.90696 -41.566257
24.764692 -44.278275 -42.861198
37.063076 -26.815559 -29.978001
38.355553 -36.240116 -29.977516
24.868206 -39.74313 -29.356133
22.40554 -30.447273 -29.9965
28.206678 -43.199478 -39.468498
31.056301 -43.765823 -35.205101
32.232155 -26.20015 -29.978001
30.214481 -39.995602 -34.958275
38.330856 -32.011581 -29.977964
27.952007 -45.790405 -43.83247
27.824234 -43.055153 -39.468498
34.379589 -35.083485 -29.977879
25.837246 -45.463684 -29.354828
23.561773 -44.416012 -42.861198
26.900698 -41.9272 -37.597549
29.542252 -41.9272 -38.311291
22.300667 -32.530029 -29.996498
31.144735 -38.298019 -29.582279
39.741394 -40.135288 -29.336117
26.779152 -45.790401 -44.632126
21.728067 -47.028484 -29.360359
24.552147 -41.383213 -36.0756
22.878363 -39.227982 -29.35881
33.58247 -46.279709 -29.344404
34.107162 -30.062017 -29.978001
22.637478 -43.859146 -42.864639
31.098614 -41.120594 -29.347748
31.148087 -34.341427 -29.978001
33.357258 -26.632771 -29.978001
30.896465 -45.790398 -43.25774
23.597973 -41.9272 -38.688545
27.208904 -29.140614 -30.00057
37.071003 -27.359085 -29.978001
35.85368 -34.155106 -29.977886
41.032364 -39.723301 -29.334379
22.973799 -48.068016 -29.358683
25.822426 -43.858799 -40.283131
31.056299 -45.939037 -32.640762
32.056355 -32.232414 -29.977999
34.92688 -42.18325 -29.342596
31.056299 -39.528046 -32.481476
22.72805 -35.089176 -29.9965
27.184551 -39.951508 -29.353016
28.741295 -27.27519 -29.978001
23.101809 -36.977013 -30.205032
