# .PCD v0.7 - Point Cloud Data file format
VERSION 0.7
FIELDS x y z
SIZE 4 4 4
TYPE F F F
COUNT 1 1 1
WIDTH 1511
HEIGHT 1
VIEWPOINT 0 0 0 1 0 0 0
POINTS 1511
DATA ascii
-4.103364 15.228973 -33.472229
-6.6946158 4.5069127 -30.011194
-19.042646 15.232563 -18.178957
-20.047857 18.315571 -19.244801
-14.18922 6.3215032 -17.439322
-11.642157 16.214741 -35.676838
-14.318439 11.91823 -29.676184
-17.102959 15.227118 -22.852083
-21.073999 16.70801 -17.87446
-9.9346848 21.346279 -30.238462
-4.3363209 23.068773 -27.36055
-10.178087 15.229637 -33.698372
-8.6636534 21.283865 -30.338198
-14.31432 14.157232 -18.218872
-14.317798 4.1986036 -28.031384
-3.6329076 15.387675 -35.675995
-5.8987222 20.64883 -31.3843
-20.892664 17.543352 -30.059507
-14.046154 12.668559 -30.068089
-1.2774153 15.226692 -32.676247
-10.342095 25.923134 -22.201897
-21.073999 16.709602 -17.28417
-9.76437 8.8333893 -30.034952
-0.80595779 22.637138 -28.0665
-4.8811588 19.799219 -32.792149
-21.073999 17.371946 -32.889774
-4.0859718 15.227987 -33.12656
-13.096716 24.669437 -21.088856
-14.316595 3.0846505 -24.723949
-17.531797 15.228341 -16.680449
-11.715755 19.628614 -33.096573
-10.699422 7.2286291 -30.042189
-5.6947641 8.3272324 -30.003456
-18.000271 20.18722 -29.967207
-5.7024732 8.8857336 -30.003517
-14.1245 9.5921011 -17.345951
-4.5825162 15.219989 -30.286613
-11.389299 15.231719 -34.426895
-7.5667896 8.4955864 -30.017946
-14.316064 8.7231579 -23.184422
-9.2439156 17.469025 -36.675488
-10.825654 15.657966 -35.676105
-10.27907 15.389271 -35.67585
-8.3732491 16.506479 -36.52578
-18.193233 15.230572 -32.193104
-13.26467 15.93162 -35.67651
-11.940817 25.726017 -18.59618
-14.316645 9.3468056 -24.771505
-6.9919596 15.225138 -32.124519
-7.5182881 25.673626 -23.044353
-14.317406 11.429638 -26.840034
-1.636394 14.322527 -30.01939
-19.191349 15.232943 -28.109524
-5.4943891 22.621731 -28.10655
-19.340448 15.233393 -19.124329
-0.82428348 11.155287 -29.978001
-15.901293 15.223755 -22.92939
-7.044765 9.4177456 -30.013905
-11.654793 22.3619 -28.557077
-14.316115 4.9341407 -23.38229
-20.408869 16.422195 -31.908876
-11.15482 9.1169224 -30.045715
-11.37028 15.22344 -31.524502
-14.42103 15.223408 -31.510159
-7.4424071 7.6076498 -30.016983
-19.968815 15.291809 -25.632584
-9.8686037 5.7795172 -30.035759
-13.705399 5.0550513 -30.065453
-1.2983503 16.368771 -35.870346
-15.897877 22.108965 -21.416649
-2.5424767 15.695073 -35.676018
-9.2370281 22.922985 -27.617792
-5.4768305 9.9802914 -30.00177
-14.318293 9.2802963 -29.313946
-13.117421 24.650513 -20.609697
-14.316833 3.3843577 -25.387039
-16.253687 15.224712 -30.872578
-0.48942566 22.511076 -28.274878
-16.382238 15.22508 -28.324503
-16.768169 15.226175 -24.32292
-13.719886 24.099812 -23.69803
-17.476946 17.14537 -36.852726
-16.861893 21.227783 -25.308434
-20.130058 16.360886 -26.671488
-6.3664703 18.287184 -35.307854
-14.318431 14.115188 -29.622847
-20.729778 16.492735 -22.173721
-14.277666 10.0416 -30.069881
-14.081116 23.769623 -18.157389
-18.09367 17.894646 -35.995949
-14.455928 15.232351 -34.644867
-14.5373 10.533007 -14.925293
-6.7424512 24.042063 -25.751585
-7.1856937 3.1863871 -30.014996
-9.3002548 10.333316 -30.031363
-15.680931 15.22314 -18.7696
-19.82872 15.820032 -33.057236
-6.0304909 10.955047 -30.006056
-10.232763 15.22014 -30.358767
-13.207303 24.253841 -23.908056
-0.88804936 7.7730417 -29.821701
-8.7789211 27.028765 -20.744349
-14.314743 13.963623 -19.40193
-15.671364 16.185902 -35.676891
-14.316773 12.525914 -25.08041
-11.005986 25.633797 -22.3293
-7.069952 25.218189 -23.799341
-20.356449 16.410673 -27.963476
-10.727944 15.224157 -31.776764
-14.314466 11.474184 -18.73246
-18.360718 15.230618 -28.249802
-19.255642 15.233153 -19.55233
-7.5675335 18.50938 -34.942543
-3.5846021 15.228559 -33.327621
-19.221106 15.233041 -23.940639
-14.586679 15.351042 -35.675797
-11.68276 21.089909 -30.669622
-13.657745 11.36218 -30.065086
-1.6861453 18.175602 -35.478722
-1.7860841 6.9743624 -30.2346
-14.968363 15.227002 -32.769192
-7.8589849 22.545078 -28.241146
-14.316452 8.4986401 -24.258743
-6.3187504 23.448414 -26.736183
-17.081726 21.026836 -20.75897
-11.821959 15.23216 -34.580505
-14.316702 3.4697361 -25.020479
-19.968208 16.060324 -22.485518
-18.64702 15.231441 -22.100512
-21.073999 16.902929 -19.940165
-7.4867678 15.229158 -33.533531
-16.25639 21.361137 -28.749853
-4.9004359 24.751553 -24.567612
-16.368912 15.225059 -24.472187
-13.610321 24.199963 -20.84873
-15.950329 15.223898 -17.424629
-17.599403 15.228527 -17.561623
-9.860878 22.185883 -28.843863
-7.7586994 17.383987 -36.812134
-4.4217892 7.1064649 -29.993605
-12.21964 15.231005 -34.17506
-0.45769787 13.123035 -30.000088
-9.4750977 6.5039024 -30.032713
-9.868598 15.229254 -33.563988
-21.073999 16.795172 -18.786768
-19.27997 15.233215 -21.07205
-14.751773 22.341003 -27.576986
-18.406565 18.891724 -33.34222
-14.316207 8.0898409 -23.587719
-10.780744 5.2812438 -30.04282
-6.4565887 13.883079 -30.028509
-20.652733 17.762669 -20.687061
-18.862663 19.398928 -18.035444
-14.314623 10.79682 -19.182449
-15.412738 15.222385 -18.81918
-12.697677 25.034187 -18.404861
-16.600721 21.466511 -27.593393
-6.0361385 15.964499 -35.676395
-1.810257 14.705952 -30.024933
-2.4612117 21.708797 -29.61335
-17.317219 20.696178 -29.516888
-14.313995 14.235765 -17.31267
-7.0328245 12.581324 -30.013811
-19.708748 18.625542 -19.063089
-8.9811563 8.4893579 -30.028893
-20.923328 17.515326 -33.122311
-6.7433023 16.843779 -36.819607
-4.3790684 16.523079 -36.593567
-2.9452422 17.335548 -36.807888
-6.5540352 13.620094 -30.025375
-11.3209 15.223547 -31.562178
-17.362215 15.227846 -21.988394
-19.965641 18.390722 -26.216894
-13.574574 24.187019 -23.770578
-4.9798069 8.2409983 -29.997923
-19.968693 15.660818 -20.861814
-8.2977304 4.9559417 -30.023602
-13.748603 23.693638 -24.88743
-9.1916752 2.4332151 -30.030521
-5.2491345 21.775368 -29.511395
-7.5889292 22.833065 -27.762043
-10.776903 22.4715 -28.372347
-10.774401 10.235309 -30.04277
-1.3965895 15.220594 -30.494278
-17.288055 20.838238 -21.124868
-14.316992 8.5437775 -25.743876
-2.3958688 11.422625 -29.983852
-16.559793 21.503923 -26.764338
-11.376463 15.234535 -35.413494
-16.435631 21.617416 -18.984785
-14.21041 8.1037636 -17.448299
-21.073999 17.114216 -17.909554
-4.789608 12.823762 -30.009533
-17.817083 15.229084 -31.475956
-6.5638695 21.867786 -29.361973
-4.0635767 21.199812 -30.463589
-1.3307123 15.229153 -33.538124
-7.8768034 11.991842 -30.020346
-6.1524324 10.60645 -30.006998
-14.317983 8.3245306 -28.474047
-2.2522593 20.015583 -32.424713
-19.143793 19.141954 -22.261904
-9.5856075 15.228872 -33.431408
-18.423489 15.230778 -32.029491
-21.023247 16.557243 -28.431133
-12.894495 19.809975 -32.799015
-18.157938 20.0431 -24.296431
-18.710764 15.231639 -16.804123
-15.94145 15.223873 -16.804213
-8.4534235 15.228241 -33.211006
-18.983107 19.288834 -31.035843
-15.999148 22.016394 -19.442135
-18.398499 15.973003 -34.465679
-14.881261 15.228186 -33.184399
-4.351326 5.0987177 -29.993059
-1.3423157 17.802292 -36.097633
-19.654234 18.675373 -28.17724
-19.96839 15.888468 -23.962009
-16.982473 15.226782 -22.635775
-9.8618345 21.232121 -30.427826
-6.848938 4.9290729 -30.01239
-14.316214 9.8271685 -23.577999
-10.780093 17.140102 -36.832062
-5.5077991 15.233475 -35.0485
-11.93795 23.416901 -26.805853
-17.126486 18.835083 -34.431129
-12.553656 15.220819 -30.604786
-14.31561 13.235991 -21.840939
-6.778306 14.432968 -30.036684
-14.339766 19.205572 -33.80724
-11.074272 15.225763 -32.339188
-14.157276 6.4515715 -30.068951
-16.699089 21.376596 -23.200434
-4.1800165 20.730396 -31.243536
-6.6430883 15.22643 -32.577995
-20.624386 17.788582 -19.326397
-16.035927 15.225929 -31.843185
-15.480956 15.222578 -18.926941
-6.8666325 15.220322 -30.412951
-14.314373 11.081474 -18.489004
-14.662402 15.220273 -22.706165
-11.363827 25.77058 -21.599476
-8.0498419 14.561069 -30.042276
-19.345406 18.957663 -29.551481
-14.1245 8.7064276 -16.232815
-17.420652 15.228016 -20.420732
-19.968143 16.140871 -20.92588
-4.973712 13.513524 -30.019112
-14.318198 5.4767075 -29.113951
-2.8897395 17.178665 -36.807716
-14.167637 20.166309 -32.211163
-19.497223 15.233816 -23.062176
-17.234915 15.227465 -29.007401
-4.6248364 15.223811 -31.656578
-14.317915 13.753829 -28.205454
-15.661783 18.155033 -35.556004
-16.817326 15.226335 -16.960876
-9.0777931 17.427681 -36.743637
-13.152192 15.729366 -35.676247
-14.316017 8.8950834 -23.052294
-21.073999 17.159941 -17.278576
-4.1515565 19.99411 -32.466232
-12.411527 9.8297043 -30.055439
-1.3812933 15.228352 -33.257599
-21.073999 16.877716 -18.017214
-16.709221 20.98708 -29.318752
-12.093035 24.224548 -25.089663
-6.6572676 25.825218 -22.789944
-13.929268 18.378365 -35.179756
-7.524744 22.037327 -29.083366
-9.7500954 8.91786 -30.034842
-12.468221 20.712006 -31.299648
-6.8317566 13.022865 -30.018429
-21.073999 16.983444 -33.767723
-21.007215 17.438644 -31.324753
-11.626169 19.447004 -33.397907
-14.315943 3.7023718 -22.897274
-12.80426 17.82172 -36.100739
-15.200739 15.221792 -17.90267
-11.391829 7.8620057 -30.047548
-15.16272 18.828897 -34.435341
-12.724986 8.9081631 -30.057865
-14.396922 10.877113 -18.150375
-14.317117 5.0105677 -26.142235
-1.682446 21.487192 -29.978977
-13.403614 22.963417 -27.223175
-14.31798 5.8432627 -28.508545
-17.890493 20.287563 -29.199017
-14.100321 22.161499 -28.71603
-7.255518 24.414446 -25.134735
-15.332275 16.435856 -36.20639
-15.612171 22.370121 -18.903555
-11.041224 12.509845 -30.044834
-14.316779 12.802433 -25.089417
-16.955942 15.226681 -29.784878
-15.530474 22.444799 -21.841192
-15.659296 15.223079 -19.051239
-11.591146 20.072529 -32.358955
-20.496447 17.147137 -35.38895
-7.0995617 13.120909 -30.020536
-19.740067 18.596912 -18.176065
-20.20533 18.171631 -27.427643
-14.31758 4.8356171 -27.422287
-10.182343 11.573663 -30.038185
-7.3883944 5.7766218 -30.016565
-6.4800696 5.0245767 -30.009537
-15.109035 22.830027 -24.379265
-14.316135 12.943266 -23.310234
-19.495136 15.233809 -23.40436
-11.245167 25.929361 -21.288717
-6.4466124 25.300667 -23.660442
-6.3530293 7.73946 -30.008551
-3.0941117 6.2220626 -29.98333
-17.888596 20.289299 -21.456564
-2.1398184 15.229788 -33.760277
-2.4556441 20.49803 -31.624115
-13.284679 15.23029 -33.923737
-15.328452 15.222134 -28.16074
-10.206136 19.066364 -34.025673
-11.506676 14.768521 -30.055643
-14.318101 5.4662285 -28.843231
-2.7147598 21.402592 -30.122662
-15.409033 15.222358 -28.222317
-9.2918863 23.477209 -26.697535
-17.972822 20.212309 -23.301481
-14.3175 14.927745 -27.028564
-6.2977376 25.363346 -23.555889
-4.2192087 16.478798 -36.37936
-17.293812 20.832977 -19.697006
-5.3748269 14.982157 -30.039528
-15.635017 15.223005 -23.232254
-2.7238753 16.478416 -36.372902
-17.258678 15.895734 -35.560768
-14.314362 14.040127 -18.342138
-5.5807314 5.4377217 -30.002571
-2.7523217 12.038655 -29.992994
-14.316132 14.073088 -23.258152
-8.3208504 24.676239 -24.703243
-6.2404108 22.088125 -28.995041
-14.31674 12.228653 -24.990971
-11.649832 25.129429 -23.063231
-7.0341187 23.338974 -26.920137
-14.316175 6.8028188 -23.517712
-7.8689528 5.7970009 -30.020285
-14.789452 20.433056 -31.770082
-14.315954 7.5901027 -22.898815
-9.7310009 23.795021 -26.17108
-20.791941 16.825426 -35.094376
-18.330252 19.885593 -17.962055
-14.315706 7.6967454 -22.212055
-7.969296 20.626957 -31.427011
-11.381654 26.237131 -20.213713
-19.035385 19.241047 -24.085249
-4.546639 16.273012 -35.676758
-14.715147 21.598169 -29.639729
-18.408432 19.814129 -21.887466
-8.8700733 16.784117 -36.826172
-4.8606625 12.667567 -30.007711
-1.8861132 12.794398 -30.000198
-14.007815 20.529858 -31.606907
-14.38202 7.510807 -18.209133
-10.90057 26.67688 -18.653908
-14.755926 15.220542 -17.631491
-11.921008 3.7660096 -30.051645
-18.194574 15.230148 -29.256058
-7.9552999 19.395657 -33.471855
-17.278004 20.847427 -20.398497
-15.53486 22.44079 -26.113726
-14.315717 6.8107781 -22.257215
-15.744874 15.223295 -28.693163
-8.9916525 15.219378 -30.081778
-14.317544 14.693801 -27.15826
-15.234377 22.715454 -24.561975
-20.168398 17.930632 -34.20747
-15.933558 22.076349 -20.564566
-14.129553 15.219593 -30.172958
-7.2862396 19.815746 -32.772125
-16.514046 21.54574 -27.186213
-12.342488 21.729277 -29.609829
-20.238878 16.38483 -28.5028
-15.738043 15.223297 -23.157345
-1.1003299 18.048393 -35.688171
-11.52627 16.013693 -35.676579
-14.31736 7.0277758 -26.779875
-19.970163 17.836658 -34.661415
-14.314709 8.2145395 -19.436266
-15.188716 15.225017 -32.073174
-16.266911 15.22477 -25.240946
-19.968267 15.842499 -31.073296
-21.073999 17.037369 -25.773935
-7.4853296 15.12787 -30.047939
-2.1434939 12.623465 -29.998758
-3.3266845 9.526063 -29.985128
-13.607881 15.055356 -30.065866
-8.0995007 8.1650429 -30.022068
-20.966299 16.544725 -19.119741
-14.315405 14.65202 -21.213785
-11.518943 10.504316 -30.048534
-20.86375 17.569782 -29.861639
-19.934635 18.419064 -19.056208
-17.082819 15.227066 -21.973675
-1.9155029 15.233601 -35.097019
-4.1446328 22.961464 -27.538174
-11.833084 10.87449 -30.050964
-15.428685 15.22242 -26.417995
-14.318022 5.2526293 -28.628601
-19.968826 15.281123 -26.048975
-15.121986 22.67329 -26.325556
-15.435866 15.222445 -25.212399
-18.731335 18.506441 -34.069405
-8.7013521 26.760998 -21.242149
-13.158528 15.221987 -31.013039
-20.799835 17.628208 -21.543743
-5.3738055 25.477333 -23.363733
-19.303427 15.233291 -18.714466
-19.967777 16.208761 -31.905529
-16.95149 21.145882 -20.041626
-5.6886148 12.617861 -30.009615
-18.42836 19.795912 -26.84514
-10.197504 24.968239 -24.224098
-17.006229 15.226839 -25.150738
-10.242601 23.379345 -26.862995
-18.108667 19.991388 -30.647068
-18.744686 19.506767 -26.243793
-14.338126 23.534695 -22.722746
-17.839733 20.333961 -24.567408
-2.5736299 15.224865 -32.027714
-12.691336 19.015718 -34.117455
-16.559559 20.074347 -31.957613
-18.11022 20.086718 -29.614178
-16.204445 21.828739 -26.496254
-17.307135 20.820797 -19.513155
-7.7727761 15.233625 -35.098961
-12.355194 4.3488779 -30.055004
-13.016474 15.220346 -30.438633
-14.317501 13.174026 -27.072998
-14.31782 11.300285 -27.982059
-16.288406 15.224833 -24.573082
-9.7684002 14.21311 -30.04303
-10.958509 2.3407757 -30.044193
-10.412636 23.917864 -25.969173
-2.2057676 16.468397 -36.322941
-14.314178 13.068539 -17.869688
-14.315013 9.3251581 -20.277685
-14.400454 9.834137 -18.187857
-18.54595 15.23222 -32.702591
-5.9748335 22.259493 -28.709621
-15.416465 21.914272 -28.078363
-19.34499 17.525846 -36.132439
-12.680055 10.817995 -30.05752
-8.6508942 2.4459426 -30.026337
-16.845507 16.325029 -35.677208
-0.95291615 15.232314 -34.646866
-4.4102411 15.220636 -30.518425
-13.958758 2.9348397 -30.067413
-14.314014 13.171349 -17.407295
-8.4947796 20.60112 -31.471542
-20.89109 17.544794 -30.841391
-4.013463 8.8798466 -29.990442
-19.494717 16.510843 -35.678528
-11.498298 7.653378 -30.04837
-19.531631 15.233917 -21.793221
-5.2487226 9.7100849 -30.000004
-5.3523083 18.874685 -34.329029
-7.2668576 15.228588 -33.333427
-14.317472 10.645552 -27.035007
-14.317539 12.52803 -27.189613
-14.848111 18.016052 -35.784306
-3.6597381 23.252014 -27.054146
-10.885154 15.229043 -33.489185
-18.07493 20.118977 -22.100311
-20.180634 16.372015 -26.500973
-6.6064281 15.222601 -31.229012
-14.31719 5.80551 -26.3326
-15.003719 15.22123 -26.287647
-17.773094 20.394876 -24.053116
-2.4990964 15.022391 -30.031189
-9.5266094 11.455319 -30.033112
-17.712578 20.450193 -24.748821
-2.5624542 16.928394 -36.806705
-6.98736 8.3460569 -30.013462
-11.193396 24.229355 -25.454269
-16.173515 21.85701 -24.544897
-9.8612995 2.937695 -30.035702
-7.1980758 15.232961 -34.866501
-9.9313669 11.191329 -30.036245
-8.545351 10.792717 -30.025517
-14.317638 6.1244311 -27.557976
-21.037279 16.560328 -33.618591
-15.994321 22.020809 -18.628502
-16.778128 15.226223 -17.884972
-6.6459637 18.961906 -34.188171
-13.823438 22.65572 -27.643959
-14.317629 9.2378273 -27.484924
-14.314091 13.703369 -17.601049
-19.968021 16.217297 -21.931307
-5.7615137 20.232944 -32.074558
-5.6198425 7.753581 -30.002876
-18.877838 15.232103 -17.666489
-4.1670079 19.233776 -33.729008
-2.8727326 18.209709 -35.425735
-20.323593 16.40345 -26.516464
-20.261044 18.120701 -28.58687
-12.54714 14.662241 -30.057463
-13.371073 17.801302 -36.136391
-14.31476 10.731431 -19.559803
-2.5669851 20.219133 -32.087639
-8.3545723 6.2292786 -30.02404
-20.126684 16.360168 -30.910429
-16.926014 15.226615 -24.757841
-19.147297 15.232827 -25.620365
-14.313744 13.646185 -16.635246
-5.0726013 24.367516 -25.205933
-18.618196 19.622387 -27.611498
-3.3852978 23.004799 -27.463861
-19.968845 15.422116 -29.53587
-8.343092 21.390938 -30.159382
-2.004647 13.468605 -30.009369
-9.9799614 18.90242 -34.297249
-13.788527 18.558687 -34.879852
-8.1019135 4.9939442 -30.022087
-14.494742 7.9097657 -17.568768
-19.968935 15.317642 -31.267059
-17.917561 15.229399 -22.630587
-15.891596 22.114706 -19.830162
-18.783291 15.231836 -18.573116
-14.315533 10.152023 -21.699028
-14.317743 8.7610321 -27.811546
-15.054636 15.221374 -23.785574
-14.284109 9.5858994 -17.479525
-5.5638146 24.892059 -24.336311
-11.542576 17.097759 -36.834415
-4.0298004 8.4537544 -29.99057
-14.487745 15.228187 -33.184975
-17.352831 15.233353 -34.396629
-13.912146 10.823676 -30.067055
-12.934 15.228561 -33.318493
-3.6544847 22.006474 -29.122665
-14.263765 23.215136 -25.67909
-11.285022 20.637524 -31.419693
-20.614399 16.467373 -31.671556
-14.315494 7.2957187 -21.633633
-14.318149 5.0121222 -28.985199
-14.314555 6.8634849 -19.000637
-16.17135 21.858988 -25.778391
-1.2197232 19.391544 -33.457901
-19.618586 16.333612 -33.43103
-14.317451 9.4957628 -26.995064
-1.801641 15.221635 -30.868258
-2.1328509 15.228622 -33.351799
-14.473459 15.219741 -24.618935
-13.505947 24.295368 -21.037138
-13.062454 13.668071 -30.060478
-10.721062 15.230219 -33.901497
-12.792894 4.3989067 -30.058392
-15.630017 15.222981 -26.893997
-12.352169 15.231797 -34.452843
-18.120676 15.233123 -33.561401
-11.387817 2.7782736 -30.04752
-10.557663 2.5457237 -30.041092
-17.098133 15.227097 -24.584553
-19.009882 19.264359 -28.78816
-13.643806 24.169355 -20.927002
-14.318089 8.8558807 -28.762579
-8.0005665 2.6570983 -30.021301
-10.530417 20.1695 -32.194641
-14.314537 12.989863 -18.868
-11.065465 23.684122 -26.359375
-15.209892 15.22181 -25.041618
-16.732121 21.346403 -19.445908
-18.844753 19.415298 -25.150293
-19.580637 18.742645 -25.054808
-14.318183 14.906905 -28.925875
-20.497084 16.441574 -18.918339
-14.316936 4.2473841 -25.65892
-8.9137669 18.045235 -35.717529
-16.992941 15.226828 -17.959913
-13.118056 24.649929 -22.77463
-6.8825178 16.492332 -36.4529
-8.5059643 9.6298113 -30.025213
-9.4429207 18.547192 -34.885532
-11.967335 25.701777 -20.017004
-14.315605 6.8578687 -21.946135
-20.456654 16.432699 -25.504768
-20.183388 16.372631 -29.574553
-16.669006 21.404095 -23.862949
-14.317451 10.197598 -26.987169
-14.315663 15.004636 -21.920874
-19.872501 15.234856 -26.376038
-10.394442 24.021374 -25.797209
-16.608091 15.225704 -30.598242
-11.496638 12.788654 -30.048361
-14.313889 15.056791 -16.985813
-11.93557 22.245529 -28.751202
-19.968826 15.309531 -26.052481
-13.812688 20.936855 -30.930378
-11.35175 21.374046 -30.19672
-10.588523 16.539278 -36.690918
-2.7050214 23.57402 -26.51643
-14.438559 16.254332 -35.676956
-18.954063 19.315382 -25.984785
-20.514437 17.629482 -34.683952
-15.903008 15.925767 -35.676559
-4.323493 13.492376 -30.016829
-5.9550114 18.692173 -34.633995
-10.964652 19.273619 -33.683815
-12.176444 22.009409 -29.144081
-5.4573627 15.229329 -33.595814
-20.176352 18.198118 -29.630535
-19.994385 18.36445 -31.599144
-19.148439 19.137707 -29.354433
-17.056631 15.234887 -35.455471
-20.120491 16.358734 -21.391186
-2.5843556 16.3664 -35.859894
-1.1931472 15.29573 -35.676048
-9.5521364 5.8464146 -30.03331
-16.851379 15.228849 -32.569859
-19.342352 15.233406 -17.020777
-10.424258 21.510307 -29.96756
-19.812366 17.430824 -35.925716
-6.8185139 18.477539 -34.993111
-9.7859221 3.6325555 -30.035122
-3.3133683 19.271498 -33.663727
-5.4644971 20.892139 -30.978886
-17.780571 15.228998 -27.256886
-14.317209 9.982049 -26.322308
-9.3291502 19.698215 -32.973621
-12.634366 25.09206 -21.269659
-7.947073 18.910519 -34.277519
-4.3726449 24.837254 -24.423656
-14.315325 9.860755 -21.127632
-14.1245 8.2464447 -16.849701
-3.3547807 16.897995 -36.809151
-9.9030104 19.61828 -33.108139
-14.318349 10.736524 -29.448805
-9.4565639 16.408514 -36.056286
-6.1103959 7.0898619 -30.006672
-13.7566 22.72382 -27.524836
-8.2176867 24.501247 -24.993544
-4.5108809 19.483303 -33.315666
-1.404398 17.733133 -36.212677
-14.318433 3.9310651 -29.783722
-10.449015 23.10556 -27.318321
-2.0175295 20.213228 -32.095749
-12.539701 24.041885 -25.142639
-5.2067523 23.260754 -27.044403
-21.073999 17.362207 -31.962467
-3.1256108 15.226244 -32.516663
-14.31452 6.7514286 -18.904221
-13.803783 21.750628 -29.578878
-18.483643 15.230961 -28.285984
-14.240847 9.1256266 -17.461195
-17.321627 19.768703 -32.031631
-20.170044 18.203884 -31.221251
-0.43235278 15.222223 -31.074795
-11.524139 24.600689 -24.630787
-10.003307 5.8981972 -30.0368
-3.9116368 9.562151 -29.989656
-5.5189581 21.819515 -29.438911
-7.2021265 13.546866 -30.026415
-13.582874 10.848317 -30.064505
-13.020409 19.577814 -33.184963
-12.443832 23.55994 -26.552809
-11.942652 15.229067 -33.496258
-19.96792 16.114464 -31.034866
-14.464205 8.5112247 -17.55583
-8.2415428 8.6032619 -30.023167
-15.473917 15.22256 -17.639334
-16.639679 21.430901 -21.19013
-14.313674 15.142692 -16.384699
-17.222149 20.898479 -25.119938
-6.4336767 23.451691 -26.731092
-9.8277359 15.829546 -35.676308
-15.410185 15.222382 -15.917724
-14.610786 23.285463 -23.77409
-17.272324 20.852615 -23.761969
-14.316453 6.4733987 -24.289074
-4.3511419 19.054569 -34.027195
-1.2990451 21.241592 -30.385674
-7.7067027 16.391188 -35.96983
-5.8819008 20.75536 -31.207325
-16.761307 15.226135 -29.839813
-7.9378271 13.862081 -30.032801
-18.783207 15.231821 -22.566254
-3.7286344 15.577323 -35.675991
-19.968418 15.71179 -31.741232
-12.550709 19.631388 -33.094543
-5.3009291 12.204806 -30.003025
-17.340866 15.227806 -16.644707
-3.3395357 24.310873 -25.294657
-10.87915 21.058743 -30.718904
-18.957624 19.312124 -31.449301
-14.315976 4.5600014 -22.989645
-16.154289 21.874584 -24.823681
-10.31048 26.757812 -19.963905
-12.510983 17.902611 -35.965492
-3.6652203 21.941189 -29.231117
-4.2766309 22.504051 -28.298229
-21.004801 16.553188 -26.247261
-9.9868946 17.40432 -36.78524
-12.485279 25.046066 -22.497366
-10.863265 2.23348 -30.043457
-3.4702992 19.921642 -32.58448
-14.315554 7.0296946 -21.804779
-14.195601 23.664974 -23.93874
-14.318248 10.544474 -29.172186
-18.313438 15.230492 -26.505547
-12.113146 3.8238893 -30.053131
-1.7636876 22.524788 -28.256039
-15.806028 22.192921 -22.98019
-10.930882 9.9055347 -30.043982
-17.335217 15.227739 -30.40929
-14.316311 5.8770337 -23.905872
-8.1304626 24.603245 -24.823883
-10.131596 12.218907 -30.037794
-14.40325 7.7090588 -18.184628
-8.8064575 23.444447 -26.750446
-20.629002 16.470581 -31.456268
-11.973213 5.4563575 -30.052048
-14.316032 13.412502 -23.007111
-11.499412 20.311928 -31.961088
-14.346582 18.961048 -34.213352
-14.316096 8.395093 -23.276234
-14.314293 11.036452 -18.26861
-1.3769827 15.228187 -33.199482
-20.597191 16.463591 -22.714048
-18.909555 16.210747 -34.002625
-14.317162 9.0655689 -26.202421
-14.318431 14.252439 -29.623034
-1.9447818 18.427013 -35.061981
-14.315893 4.6804872 -22.7589
-19.839901 15.234793 -18.346018
-13.619614 22.80909 -27.428804
-18.053181 20.138857 -29.922829
-14.315937 14.110455 -22.716656
-14.315912 9.4948883 -22.753948
-10.747482 26.704842 -19.732828
-14.315186 4.4220815 -20.772066
-13.388996 16.48814 -36.45274
-19.108507 18.249708 -34.3937
-6.3639727 20.432426 -31.745127
-18.100216 15.229925 -18.280174
-17.018866 15.226882 -22.917301
-10.328304 15.227414 -32.918957
-18.320791 16.615843 -36.855331
-12.034371 15.22646 -32.582653
-6.916954 10.092978 -30.012917
-14.316929 7.3124075 -25.590319
-19.545258 15.233931 -28.630682
-5.9105415 22.812054 -27.791758
-2.0476234 9.6430521 -30.2346
-16.140114 21.887543 -23.741516
-18.845257 15.231998 -21.636311
-4.5543294 16.454535 -36.263283
-11.823246 20.738705 -31.253323
-14.429427 23.451239 -23.58765
-13.692006 11.747073 -30.06535
-3.6698527 19.052605 -34.028355
-0.99680805 15.224514 -31.897379
-14.313205 12.544374 -15.183153
-19.111322 15.232744 -21.167517
-12.623034 6.2457571 -30.057077
-14.317396 10.815479 -26.8211
-17.718861 15.228836 -24.389515
-19.519176 18.798824 -30.148077
-10.322274 26.744308 -19.988375
-1.2528353 22.724274 -27.923168
-4.9770861 12.197272 -30.001928
-17.642675 15.228645 -18.178438
-12.643145 8.7571077 -30.057234
-16.128626 15.226513 -32.054611
-12.365049 23.224201 -27.127199
-7.6431561 14.211368 -30.036453
-18.745237 15.231697 -27.338604
-6.1125655 16.992096 -36.817661
-16.38448 16.62565 -36.849354
-7.4273901 15.230642 -34.053406
-12.695594 23.134789 -27.276709
-6.7303801 25.930262 -22.615713
-6.6740661 21.48267 -30.001896
-14.31576 10.497358 -22.314623
-15.796418 17.517595 -36.615047
-14.317671 14.770697 -27.504564
-6.4023571 16.232527 -35.676746
-10.220778 11.255107 -30.038486
-15.892404 16.581831 -36.847839
-20.666874 17.749744 -18.122938
-10.12262 26.769054 -20.113264
-15.962356 15.223932 -16.955507
-16.873926 21.216784 -26.041861
-19.040405 15.232527 -26.123503
-11.481641 25.550751 -22.08165
-14.315343 12.786873 -21.114708
-12.117568 2.4052291 -30.053165
-19.551716 15.233962 -24.83687
-13.975883 21.086931 -30.681646
-12.739036 22.772675 -27.878225
-14.316608 8.0110378 -24.695736
-14.317825 11.968502 -27.987404
-8.574542 23.183804 -27.18259
-8.5397243 26.820072 -21.143543
-6.3034945 14.802054 -30.040041
-18.450001 16.649311 -36.855728
-9.9750261 14.99922 -30.053936
-20.244846 16.386135 -25.732361
-4.4818749 21.548225 -29.886253
-18.55401 16.408731 -35.358952
-16.632017 19.095152 -33.997692
-14.313149 11.044969 -15.091684
-9.4447594 6.1996593 -30.032478
-11.151377 25.061306 -23.745949
-18.121277 15.229985 -18.021233
-2.4815938 9.2699423 -29.978588
-14.316628 10.999622 -24.70351
-14.316492 9.3540115 -24.354214
-9.293581 3.7956474 -30.031311
-6.2743254 23.203018 -27.143583
-19.346613 18.95656 -26.675348
-14.315228 11.064344 -20.844486
-11.681046 22.134493 -28.934824
-19.968769 15.238192 -23.86228
-15.578336 15.222836 -26.963623
-8.5586739 8.3873739 -30.025623
-7.0046816 17.825645 -36.076317
-14.314892 14.309789 -19.801327
-17.89213 20.286068 -18.770111
-17.576307 15.228459 -18.555244
-14.316622 4.7716503 -24.78142
-17.332596 20.797525 -26.577991
-19.967937 16.138981 -29.07268
-16.498369 17.650045 -36.397247
-9.4700813 8.1637917 -30.032675
-6.3984823 8.8656006 -30.008904
-11.757038 19.406965 -33.464806
-6.8657646 22.142231 -28.907112
-14.720348 15.22044 -19.169506
-21.073999 16.708187 -30.910023
-14.855457 23.061815 -21.525774
-10.650022 15.23181 -34.459274
-4.543807 20.839462 -31.063522
-8.6700459 4.8271151 -30.026484
-2.5760534 9.1732521 -29.979321
-19.426262 16.372044 -34.075306
-14.314631 11.601179 -19.184185
-12.852791 24.29821 -24.131351
-4.8488417 18.169445 -35.498703
-3.4641809 18.531635 -34.892921
-1.8383112 10.186913 -30.2346
-19.835184 17.861454 -34.728333
-18.796135 19.45974 -17.84977
-20.178059 18.19656 -19.408581
-14.31385 14.907614 -16.884932
-6.9389849 12.647422 -30.013853
-3.4405513 17.869867 -35.991882
-9.4405956 27.150406 -19.752935
-19.338446 15.233339 -31.648422
-14.959271 15.221108 -21.462128
-18.80154 19.4548 -24.334423
-18.143097 20.056664 -24.896408
-14.315998 7.5193357 -23.019646
-1.7750461 13.276663 -30.006155
-17.758257 15.22897 -17.916258
-21.073999 17.212673 -18.942661
-14.315699 9.2411823 -22.167625
-4.9763765 21.529995 -29.91806
-3.382267 5.8536391 -29.985561
-20.646503 17.768364 -27.382275
-14.318233 9.8998003 -29.139709
-14.316736 15.068444 -24.896891
-9.462245 11.498961 -30.032616
-2.6043572 21.196768 -30.464146
-16.367157 21.68001 -20.947674
-14.317167 12.89647 -26.160639
-5.0633001 21.902279 -29.300055
-10.131258 6.0695925 -30.037792
-14.316967 4.9017739 -25.732616
-16.871574 15.22644 -31.10327
-3.3587546 19.715321 -32.926788
-14.316101 5.9846592 -23.329145
-16.56963 16.561022 -36.814327
-14.315479 10.291802 -21.548965
-17.341228 20.789633 -25.749834
-5.5002503 9.9285679 -30.001951
-19.968239 16.144176 -17.044788
-7.4134669 18.190899 -35.470985
-8.4646139 10.529535 -30.024893
-13.205727 5.4351988 -30.061588
-5.5677834 19.536661 -33.230312
-20.26153 16.389748 -19.290445
-14.949156 15.221081 -22.013002
-2.0403223 14.745403 -30.026157
-20.591217 16.462278 -31.42902
-0.24345398 22.773565 -27.83819
-9.8649015 17.72827 -36.246861
-12.445843 15.740225 -35.676247
-9.6828957 8.3097105 -30.034321
-0.39840198 15.222712 -31.249466
-4.2400055 16.508902 -36.524712
-20.038229 16.340614 -19.300806
-12.764495 24.973112 -18.632544
-10.630042 19.981396 -32.507339
-13.496231 20.956959 -30.896015
-11.270243 22.101418 -28.988487
-13.635635 11.988298 -30.064913
-18.596006 19.326254 -31.968098
-8.2574129 22.0324 -29.093811
-10.152914 15.22816 -33.180649
-6.1607494 3.9597631 -30.007063
-11.410174 15.232027 -34.534657
-14.315343 9.7428284 -21.181803
-8.2622662 15.222171 -31.080206
-13.180735 24.592636 -18.537201
-17.647287 20.509872 -25.005589
-14.618206 15.220152 -21.538923
-13.872457 12.681463 -30.066748
-8.7522984 14.084859 -30.038221
-14.313916 11.974422 -17.184563
-21.073999 16.65064 -30.576387
-7.0314407 18.794632 -34.467155
-6.708993 24.976603 -24.199448
-9.3104839 6.9883523 -30.031441
-8.6666937 15.09631 -30.05117
-5.8912377 14.487213 -30.034658
-8.8079853 15.22126 -30.755289
-9.3027267 6.6666908 -30.03138
-14.313774 12.150176 -16.782648
-17.203659 20.492723 -30.174314
-14.318332 5.9091187 -29.474201
-7.3461452 4.4181252 -30.016239
-3.0193224 12.533474 -30.000282
-15.106536 15.221523 -21.772932
-11.619637 25.734299 -21.471415
-21.073999 16.585897 -24.82048
-5.01441 10.36634 -29.998192
-2.4166851 10.717632 -29.978086
-16.532942 15.225498 -29.466347
-6.7083235 15.229721 -33.731491
-1.5482268 23.353199 -26.879589
-17.418388 15.228024 -16.168577
-4.3625283 21.690746 -29.649197
-18.137877 20.061436 -24.095583
-4.5177107 19.99094 -32.47263
-11.664351 8.0648336 -30.04966
-20.981695 16.548109 -31.286755
-12.419585 25.288383 -21.491951
-14.999344 22.930292 -20.849968
-14.315903 6.5436425 -22.774048
-17.739067 19.651899 -31.934099
-15.641855 18.97702 -34.190826
-1.302181 16.493752 -36.442532
-5.8052173 19.72168 -32.923775
-19.150166 19.136127 -18.146809
-14.316462 3.6850944 -24.355827
-1.2090683 15.229241 -33.569714
-14.358927 15.232313 -34.631805
-19.968214 16.168579 -16.826874
-14.313288 11.140027 -15.469955
-17.429689 15.228004 -30.215855
-6.6941767 15.233239 -34.964912
-11.618166 17.834476 -36.075886
-8.6617327 15.228811 -33.410297
-8.0357275 24.884777 -24.356037
-14.345748 9.5145206 -17.505642
-13.516482 12.576186 -30.063993
-1.5739512 18.066513 -35.659538
-3.7806139 15.221922 -30.976562
-9.6581879 2.1450915 -30.034132
-12.922141 24.829012 -20.070215
-13.268406 6.6162491 -30.062073
-9.5758352 19.295525 -33.64315
-14.5373 10.655544 -14.674924
-18.58843 19.167526 -32.408619
-12.304226 11.828156 -30.054609
-4.7299757 15.233955 -35.218361
-3.6245737 20.800606 -31.125221
-13.712024 21.63748 -29.766504
-14.315817 6.814064 -22.535297
-11.711994 15.859827 -35.676384
-0.83379197 9.8709917 -29.821701
-2.7474227 21.074896 -30.666985
-19.472572 18.166862 -34.256752
-6.1680307 8.3416748 -30.007118
-20.38479 18.007589 -24.299919
-14.47808 10.159009 -18.098255
-12.534649 16.46106 -36.319393
-13.092156 5.0028849 -30.060707
-17.583817 15.228468 -21.608242
-10.214687 24.940041 -24.270981
-14.315805 9.9221869 -22.45381
-2.492178 19.96246 -32.51368
-8.8147755 8.0043716 -30.027605
-11.363396 24.150505 -25.585749
-20.726156 17.695555 -30.554565
-14.314406 7.189558 -18.588142
-14.639737 21.128483 -30.614687
-16.483673 15.232098 -34.554199
-14.316622 3.3640213 -24.800991
-16.255413 15.41498 -35.675911
-14.608178 21.796516 -29.20533
-18.494625 16.597836 -36.855869
-17.308861 20.586857 -29.812672
-8.9059391 15.220946 -30.643562
-13.007998 15.233829 -35.16465
-14.872564 16.354214 -35.810917
-3.1545193 15.2292 -33.552746
-16.518637 21.506462 -28.124355
-19.704521 15.234368 -30.347645
-1.7825317 17.894585 -35.945717
-14.313345 14.331212 -15.500895
-14.314466 13.942184 -18.63526
-17.685205 15.22877 -16.754982
-7.8395462 10.430342 -30.020058
-9.244998 22.87727 -27.693735
-10.944468 26.197079 -20.859472
-16.472404 21.583805 -24.055214
-15.779701 22.216984 -22.967527
-7.5815129 7.8330603 -30.018061
-13.972725 18.841076 -34.411446
-8.8431959 6.6559181 -30.027824
-20.906433 17.530767 -23.625307
-12.630496 19.367054 -33.533783
-16.84866 15.22638 -29.820961
-17.519125 20.627022 -28.1626
-20.387426 16.417448 -19.216911
-14.317696 10.838879 -27.647779
-20.48864 17.912664 -26.002043
-17.35902 20.773373 -20.254227
-3.9115195 14.142237 -30.024048
-14.317575 12.235634 -27.296499
-17.91741 20.26296 -27.647902
-6.9457645 3.8166499 -30.013138
-14.317638 2.9331088 -27.610025
-14.343164 15.221526 -30.850677
-17.388588 15.2279 -27.533363
-11.196524 12.949335 -30.046038
-14.314338 5.1934314 -18.395887
-4.0848622 15.225494 -32.252594
-2.8895001 8.712698 -29.981745
-11.225033 16.544447 -36.717827
-14.314821 12.826794 -19.667091
-16.561508 21.409744 -28.334475
-11.191626 7.8119121 -30.045998
-1.6584663 16.399368 -36.005836
-14.318408 13.520134 -29.570612
-8.9201279 4.2923279 -30.028419
-17.330765 15.227777 -17.198206
-8.3462381 13.080888 -30.023975
-19.96859 15.594962 -30.844917
-7.4501448 15.233461 -35.041962
-14.984568 15.223783 -31.640951
-15.516824 15.222666 -26.684734
-2.8093233 23.158884 -27.20619
-14.331322 15.219344 -22.548082
-10.50267 19.312576 -33.617695
-8.6306429 15.221137 -30.710743
-11.48525 19.536837 -33.24828
-14.065636 15.887964 -35.676472
-14.342024 15.219372 -24.356592
-11.547709 15.226003 -32.422604
-0.8935585 23.042557 -27.393471
-6.9248085 16.834084 -36.820168
-17.077682 15.22703 -27.282623
-4.3254371 14.68206 -30.032375
-11.781137 21.562759 -29.88464
-20.313948 18.072344 -33.532364
-17.947819 20.235163 -23.655249
-15.097165 22.840876 -20.903778
-8.1573143 18.442408 -35.055588
-14.316849 14.759653 -25.221899
-16.353218 15.225016 -23.819145
-0.54022503 22.711634 -27.941959
-15.212708 22.73526 -25.961514
-8.6499796 15.04166 -30.050404
-8.1673374 15.229706 -33.72438
-14.1245 8.4087849 -17.087402
-14.315084 10.068724 -20.46587
-12.676739 21.651646 -29.739784
-8.2173319 2.821609 -30.02298
-14.31848 6.1556988 -29.881065
-14.31766 13.366637 -27.507431
-21.073999 16.915503 -33.53273
-15.995868 15.224018 -23.442936
-6.9928575 15.234453 -35.38987
-17.721996 15.228857 -21.122028
-6.3084035 18.504099 -34.94743
-13.10512 21.174202 -30.534021
-10.434542 19.927204 -32.596733
-5.564548 20.120636 -32.260468
-17.633774 15.228592 -25.851326
-1.3690505 15.228817 -33.42067
-2.236269 21.443758 -30.052822
-20.758051 16.534521 -34.716629
-14.316767 4.1510711 -25.188353
-16.450775 21.603573 -22.682207
-4.3366356 5.5480175 -29.992945
-5.1887493 21.833168 -29.415218
-14.31747 5.9115353 -27.100307
-14.317209 10.024202 -26.318697
-17.525862 16.336916 -35.502174
-14.315102 14.030769 -20.396122
-14.316397 14.678876 -23.968605
-11.816669 2.5506024 -30.050838
-16.985949 21.114384 -21.853632
-11.240793 15.222829 -31.310661
-12.895287 10.882186 -30.059185
-13.080998 15.220314 -30.426903
-6.2008486 10.636847 -30.007374
-7.4532447 5.7022319 -30.017065
-19.18478 15.232912 -30.88179
-9.9805374 15.223744 -31.632786
-10.272119 26.096386 -21.799067
-9.356822 24.406427 -25.154533
-14.761219 21.870583 -28.850735
-8.8609715 6.7442279 -30.027962
-13.075673 15.229152 -33.525162
-12.367321 15.220708 -30.56591
-4.6649923 18.669228 -34.668121
-14.31689 5.2713771 -25.511986
-13.684948 6.000329 -30.065294
-11.115563 21.134235 -30.594257
-20.992704 16.550529 -29.726404
-7.0073471 3.7956257 -30.013615
-14.316769 2.9155169 -25.213074
-17.508926 20.636345 -23.110909
-19.967983 16.248817 -21.810692
-5.3926992 21.140892 -30.56554
-14.313747 11.989647 -16.7129
-15.303198 22.652548 -19.397152
-15.031878 15.221312 -23.777336
-14.315717 4.6133823 -22.264812
-13.151203 5.3064599 -30.061165
-13.522562 24.280182 -19.624472
-16.21785 18.30055 -35.316048
-16.088999 21.355942 -28.930889
-5.7023053 25.41354 -23.470692
-14.317503 10.046096 -27.12606
-6.4394941 17.361237 -36.818672
-19.304489 18.995064 -23.993532
-19.967815 16.157679 -32.967175
-15.073599 15.22143 -21.617918
-13.933086 15.224319 -31.830379
-11.655505 4.0290856 -30.049587
-5.8160024 18.868649 -34.340485
-12.934116 15.220404 -30.458584
-3.155539 18.324366 -35.236191
-14.406416 23.472271 -23.556866
-21.073999 16.842966 -29.429657
-17.233376 15.227491 -20.927212
-16.03076 15.224125 -16.076704
-8.7299709 15.227802 -33.056702
-16.46862 21.587263 -27.648106
-18.406292 19.816086 -19.478687
-3.7562399 19.912291 -32.600895
-1.847415 15.227221 -32.860291
-13.3014 24.48234 -22.668694
-5.9888158 4.802166 -30.005733
-17.270245 20.854519 -21.977337
-18.951805 15.232258 -31.665583
-6.203403 20.435051 -31.740273
-5.167758 15.999784 -35.676422
-14.315779 13.251307 -22.309917
-13.625637 8.3960972 -30.064837
-20.282333 16.394382 -26.790188
-10.569133 15.228903 -33.4403
-10.181439 15.231037 -34.189232
-16.895988 15.226556 -16.720531
-20.93886 17.501127 -31.757631
-20.706814 17.713236 -29.364
-7.9334702 3.3011236 -30.020782
-13.719255 24.100389 -20.481836
-16.554974 15.227559 -32.1894
-12.910945 15.229282 -33.570801
-13.317797 2.8096795 -30.062456
-20.614246 16.467337 -16.96603
-20.328026 16.404425 -31.305122
-1.5377593 14.570109 -30.02232
-12.704778 19.677032 -33.019211
-8.1113615 16.343184 -35.757286
-14.318198 10.146111 -29.039791
-14.313493 12.142821 -16.000229
-10.841961 15.226175 -32.4842
-14.314432 11.795501 -18.625877
-9.6028957 24.54916 -24.918247
-1.4699221 18.04355 -35.697357
-5.2327204 19.354908 -33.531124
-13.194976 15.23018 -33.885468
-17.652874 15.228628 -30.516781
-5.6596804 11.903571 -30.003185
-17.782604 20.386183 -26.488428
-14.313832 12.199615 -16.94224
-10.207253 25.907337 -22.379402
-15.097006 17.12948 -36.845383
-16.716106 18.824142 -34.448029
-11.765718 2.8725767 -30.050442
-14.318563 12.022366 -30.016956
-11.721107 15.220005 -30.314285
-0.73831606 19.3578 -33.512459
-18.267786 19.94269 -19.058867
-11.218276 25.616379 -22.165182
-8.2484388 13.702135 -30.03167
-6.1081114 15.226282 -32.526871
-16.25024 21.78688 -21.459013
-3.8741961 16.332285 -35.708878
-1.1133833 19.055874 -34.015038
-14.315454 9.7867832 -21.489075
-10.516039 12.229657 -30.04077
-13.366753 20.288452 -32.00584
-8.0486059 15.227442 -32.931118
-18.764101 15.231789 -16.822502
-8.5541134 22.965569 -27.544966
-16.812052 15.226293 -25.932045
-17.972061 15.229527 -28.879707
-19.968004 16.031868 -31.872456
-6.409924 15.219821 -30.232161
-1.9556074 23.679104 -26.339596
-14.1376 22.866295 -26.756401
-12.959972 24.79443 -19.404526
-6.9867258 18.883921 -34.318733
-19.433718 15.234641 -33.107201
-9.4783478 2.1592522 -30.03274
-10.179104 26.574335 -20.588087
-3.5033612 9.094203 -29.986496
-16.582071 20.561699 -30.605818
-16.936357 21.159716 -24.353468
-19.876266 15.234865 -26.078749
-10.516999 17.945192 -35.888622
-6.4759789 5.4370489 -30.009502
-1.1251717 21.027184 -30.741219
-4.9331727 19.867134 -32.67952
-18.36557 16.892544 -36.855469
-3.4657402 23.609299 -26.460186
-11.966272 25.226353 -22.483398
-14.31853 3.8216891 -30.051876
-14.316726 14.622381 -24.888113
-19.968517 15.881674 -19.290112
-15.978115 15.223955 -27.088518
-10.158552 8.2186079 -30.038002
-19.968733 15.498879 -22.44553
-4.1467972 15.658325 -35.67598
-5.7972322 23.438576 -26.750908
-14.316967 9.9666986 -25.652235
-9.1671801 15.225682 -32.31282
-10.020679 15.224249 -31.809528
-13.097675 19.625494 -33.106022
-20.494434 16.441004 -29.753397
-20.439335 16.428869 -18.99642
-14.315556 5.7556887 -21.81163
-14.399435 7.7270918 -17.528387
-14.315782 15.060488 -22.246498
-20.963348 16.544075 -28.970598
-9.594738 24.013779 -25.807358
-5.2581649 22.959606 -27.544701
-20.785439 17.641367 -29.152565
-6.7796221 20.384104 -31.826658
-13.547094 15.228472 -33.285881
-14.316349 3.9485116 -24.038055
-15.005827 19.472969 -33.365215
-8.5695581 7.3203559 -30.025707
-9.2237358 7.5092139 -30.030769
-15.548825 15.235128 -35.61721
-18.629332 15.2314 -20.108437
-14.396725 23.481131 -23.389494
-8.8792086 6.8301759 -30.028103
-9.0968885 15.220234 -30.388536
-4.2095652 16.541035 -36.67971
-1.2086878 20.126316 -32.237591
-4.6388855 5.4878612 -29.995285
-17.337688 15.227796 -17.383085
-8.3882704 7.6654902 -30.024303
-8.0404577 3.7447107 -30.02161
-7.1217451 16.23461 -35.676765
-0.48275089 13.679407 -30.007433
-19.250561 15.233127 -22.854139
-12.655268 16.510265 -36.557266
-10.40856 6.6521029 -30.039938
-20.374346 18.017136 -21.216217
-10.51755 15.455113 -35.675846
-14.316721 6.0688119 -25.036203
-4.9688892 15.231669 -34.416477
-5.7871075 15.221186 -30.719154
-14.317961 14.64425 -28.316231
-2.6979251 21.601919 -29.791578
-13.614368 13.466905 -30.064751
-18.316929 16.264248 -34.584866
-5.987875 12.451037 -30.008358
-4.0028243 23.282347 -27.004829
-20.964764 17.477449 -33.62957
-17.05662 15.233641 -34.820152
-12.52302 22.471329 -28.378019
-9.9532032 20.290394 -31.992079
-14.317732 9.6874409 -27.763332
-7.4895158 3.4302433 -30.017347
-11.659482 21.555914 -29.895636
-14.31531 11.398972 -21.064884
-17.309597 15.227696 -22.915913
-3.249979 23.004444 -27.464033
-14.314522 4.688942 -18.908484
-14.314985 12.868675 -20.118973
-15.214664 15.228132 -33.165375
-5.3560405 18.0783 -35.651638
-17.249668 15.227497 -31.11182
-14.20042 17.668495 -36.359512
-13.805117 23.509802 -25.332544
-17.149271 15.227259 -19.962973
-7.5063715 8.835638 -30.017477
-12.648071 23.407602 -26.764746
-14.318392 11.871673 -29.547216
-14.094737 21.28154 -30.358812
-14.315143 12.48176 -20.571787
-17.955368 20.228264 -29.823135
-10.804725 2.6599679 -30.043005
-0.92651987 20.862955 -31.013348
-7.582808 4.5927625 -30.018068
-0.97584963 21.844522 -29.383358
-20.278912 18.104368 -18.895721
-14.475565 10.245758 -15.285856
-14.017754 23.827538 -20.276823
-11.631677 23.828102 -26.122005
-6.7537618 18.886351 -34.313976
-14.554482 17.532419 -36.586594
-14.317951 7.7656794 -28.396559
-7.8188567 15.221504 -30.839352
-18.517164 16.374073 -34.982113
-14.316504 7.020216 -24.422493
-21.073999 17.229538 -21.619045
-6.0802431 8.49897 -30.006441
-19.591175 18.733013 -26.932625
-20.807684 17.621033 -33.013763
-14.384391 23.492405 -21.090273
-17.118504 15.227148 -26.275381
-19.582989 15.23404 -27.264872
-20.240248 16.38513 -28.375225
-11.387343 15.221887 -30.980072
-9.5595798 6.9989405 -30.033367
-12.390676 24.014999 -25.364536
-16.138651 21.888882 -24.025429
-4.9241271 19.290033 -33.637917
-8.4229765 22.678402 -28.021475
-3.0004942 8.7949886 -29.982605
-7.9160795 16.562113 -36.792885
-18.712635 19.536066 -19.375978
-13.070486 8.5589132 -30.060541
-21.073999 16.885912 -33.490505
-13.805153 9.4126282 -30.066227
-19.464695 18.848627 -29.622967
-10.096119 23.478909 -26.697193
-10.386696 22.57308 -28.202446
-14.315207 7.6804271 -20.832239
-10.612786 24.160517 -25.566805
-20.012253 16.334938 -23.729366
-6.3103609 4.9164653 -30.008221
-13.557677 20.356386 -31.893606
-7.2194276 21.192448 -30.485559
-20.883368 16.526497 -22.02634
-16.806376 21.278526 -22.309328
-13.662429 21.863214 -29.391462
-6.8363757 26.190847 -22.183277
-7.2475076 13.718906 -30.028803
-11.819366 19.966125 -32.536369
-8.9034128 10.377319 -30.02829
-20.874737 17.559742 -26.510498
-14.313158 12.258595 -15.063938
-14.314324 6.0626879 -18.355499
-14.886551 15.223428 -31.516197
-8.6834869 18.904997 -34.288963
-0.8846128 11.982038 -29.9865
-4.8086734 7.486196 -29.996601
-14.317059 11.390233 -25.880819
-14.314436 7.6738334 -18.669865
-14.539222 15.219931 -20.79129
-13.118351 11.224578 -30.060911
-14.921548 18.860779 -34.381649
-14.316463 9.1776285 -24.278069
-17.718445 20.444828 -18.318726
-0.38594973 8.4201593 -29.821699
-11.031065 7.3853302 -30.044758
-2.0941172 7.6135306 -30.2346
-14.315418 8.8276863 -21.402102
-10.508653 15.22597 -32.412567
-10.71475 26.846733 -19.05784
-3.7660718 19.78404 -32.813919
-14.314514 12.88106 -18.808525
-4.6625943 20.170055 -32.175613
-14.317093 5.6891737 -26.067528
-10.965289 5.4875274 -30.044247
-20.562405 17.845238 -33.253963
-6.6852293 8.3049393 -30.011122
-8.5675354 19.785891 -32.825665
-1.9566798 15.227779 -33.055779
-19.9683 15.862019 -28.817375
-1.8199563 18.754368 -34.517944
-19.458988 18.85384 -30.305128
-2.6524253 13.971445 -30.017937
-17.996815 20.190376 -20.358219
-10.95362 22.65946 -28.060736
-14.724397 15.220447 -23.981298
-15.978394 15.223954 -27.165974
-3.8102403 7.7317324 -29.988871
-9.6572237 18.103489 -35.623077
-19.34832 18.955002 -25.676483
-8.5801067 16.18158 -35.676727
-16.953688 15.226711 -20.131481
-15.064061 15.221409 -16.384495
-19.157631 18.717426 -33.068932
-10.341139 24.829716 -24.45459
-14.31544 11.257708 -21.422474
-2.5692348 19.907551 -32.60511
-1.8462753 21.293507 -30.301147
-14.317619 9.0649452 -27.466177
-19.943995 17.679609 -35.115883
-13.463833 6.9302568 -30.063587
-11.068789 8.3504667 -30.045052
-10.259933 18.336809 -35.23745
-20.153309 16.365967 -22.678183
-9.9298115 24.683178 -24.696688
-14.313654 12.773402 -16.420067
-7.1060791 23.434307 -26.762037
-12.73049 8.5443726 -30.057911
-15.240878 22.709511 -20.193741
-7.9035888 20.609367 -31.45602
-8.6939497 20.037075 -32.408897
-13.473034 16.262964 -35.676941
-14.314624 5.1490407 -19.197916
-9.1269722 25.484251 -23.363827
-16.825739 20.434629 -30.709522
-6.2982759 11.513122 -30.008127
-13.857544 11.865777 -30.066631
-14.315411 14.720112 -21.228792
-10.406775 13.049496 -30.039925
-15.426102 22.540203 -18.543591
-9.9838037 24.312441 -25.312553
-14.314483 14.491235 -18.657627
-18.793736 15.231863 -19.344032
-11.340583 13.654083 -30.04715
-5.4251537 22.706833 -27.965008
-20.050371 18.313271 -25.712364
-6.2238283 17.928093 -35.90377
-16.724667 21.353216 -19.69133
-14.316212 10.581516 -23.561398
-10.898434 26.599518 -19.874363
-17.023613 18.778658 -34.524517
-21.073999 16.626833 -19.475437
-7.6192799 18.902014 -34.290634
-19.042421 19.234615 -26.758884
-4.0194402 15.227818 -33.067162
-14.314651 10.341576 -19.264118
-15.002535 15.221213 -30.046404
-14.864347 20.480827 -31.690973
-10.745405 26.289919 -20.799362
-15.881824 15.232669 -34.75423
-6.5487561 20.77519 -31.176449
-15.45353 15.22249 -26.210167
-1.268903 8.0259027 -29.821697
-14.314672 5.1310329 -19.332817
-17.359812 20.772648 -21.175533
-14.314436 7.438271 -18.67312
-14.315202 13.864071 -20.679485
-2.3469009 18.273996 -35.317352
-19.626759 18.700487 -18.860744
-10.111708 3.06109 -30.03764
-21.073999 16.872055 -24.827583
-2.0186291 17.386484 -36.790276
-14.317539 15.025543 -27.129963
-8.4186745 9.3919382 -30.024538
-16.887455 20.88143 -29.429256
-15.034535 15.221311 -28.263727
-2.87076 14.483953 -30.025303
-14.316404 6.5128541 -24.154087
-14.085569 3.8023541 -30.068398
-7.7492075 25.213415 -23.809366
-14.316139 8.301939 -23.394135
-10.241632 12.922438 -30.038647
-2.039628 15.224201 -31.788265
-6.2355433 23.618027 -26.454239
-11.439242 13.322968 -30.047916
-5.689774 18.8339 -34.3978
-18.031586 20.158594 -21.324118
-14.317818 8.1424141 -28.024403
-15.79216 21.641224 -28.448635
-19.45248 15.233665 -30.161987
-19.787565 18.553497 -21.623856
-18.541637 18.896219 -33.195309
-7.1709723 4.7057357 -30.014881
-9.6859322 24.096807 -25.669748
-6.1595187 11.319202 -30.007053
-4.9252424 16.508842 -36.526543
-19.060532 15.232588 -24.989258
-16.521097 21.216698 -28.879955
-9.2870369 21.280115 -30.346348
-20.928989 17.510149 -26.16153
-3.3535438 10.113995 -29.985334
-12.219953 17.486681 -36.65535
-14.31546 14.034494 -21.392317
-12.114733 6.3871498 -30.053143
-14.967566 22.959337 -20.282784
-15.657887 15.223074 -19.407013
-8.2301083 15.233528 -35.064602
-10.104668 23.29468 -27.00318
-13.507189 15.222786 -31.293009
-12.208841 18.085522 -35.660789
-13.476644 17.801737 -36.135994
-13.397024 5.263144 -30.063068
-21.073999 16.985542 -21.070442
-12.890657 15.229628 -33.691948
-8.4062691 15.230873 -34.133724
-20.377401 18.014341 -27.388668
-1.867723 10.769053 -30.180796
-17.473099 16.486435 -36.457115
-3.3272824 15.010674 -30.03359
-15.851061 15.223618 -19.265211
-11.326856 22.411339 -28.473955
