# .PCD v0.7 - Point Cloud Data file format
VERSION 0.7
FIELDS x y z
SIZE 4 4 4
TYPE F F F
COUNT 1 1 1
WIDTH 1517
HEIGHT 1
VIEWPOINT 0 0 0 1 0 0 0
POINTS 1517
DATA ascii
-17.059792 15.227023 -9.1787643
-18.770235 19.483412 -11.772242
-11.554677 28.123825 -8.8818312
-15.07176 22.863802 3.1896088
-16.827366 25.344723 -0.50323558
-19.720406 15.234501 -6.9751701
-17.508549 20.636513 -2.2030206
-7.7973037 29.5135 -6.3697348
-19.704351 18.629494 -5.0469146
-11.425722 26.19685 -15.450914
-21.073999 17.357399 -3.6795774
-14.312473 14.696945 -13.067417
-18.092352 15.229923 -11.130562
-13.40872 24.384241 -11.999434
-17.368847 15.22789 -11.05803
-8.3274803 29.028877 -6.1824083
-14.552696 23.33856 -15.484894
-14.333673 15.219362 -11.123602
-16.839001 23.973509 0.58440858
-16.065714 28.252907 1.4604855
-10.501942 30.036077 -4.4231567
-8.1146154 29.87619 -4.7077408
-10.887017 26.689266 -6.5363288
-11.545906 26.086992 -12.132083
-19.369368 18.935678 -4.9010668
-14.30749 12.633886 0.75732255
-21.073999 16.814077 -5.8551502
-13.837696 25.182655 -6.2185001
-8.3850193 29.39979 -5.5556889
-20.511248 16.444571 -4.90727
-20.447062 17.950638 -5.1511469
-19.014639 19.26001 -9.2286568
-14.307526 14.716719 0.69335437
-12.467725 26.418999 -8.5821323
-13.269908 29.077091 -7.186203
-10.693848 29.816635 -4.8137426
-14.911747 15.220984 -13.856302
-12.63039 25.095694 -4.0558367
-11.801687 30.222569 -5.1206555
-15.965796 22.046631 -1.6769309
-15.933571 27.973286 -8.241272
-15.075286 22.860874 -7.0900822
-16.616905 22.426929 -3.2062256
-17.000313 15.226851 -13.639446
-18.506268 15.231091 -6.4713898
-16.701874 29.089003 -0.63081878
-18.720167 19.529181 -9.2348595
-19.61598 15.234211 0.41399878
-18.689821 15.231612 -1.0857916
-14.309741 14.309726 -5.4870443
-16.479401 24.48488 2.9023912
-17.555531 26.869297 -2.1135111
-17.165466 27.604738 2.6472788
-10.946156 30.424671 -3.7314994
-14.40624 23.472103 4.017571
-15.626626 30.011688 3.0360024
-14.311133 11.240936 -9.4879656
-9.6238108 27.843933 -3.3100708
-15.77958 15.223422 -13.078042
-19.341875 15.233442 3.5128133
-13.417156 24.37653 -12.845032
-16.151846 15.224476 -5.7541809
-14.407129 23.471621 -16.418634
-10.392889 27.140938 -14.157672
-14.309367 10.919471 -4.4816794
-16.964005 21.134441 -11.728365
-14.311399 12.890516 -10.154498
-16.973858 28.852894 -0.34298956
-16.784466 27.706499 3.9376626
-20.536036 16.450111 -15.330283
-12.749343 24.986959 -12.105103
-15.502586 28.825693 -5.1949263
-18.803347 19.453148 -14.794318
-9.3359833 28.107029 -6.8531413
-17.52936 28.380249 -4.0453367
-17.56847 26.743248 -7.2193274
-19.968468 15.854224 -12.180071
-15.743781 22.249557 -3.65098
-14.311049 14.510561 -9.1132622
-16.479401 24.217648 -1.6129825
-19.9683 15.416348 4.5690527
-14.312912 13.020494 -14.35074
-18.6437 15.23148 -3.5415969
-14.649899 15.220256 -5.2643981
-12.49419 29.856289 -5.7841272
-10.329196 27.199158 -3.6560473
-13.035409 24.725475 -18.127338
-9.7063332 27.768501 -13.296021
-17.935856 27.887272 -2.9562223
-16.479401 23.464901 0.2923764
-14.397122 23.480438 3.6618805
-19.41917 18.890238 -5.6810222
-17.090096 15.227116 -2.3691673
-17.988054 20.198387 -10.724251
-20.235088 18.144386 -5.2535462
-14.311039 14.253282 -9.0991869
-8.5439329 28.831024 -7.0486512
-16.209709 21.823683 0.67101717
-19.675032 15.234376 -5.8741403
-15.459064 22.510071 -5.7142348
-14.309053 14.761507 -3.5480475
-13.128737 24.640167 -16.470585
-8.7928286 28.603512 -5.8907566
-17.17057 27.239689 0.5921793
-14.970079 15.221153 -8.1530647
-8.2673273 29.429333 -5.5031013
-14.308309 11.826268 -1.5262184
-16.725502 25.335289 -3.729497
-14.897573 23.023022 -3.6107554
-14.689227 23.213446 1.8977783
-16.467264 28.53154 -8.2034416
-14.31152 11.539599 -10.545883
-12.647179 30.944935 -3.8418155
-14.439666 28.67255 -7.0160751
-18.268991 19.941586 -11.037939
-11.294498 26.316795 -3.0290608
-7.4362874 29.843491 -7.836895
-20.607937 17.803593 -2.6222634
-14.90081 23.020359 -11.788646
-11.405445 30.95244 -2.8158839
-10.694497 26.865246 -16.26734
-18.964085 19.306221 -13.306648
-18.092743 20.102547 -1.0070374
-12.506448 25.208561 1.8050777
-16.792402 21.291304 -13.120749
-16.839001 25.784595 3.9371982
-16.628216 27.726259 -4.7296114
-9.4340992 28.634308 -6.9181714
-13.534768 27.730362 -9.0672216
-14.31197 11.25069 -11.808327
-15.223057 22.7258 -11.070061
-15.896074 22.110615 -6.5826259
-13.242978 24.535742 -13.945728
-14.310305 12.216116 -7.1171279
-9.4470863 28.00547 -5.0296779
-14.306278 14.951084 4.1641541
-14.307149 11.047604 1.6854976
-20.30455 16.39909 -4.2151127
-20.435987 16.428045 -9.7544832
-16.587868 25.322544 2.8078382
-9.2493782 28.088871 -8.9445038
-17.555634 26.421465 -2.1549754
-17.509481 20.635838 -8.6418324
-19.9683 16.054176 -5.015347
-16.622066 15.2258 -2.7561095
-11.142129 26.456078 -18.19486
-17.163818 26.487127 3.3105235
-16.399324 15.22518 3.0056505
-14.31311 14.459507 -14.847484
-9.9216213 29.416588 -6.5640726
-17.809746 20.361212 -0.73314476
-17.555355 27.656509 -2.0447578
-13.356031 28.945084 -6.4582491
-14.306396 14.054447 3.8235419
-18.508968 15.231105 3.6983638
-13.641735 24.171246 -13.199638
-14.182164 23.677256 -7.8135548
-12.018064 25.655405 -8.7031317
-14.310405 11.689124 -7.4136963
-15.054197 24.828022 -6.2185001
-17.184752 20.932665 -6.8625917
-16.365969 15.225083 -0.42959046
-15.263964 29.04105 3.0757151
-14.626211 23.271362 -14.964114
-15.05551 30.521374 -3.7925658
-8.0211687 29.207104 -6.9396491
-17.897528 20.281132 -15.280281
-16.479401 22.553505 -4.5827389
-14.534986 28.534317 -7.263886
-16.839001 25.714481 -1.849431
-11.676659 27.664499 -8.9719152
-15.955115 29.088535 -7.2017574
-12.379166 28.106543 -8.9128199
-12.522773 25.194065 -3.7797203
-14.311971 12.031273 -11.778959
-16.479401 22.698196 -4.1393881
-18.047718 20.1437 -1.7202411
-16.792393 21.2911 2.7122633
-16.350216 21.695263 3.0414054
-20.20171 16.376514 -11.670566
-14.309989 13.504679 -6.204659
-12.766685 25.655634 -6.2185001
-12.856552 30.900967 -3.017616
-8.7430553 29.40436 -5.547554
-15.055089 22.879333 -10.758488
-13.459816 30.83033 0.32103229
-12.248217 30.196966 -4.1951022
-11.330048 26.283821 1.3522614
-16.839016 21.412495 2.5093737
-19.66048 18.669662 -12.434344
-8.367939 28.991894 -4.1533976
-13.434327 25.196857 -6.2185001
-15.218571 29.09236 0.45491219
-12.970818 24.784517 -7.9309764
-14.337966 10.94306 -13.156847
-14.306427 14.748053 3.7466586
-14.30996 14.207179 -6.1035404
-19.9683 16.304504 1.112354
-14.366641 28.580582 -8.0876923
-16.735125 15.226111 -8.2881994
-13.211225 29.520885 -6.3927832
-18.003616 15.229672 -12.617105
-12.302916 31.415489 -2.9967754
-13.952559 26.098789 -6.2185001
-12.074315 25.603542 -1.5706477
-18.121702 20.076221 -14.356253
-15.812792 22.18648 2.5309076
-13.281209 24.500795 -12.564868
-15.56687 22.41153 -11.357965
-10.748784 29.345787 -6.6910076
-17.477545 15.228207 -0.49170375
-16.369949 21.677223 -0.35709143
-17.492723 28.418655 -7.0400023
-13.247564 27.365812 -8.7909317
-17.942778 27.899799 -5.6391792
-13.512614 24.288902 1.7757314
-20.985859 17.458166 -5.2811747
-14.410463 15.219587 -1.5754753
-12.084143 25.595001 -5.6527071
-14.454622 23.427881 -0.3312881
-12.406715 25.300148 -15.476397
-16.839001 23.396872 -6.156137
-16.607021 22.427847 -5.1819339
-12.844126 24.900322 -16.352831
-16.839001 21.393478 -0.99492675
-10.055717 28.869448 -7.5450211
-13.152695 28.211588 -8.7304544
-17.316942 15.227747 -7.6585569
-12.950994 24.802639 -10.209543
-13.630989 29.9977 -4.6486163
-17.878008 27.664497 3.0633245
-9.8459148 27.640913 -5.3137789
-21.073999 16.652767 -11.407016
-14.308697 12.556931 -2.5937953
-16.839001 21.003582 -2.5221877
-19.665268 18.665287 -15.403019
-16.839001 25.616535 1.7929516
-17.917305 27.804457 4.2337904
-18.568687 19.667645 -12.656357
-18.280296 19.931114 -1.352598
-16.599308 25.155186 2.3750229
-8.9744701 28.437481 -7.3767023
-17.741236 15.228951 4.0852456
-18.285959 19.926079 -14.636601
-21.073999 17.005281 -11.598548
-16.479401 23.206623 -2.1596446
-20.04635 18.316898 -0.012511253
-10.8589 30.894424 -3.9144928
-14.306938 14.419292 2.3212326
-14.307581 13.773333 0.52555728
-16.839001 23.964638 2.0869181
-7.881772 29.436285 -8.7338152
-17.014719 15.226908 1.0088379
-11.031413 30.121367 -5.3004928
-15.16906 22.774866 1.2864661
-17.012714 28.820021 -0.68496227
-14.62516 15.220192 0.63047099
-19.968481 15.77691 -12.669369
-7.9564939 29.726135 -4.9748235
-15.51647 22.4576 -14.016163
-14.394854 26.617226 -8.5974827
-6.5597944 30.644674 -8.9608335
-14.306749 14.240822 2.8439779
-13.329512 24.456642 -7.2966118
-16.479401 24.849659 -0.9427821
-16.81995 25.486574 -6.2185001
-15.363876 30.248833 -1.2950217
-19.657904 18.672016 -7.9492855
-16.839001 22.116379 -5.0255656
-11.97986 30.896357 -2.9578512
-14.311114 15.050074 -9.2737713
-12.794916 31.909163 -2.1216526
-16.946375 28.866573 4.1864452
-13.56445 24.241892 -7.7056675
-16.683077 25.33136 4.1061974
-16.97377 15.226794 3.5330551
-9.5021152 27.955172 -4.9411664
-8.0803299 29.254791 -6.668148
-8.2998066 29.505123 -6.4053411
-10.405209 27.129677 -9.329361
-14.388314 29.910303 1.4044185
-14.308704 15.005158 -2.5761528
-15.118823 15.221571 -7.8084102
-16.492229 15.22544 1.5821388
-11.055574 26.535192 -9.0920677
-17.183134 26.554031 -4.4649343
-15.691591 29.32081 -6.7833757
-17.941803 27.790604 -5.2614388
-9.8246269 27.660374 -4.6308532
-19.694571 18.638433 0.11507511
-9.4512882 28.001629 -10.834242
-14.756479 23.151978 2.5843096
-14.896995 29.420547 -3.7909062
-19.781387 18.55908 0.98702574
-17.610529 15.228566 -13.707613
-14.812952 23.100668 -11.362901
-16.648491 25.574602 -6.2185001
-12.984901 24.771645 -10.888412
-15.573711 15.222861 4.6169024
-11.289915 26.32099 -6.7446885
-15.957801 22.054188 -10.748264
-18.621588 19.619289 -16.65605
-13.292801 31.349171 -3.1284938
-16.943695 21.153009 -11.587324
-16.839001 21.061335 -0.71836668
-15.665798 28.651737 -0.045893192
-14.311217 10.944388 -9.7285528
-12.829116 24.914043 -14.817484
-20.174086 16.370407 -8.5358934
-17.010492 28.122219 -8.941783
-11.184551 26.417299 -14.422365
-15.685835 27.092194 -8.6840324
-16.839001 26.522425 -2.5767787
-16.75124 27.712593 -4.7852764
-11.504751 26.124613 -17.525669
-17.538174 27.660505 4.7330542
-17.183823 27.664968 -6.4341936
-20.939341 17.500687 -9.7100229
-14.30787 15.179133 -0.25350916
-13.586748 24.221508 -7.635005
-14.614909 29.032448 -7.2839689
-19.335529 15.233391 -15.638271
-15.080322 15.221469 -1.5715919
-19.10161 15.232759 -9.7034464
-13.597582 24.211607 -14.317854
-9.8377476 27.648376 -14.539503
-12.310386 25.388203 -3.6363523
-19.179882 19.108871 1.7773628
-13.931595 23.905943 3.9963977
-12.350101 25.351898 -4.9298873
-16.005713 22.010395 -4.3336034
-19.600327 18.724646 -8.2689695
-14.922949 23.000124 -9.894556
-10.582575 30.561825 -4.5108061
-9.8562212 27.631493 -2.3865104
-15.640181 22.34425 0.97801328
-10.078625 27.428198 -7.7026286
-11.142455 26.455776 -16.743673
-19.9683 16.05891 -0.66972828
-19.52562 15.233931 -13.732843
-16.479401 23.179771 4.3796368
-14.599833 23.295475 -16.382368
-18.224716 15.230305 -1.9523388
-20.905474 17.531637 -5.7134514
-14.851545 23.065083 2.8783488
-17.54484 27.102268 2.1040702
-12.841253 24.90295 -14.529271
-18.884365 15.232159 2.8592331
-7.5866604 29.706039 -12.541444
-15.700759 22.288881 3.8077111
-12.465748 25.246189 -16.880501
-16.49831 21.559898 4.6190844
-18.858889 19.402267 1.918853
-13.49577 24.304298 2.2162948
-8.8612785 28.227322 -7.6425657
-14.645658 23.253271 -3.1845205
-18.009413 20.178711 -0.12969184
-14.306995 13.559139 2.1482921
-16.771217 21.310669 -8.6068993
-17.068998 21.038473 -8.060812
-19.614674 18.711531 -10.127346
-8.0021515 29.437872 -6.5259161
-12.218933 27.82761 -8.3540154
-17.361324 20.771082 -2.5038877
-9.3623762 29.664555 -6.1195006
-16.080322 22.606197 -6.2185001
-15.894225 22.112305 -16.969769
-16.53974 27.801023 -5.2083845
-19.613548 18.712488 1.1242518
-17.556335 27.261627 -2.4314756
-20.729301 17.69268 -13.96994
-12.332292 25.368177 -13.150805
-18.15567 20.045029 2.6934643
-15.159149 29.163143 -4.4414873
-20.725811 16.491783 0.8635993
-20.978371 17.465012 -10.274009
-16.767042 24.883865 0.47972995
-15.487264 28.173542 -7.9650421
-14.318194 23.552914 -5.993403
-14.308576 14.700446 -2.2247188
-18.865217 19.396593 -9.4880562
-10.515602 27.028767 -11.364738
-18.956293 19.313343 -11.951921
-7.9175262 29.900532 -4.6644177
-19.456234 15.233736 -13.78558
-9.8107462 27.673059 -9.0584049
-19.968388 15.765832 -9.0225925
-13.06063 27.704727 -8.5928507
-12.38835 25.316936 -9.4047499
-19.762817 15.234608 -10.329873
-6.0757527 31.087124 -8.5095406
-10.238998 27.281605 -13.171903
-12.764677 24.972946 -16.773109
-14.312361 14.21884 -12.770643
-17.918676 27.717813 3.7023835
-18.625856 15.23141 -14.535788
-16.474525 29.295523 -4.9723558
-8.9808903 28.43161 -13.63695
-17.162708 26.78318 3.7575102
-21.073999 16.658472 4.0588369
-14.310904 14.894644 -8.6993961
-17.750589 15.228968 -5.3053007
-14.94282 22.98196 -12.899833
-14.308452 12.075221 -1.9182422
-16.839001 21.270142 -0.22980279
-19.7327 18.603582 3.7381556
-20.203665 18.173153 -14.538281
-14.595915 15.220096 -14.103531
-19.9683 15.663284 -0.31306648
-10.327576 27.20064 -7.3680301
-12.889709 24.858654 -6.6891727
-14.259906 23.606194 -17.643349
-15.84878 15.223627 -2.6671042
-16.183891 15.22456 -12.341881
-20.875959 17.558613 1.832026
-14.474507 15.219769 0.14498861
-17.933704 27.994791 -2.1221352
-12.349903 25.352079 -16.692471
-13.698939 24.653893 -6.2185001
-15.251897 29.055202 2.1711383
-14.24166 30.69051 -4.3176036
-13.333694 29.960079 -5.6100078
-16.446003 15.225309 0.29350042
-19.495991 15.233875 -1.4985981
-14.307384 11.398292 1.0351644
-10.510683 27.664499 -8.9798069
-9.3697796 28.076136 -16.437712
-17.167751 27.145309 1.7272282
-14.592139 23.302507 -17.849451
-17.191923 27.568602 -8.0031185
-9.7314167 27.745571 -4.0102067
-12.529749 29.251785 -5.8608885
-16.479401 24.454578 -0.45505083
-14.19047 27.171661 -8.5837803
-14.974356 28.437927 -8.3506231
-15.146502 29.177164 -5.0584188
-14.517917 23.370028 0.58313489
-15.301338 22.653961 3.0646069
-14.817411 23.09659 -13.365634
-17.887056 28.07906 -7.8404694
-18.255655 15.230381 -12.010073
-16.479401 23.454672 -1.8268274
-14.472788 27.112717 -8.6027069
-14.306419 14.35152 3.7625039
-9.1957102 29.547886 -6.3286729
-17.327293 26.419003 -4.6078043
-15.420769 22.545078 -14.09437
-21.074001 16.894749 -6.5767775
-17.563442 26.639071 -5.2350383
-10.487864 28.30196 -7.5097156
-17.161316 27.649681 4.3172741
-9.9749641 27.522953 -15.637557
-18.297585 15.230512 4.2533541
-16.682318 21.39171 0.089533806
-10.351178 27.179066 -10.462481
-19.150517 19.135712 -0.33574224
-17.93593 15.22949 -3.7838833
-16.027658 15.224131 -2.6218753
-17.410019 20.726572 0.90350056
-10.18634 30.662506 -4.3302965
-17.79027 20.379013 4.2810764
-16.740427 29.060509 -2.8178096
-11.021021 26.566776 -16.521402
-13.296204 30.977217 -3.7928638
-14.31214 12.72871 -12.218967
-20.91143 17.526192 4.1923828
-12.946044 31.108068 -3.554461
-21.007195 16.553715 -13.692053
-19.9683 15.839915 3.4679387
-14.193165 23.667202 -8.5177879
-13.821766 24.006329 0.71296096
-17.567341 27.452759 -6.7733917
-17.168434 26.910847 1.4521379
-19.9683 15.321994 3.279443
-12.425667 27.83983 -8.3322639
-8.5739012 28.803627 -9.3613749
-16.839001 26.592091 0.1065466
-16.479401 23.497494 2.5556059
-15.647796 22.337292 3.5432935
-15.803036 29.861795 1.7687221
-17.539696 26.707397 4.1334071
-11.454 26.170527 2.299094
-16.71843 15.226072 -1.5860734
-7.9884028 29.338818 -9.79673
-14.021733 23.823553 -0.24139214
-10.859989 29.298594 -6.7756214
-16.839001 21.723923 1.4932241
-15.507271 22.466007 -14.104708
-13.148113 24.622456 -4.8828654
-17.627672 15.228619 -9.1841135
-10.902985 26.674673 -6.8683386
-15.683933 28.626083 3.0902839
-16.839001 23.790997 -5.7132702
-14.909616 23.012007 -3.3824582
-16.107481 21.917126 -1.8332107
-21.074001 16.894648 -12.472364
-14.622419 30.887735 0.048922062
-18.615004 15.231376 -15.857432
-14.31081 10.714836 -8.5784969
-14.406603 23.471773 -0.2039454
-17.137943 15.227237 -15.724957
-14.308866 10.711118 -3.0907536
-18.899765 19.364906 -1.0350339
-15.916505 22.091938 -11.10663
-13.634705 24.177673 -15.46105
-14.784431 23.126427 0.025595188
-15.662658 22.323704 0.53963518
-14.809705 15.220713 2.038543
-20.650742 17.764469 3.2560575
-18.685183 15.231594 -6.0609312
-16.541042 21.521065 -13.16844
-21.073999 16.94088 3.7549064
-14.306206 14.726338 4.3610649
-9.1729164 28.256084 -16.303856
-20.803967 17.62443 -14.097292
-12.659079 29.69146 -5.1061354
-19.85717 18.489872 -14.154498
-17.005928 15.226871 -9.0420303
-16.073906 21.948061 -4.9389534
-14.092115 28.960791 -6.4878488
-16.839001 26.28183 2.1247411
-16.881878 21.209309 -2.9572954
-16.712069 21.364733 -8.5995102
-14.27195 23.594849 1.5902501
-16.804012 21.280685 -16.962368
-18.151583 20.048765 -0.21572399
-10.515511 29.84552 -5.7950521
-17.63278 15.228641 -2.2424107
-9.928174 27.56572 -2.3236995
-15.49873 22.473816 -4.4227948
-14.895057 30.649561 1.0083872
-17.170918 27.453892 0.45219564
-17.756372 20.41016 -16.120001
-18.000401 15.229677 1.5413554
-14.406867 23.471863 -7.3790903
-16.839001 21.321651 -2.3076608
-19.968309 15.842151 -6.0275879
-16.465094 26.452976 -8.9125061
-12.450939 25.259724 -3.6929274
-14.308171 10.859997 -1.1577454
-20.426178 17.969725 2.6423039
-17.542915 27.157238 2.8631253
-13.638407 27.737938 -8.5797567
-14.898919 23.022087 -9.1260176
-14.312601 13.091866 -13.484497
-20.530979 17.873936 -4.0099788
-16.839001 21.753199 -4.9610758
-20.235378 18.144119 -3.3460357
-18.75909 15.231797 -10.291103
-14.312873 11.212622 -14.319733
-17.595314 15.228527 -10.364637
-17.934162 27.911343 -2.3002403
-14.307816 13.395613 -0.13109517
-21.073999 17.290339 4.0047827
-16.479401 23.590382 -2.2263005
-15.572613 25.037979 -6.2185001
-13.672796 29.188557 -6.9925232
-13.583081 24.224861 -11.946654
-15.851433 28.458431 3.9687674
-18.505957 19.724981 -6.4371533
-14.310593 15.161498 -7.8233442
-17.647474 20.509533 -2.6548948
-14.307319 11.312227 1.2144136
-12.772141 24.966124 -11.183512
-11.672441 25.971331 -4.5218453
-19.234947 19.05854 0.62697721
-10.654554 30.89024 -3.9219961
-19.377251 18.928555 -16.6005
-14.307956 13.035237 -0.52882719
-17.149813 20.964407 3.0681224
-15.754986 28.555962 3.0593662
-14.546445 23.344276 -10.04936
-17.310902 20.817354 -12.986106
-14.309678 14.212628 -5.3112893
-14.702858 29.596329 2.7055967
-15.663277 22.323139 1.7638955
-11.602156 30.994766 -2.757477
-10.740861 26.822355 1.0823038
-20.034698 16.339804 -15.814985
-20.115294 18.253927 -9.4123726
-9.8464365 30.615908 -3.3911192
-20.160387 16.367367 -2.1998477
-16.839018 25.507555 4.0814428
-18.754463 15.231792 4.4261084
-21.073999 16.900219 -12.636203
-17.383942 26.419001 -1.5607748
-19.430349 15.23369 2.5035524
-17.18125 27.350283 -3.706378
-17.566582 26.795811 -6.4740052
-18.549393 19.685154 -1.2292118
-17.360193 28.520103 -1.0922327
-15.205025 15.221809 -11.68986
-17.36698 20.766094 -15.855988
-20.747129 17.676369 0.82158613
-14.307198 14.7037 1.6039327
-16.294378 21.746532 -8.0193195
-18.41769 19.805534 -1.0148509
-17.248377 20.874508 -8.6765862
-14.675604 15.220327 -6.7588372
-14.310975 14.680328 -8.9051666
-15.865881 28.467636 -5.5522981
-14.308901 11.041622 -3.1826735
-19.526707 15.233955 -7.9282103
-15.192284 22.753641 4.328433
-16.164818 15.224508 -8.7946548
-14.905182 15.220977 -3.1157444
-17.65958 27.664501 -4.5618682
-18.200739 15.23024 0.75122166
-16.587227 27.74609 -1.9572587
-15.677905 29.977932 -1.7258321
-10.630041 26.924162 -7.7954044
-19.934559 15.235069 -14.9418
-13.849714 26.689934 -6.2185001
-20.663696 17.752647 -16.687481
-16.839001 25.756439 2.5357819
-10.165097 27.349155 -11.825774
-14.667505 29.642731 -1.9453762
-16.479401 23.645603 -0.92070389
-17.543791 27.652349 2.5175552
-21.04945 16.563004 -11.209102
-17.359337 20.773079 -6.5445523
-9.8698425 27.619038 -5.4574041
-14.311441 13.431675 -10.247648
-10.567931 29.786165 -4.8679738
-16.392157 21.656923 -3.3740973
-14.306424 12.899515 3.7255607
-16.839001 25.915733 4.6316433
-14.308216 11.617983 -1.2718179
-14.30863 13.742004 -2.3916955
-12.797218 24.943199 -16.710909
-16.479401 25.044827 3.06827
-8.6278992 28.754272 -10.858901
-11.852978 26.520508 -8.7741003
-14.860551 30.67889 1.2521069
-13.549775 24.255306 -6.0432091
-17.759012 15.228987 -10.13207
-15.208174 30.374542 2.7742248
-19.550602 18.770027 1.2271376
-16.224464 15.224672 -13.04988
-17.419361 28.468443 -0.89462316
-20.417139 17.97802 -14.120773
-11.257139 26.350948 -6.9380798
-21.073999 16.761032 1.3690029
-16.65258 21.418892 4.6696458
-20.018591 16.336166 1.4143226
-19.968525 15.334328 -14.392382
-16.999529 27.683552 0.44395924
-13.549999 24.2551 -9.9306641
-10.742371 26.821486 -3.4514565
-15.828196 29.796738 -5.4906325
-15.712678 22.27825 -16.89085
-14.307669 14.610992 0.29359961
-15.964619 22.047956 -15.949965
-14.310534 12.14118 -7.7733645
-17.650509 27.664499 2.0654624
-20.110245 18.258497 3.7987325
-14.439083 15.219669 -0.53280592
-16.331032 21.712793 -0.34486938
-16.571384 27.750345 2.6630344
-17.221157 26.419003 -1.8935522
-14.436235 23.444689 3.3939633
-17.458542 15.228138 -15.918337
-15.520487 28.784544 4.317143
-16.839006 25.590027 3.8547926
-15.202763 22.74435 -13.8694
-19.013517 19.260933 0.01859355
-15.885159 15.223719 -12.695471
-16.111204 21.913723 1.6415508
-10.788211 26.779583 -9.6944485
-10.626086 27.990841 -8.0634794
-12.368151 25.33497 -1.1578171
-16.233358 15.224704 -6.6504359
-14.308765 11.805141 -2.7930741
-17.186562 27.606482 -5.8447165
-14.312489 12.965148 -13.177341
-16.995972 28.843964 -4.9158859
-9.9882708 30.954565 -3.8066726
-12.522476 28.424513 -8.3427391
-15.789949 22.207619 -13.508385
-10.018812 28.824385 -6.5798492
-19.968334 15.346317 -6.9969544
-19.98844 16.329531 3.2944884
-11.99225 25.679001 -15.433684
-16.839001 24.300119 0.63997996
-13.096015 24.670078 -12.189552
-10.928095 26.651718 -6.1173582
-15.364059 28.962683 -5.2485018
-19.294876 15.23331 0.56031013
-14.309423 14.61342 -4.5795879
-16.839001 21.162828 -5.8853989
-10.214533 30.527245 -4.5728035
-19.832603 15.234795 -12.320009
-10.27125 29.345268 -6.6919384
-15.718775 28.611065 -4.7776542
-17.936348 20.245649 -8.2544518
-18.671295 19.573734 4.4709597
-8.4549217 28.912386 -8.2374706
-18.393648 15.230755 -15.764664
-9.2138796 28.218643 -3.985569
-16.327295 22.687521 -6.2185001
-17.832596 28.12055 -5.3076119
-14.815416 23.098106 2.0778892
-10.311474 27.215355 -11.037591
-9.8230591 27.661804 -6.4466047
-17.18306 15.227364 -14.969896
-13.618206 24.192755 -9.0112801
-14.306313 13.320026 4.0431604
-16.692553 23.443008 0.46029997
-6.8357506 30.392429 -8.4137173
-19.721645 15.234501 -8.0120296
-19.729769 15.23453 2.759973
-13.299939 27.187351 -8.7929106
-13.600807 24.20866 -6.9651709
-16.521669 21.538773 -6.9084363
-8.0165443 29.313095 -7.701961
-12.8322 24.911224 -9.6526632
-15.357753 15.222245 -5.4776411
-17.240049 15.227543 2.4841685
-13.871687 28.128902 -7.9177651
-11.34165 26.273697 -13.413282
-15.834152 28.295181 -7.4357653
-7.8006387 29.510448 -6.2022119
-15.57435 23.905464 -6.2185001
-19.067039 15.232656 -11.540924
-16.004105 22.011868 -16.949358
-12.638669 25.087711 2.2118542
-10.13199 27.379419 -17.933214
-8.3551989 29.003536 -14.431517
-7.7098756 29.593412 -6.2475414
-16.11025 29.596781 1.3443545
-19.716391 15.234493 4.2126245
-20.106579 18.261847 -0.36528349
-16.213993 15.22466 4.401938
-20.335335 18.052794 -11.105803
-17.822954 20.3493 -15.836377
-14.77686 30.756264 -0.95219839
-15.107215 29.210657 -2.9010501
-14.311439 14.948323 -10.182054
-20.146877 18.225012 -2.3077338
-10.159871 27.353395 -1.3492756
-13.672754 24.142895 -8.8874207
-14.3119 12.69494 -11.553484
-10.019009 27.482693 -13.984522
-14.306316 11.722645 4.0105829
-17.169867 27.345425 0.87617016
-12.055702 25.621002 -15.515152
-8.4954357 28.875353 -11.066474
-16.884571 21.207054 -13.302659
-16.362785 15.225061 -12.423485
-20.181477 18.193432 -15.28473
-14.307663 11.880112 0.2678678
-8.5835075 28.794846 -8.8467226
-17.168119 28.699011 -6.7425485
-11.694795 25.950897 -5.5066719
-16.839001 21.593555 -3.9923279
-11.643858 25.996992 3.5869012
-14.309818 12.657678 -5.7357831
-18.599094 19.639727 3.7582128
-15.767497 15.223406 4.0751109
-19.176542 15.232978 2.005204
-14.311026 12.935503 -9.1174135
-8.8465767 28.554384 -3.6608572
-19.736095 18.600477 -1.4559412
-20.414127 16.423275 -13.910862
-14.643286 15.220236 -7.1677952
-16.183165 21.84795 -0.47694182
-9.9234266 27.569511 0.34319514
-17.930521 27.968155 -0.88860321
-16.526773 21.332773 -6.2185001
-13.581166 30.883123 -3.964735
-14.266613 23.600063 -17.250961
-16.559515 29.201097 4.360755
-14.410948 23.467802 -0.089214087
-12.890684 29.958385 -4.6597586
-19.968544 15.927805 -15.998564
-18.284748 19.927185 -15.996672
-16.839001 25.355282 -3.8455625
-17.168602 26.44379 1.3849187
-12.315542 25.383486 -11.157413
-19.761137 18.577654 -9.0779886
-13.60176 24.20779 -5.0361691
-19.968281 16.254784 -9.8547983
-15.997255 28.316414 3.1345172
-14.350338 23.523201 -0.94869292
-14.306437 14.602791 3.7143626
-16.699671 21.376064 -9.8837605
-7.6646252 29.634775 -7.5167232
-17.78791 20.381332 -16.814888
-15.824654 22.175636 1.3828397
-9.863493 27.894436 -8.2350702
-16.191931 29.05135 -7.271348
-16.83279 21.254173 2.2733221
-14.308859 14.51475 -3.0144608
-16.178038 21.852636 3.691294
-8.9691143 28.442375 -11.288116
-19.9683 15.859402 -3.5511713
-12.407036 25.299427 2.3242486
-19.230438 15.233109 -12.419076
-14.312508 11.649851 -13.284523
-14.306584 11.318418 3.2568519
-10.273748 30.88298 -3.9350138
-14.314645 31.155212 -0.41063941
-14.312063 13.922309 -11.956797
-21.071419 17.379957 -5.8928204
-9.2828197 28.155624 -1.5965726
-19.124653 19.159351 -2.8440821
-14.30846 13.816764 -1.9161476
-18.002758 20.184795 1.3131886
-20.309492 16.400177 4.0968533
-15.033098 15.221329 -9.5209312
-8.8362808 28.563795 -10.948488
-14.209616 29.589272 -6.284029
-20.714827 17.70591 -10.74044
-11.983097 25.686918 -2.2215531
-21.073999 17.31522 -12.15641
-14.307332 14.629777 1.231573
-12.696373 26.942297 -8.4906998
-17.747801 15.228965 -1.139478
-18.53731 19.696325 -8.5958786
-17.733582 20.430828 1.0216403
-16.839035 20.992687 4.0513191
-17.555655 27.21744 -2.1630073
-15.630412 22.353447 -10.245342
-15.736013 22.256657 1.4030001
-13.637178 24.175047 -2.2562881
-17.050943 28.777065 3.7297735
-11.276562 27.409834 -8.4907589
-15.567196 28.763018 -5.6668587
-14.566399 26.419001 -8.7569075
-17.366566 26.419003 -3.3189516
-16.839001 26.058208 -1.0823473
-15.740327 29.918961 0.48185968
-14.418674 15.219607 -4.8281302
-20.519699 17.88427 -13.115097
-20.735746 16.493969 4.7063618
-16.479401 24.786131 3.5968759
-19.55654 18.764597 0.46423149
-9.770916 27.709467 -14.187499
-8.5000525 29.53293 -6.3554854
-16.29081 29.348957 -6.335844
-16.926203 15.226659 0.66762042
-16.479401 23.892973 -4.7791066
-14.310968 13.67872 -8.9243727
-16.636644 21.433456 -3.7670321
-18.921432 19.345209 -15.895667
-14.310436 11.732001 -7.500731
-10.751348 30.571781 -4.4929533
-14.988836 22.939896 -11.690951
-16.941372 28.316063 -8.5946426
-20.092421 18.274836 -6.73561
-14.159262 23.698189 -15.26656
-17.209261 26.419001 -4.1038427
-10.538146 27.008163 -4.0891523
-11.107676 30.777079 -3.1042509
-19.952995 15.235158 3.5443742
-17.332602 15.227787 -11.905136
-7.770463 29.019892 -6.2318716
-15.788076 28.542662 -4.8032193
-11.111845 29.214756 -6.9259295
-18.871843 15.232099 -14.456873
-14.673166 15.220332 4.0243435
-11.257811 26.350334 -11.423511
-16.79891 21.285351 -12.201913
-10.280396 27.243233 1.0454412
-12.94297 24.809971 -15.062951
-20.576809 16.459057 -12.469313
-9.5310011 30.502453 -4.6172538
-16.595297 21.47147 -14.840777
-18.161633 20.039722 -6.4658427
-16.854008 21.234783 -2.7288964
-15.116976 22.822472 3.1143303
-19.839802 18.505751 -15.90237
-17.673153 20.486063 -0.47263718
-17.213301 20.90638 -2.6682224
-14.199875 31.254959 -0.58464885
-16.797153 25.341927 2.4468908
-11.030557 26.558064 -9.9611912
-14.312748 12.559369 -13.91493
-19.275156 15.23325 -8.3947926
-16.839001 25.774347 0.71043992
-20.424864 17.970926 0.87273407
-12.664181 28.673622 -6.8769259
-14.104452 23.748291 -8.8614922
-17.548952 26.925058 0.48135149
-9.2800026 30.732199 -4.205348
-17.179411 27.307457 -2.9666708
-19.879023 15.234948 -6.0195084
-17.230709 15.227509 -4.1776772
-17.921673 20.259064 -8.4378366
-17.544531 28.357517 0.25223535
-10.515781 27.028605 -18.369532
-7.59588 29.697613 -6.5017524
-19.202913 15.233027 -14.018337
-21.033705 16.559532 -3.4072623
-18.241829 15.230339 -13.715274
-16.839001 21.582058 1.0246506
-14.307219 12.124161 1.5086062
-14.311765 13.626241 -11.140683
-15.166864 30.410622 2.6331902
-14.240242 27.911095 -8.3251133
-16.839001 25.917278 -1.0540687
-19.9683 15.576401 -1.9354115
-15.850372 28.47438 -2.0729446
-14.413446 15.219596 -1.2334472
-13.483284 30.924128 -3.8901889
-13.40867 24.703928 -6.2185001
-17.555748 26.72093 -2.2004967
-17.00523 21.09676 -7.0501332
-16.839001 26.127428 -3.510772
-16.839008 21.220625 1.9561117
-10.450948 28.576048 -7.0218682
-9.8462925 27.640566 -13.454483
-15.469005 30.14994 2.2324882
-16.608154 22.427742 2.9260411
-14.310214 11.309658 -6.8745556
-12.96436 30.64994 -4.3729424
-19.968166 16.28224 -12.987322
-16.673439 15.225931 -15.74365
-19.628874 15.234248 0.53019345
-20.173136 18.201056 -10.822044
-15.051 22.882778 1.345515
-19.795383 18.54635 -13.427214
-12.077697 25.600899 -6.0538278
-9.1292391 28.296009 -7.8511658
-9.4608116 27.992924 -12.905283
-16.788063 27.706068 4.0533109
-19.410133 15.233631 -6.5032372
-16.839001 21.239998 1.5126345
-11.031724 26.556498 0.5886054
-16.839001 24.290449 2.1663678
-13.517564 24.472622 -6.2185001
-8.1558971 29.185717 -8.0451832
-19.968422 15.533337 -10.3954
-14.129843 23.725082 -10.006801
-15.233394 22.716351 -13.613589
-17.039318 15.226978 2.5238812
-17.166784 26.679405 2.1165519
-13.79187 30.500277 1.1257645
-17.242872 28.631514 -5.4970341
-17.495853 28.392122 3.6260412
-18.839592 19.420015 -9.2980442
-20.552229 17.854511 0.014386177
-14.265427 26.538063 -8.5888052
-12.610132 25.11421 -15.874068
-20.346775 16.408411 -9.1638451
-16.839001 26.69281 -3.1236501
-15.69299 26.837036 -8.6845121
-8.7269878 28.663696 -14.113022
-8.9059086 28.500149 -14.113336
-21.022337 17.42482 -2.4162388
-14.309486 13.540738 -4.7804198
-10.473486 27.067266 -9.0920544
-13.512121 28.514807 -8.1937132
-17.564129 26.941471 -5.5052528
-17.462307 15.228161 -2.0097308
-14.320719 29.922161 -4.4025917
-18.161942 20.03944 -11.353148
-14.761168 23.147692 2.4684372
-18.84306 15.232036 -8.2555475
-13.944447 27.717134 -9.0727129
-11.779028 28.879326 -7.5273108
-15.310612 22.645771 -11.695797
-16.830725 24.988342 -5.3093414
-21.073999 16.702078 -6.4661474
-17.174801 26.517349 -1.1109557
-16.005434 27.135612 -8.8951378
-17.729851 27.664499 3.2663326
-17.19067 27.241358 -7.4984226
-12.816272 24.925785 -15.130729
-17.563488 26.468527 -5.253531
-14.168162 23.690054 -13.544205
-14.395734 10.876334 -10.169951
-14.273132 31.191835 -0.7170682
-13.039883 28.933329 -7.4398851
-14.865641 30.684971 -3.44277
-16.839029 21.193777 3.5075622
-16.839001 26.68429 -1.3843995
-20.48807 16.439516 -10.85076
-19.520489 18.797626 -11.201641
-12.811814 24.929451 -0.53091645
-8.163662 29.178617 -10.486472
-15.316238 27.788059 -8.6223145
-14.126855 23.727468 2.911535
-14.904433 15.220975 -1.7301025
-14.308612 14.018902 -2.3341885
-17.968811 20.215975 -14.936192
-21.008455 16.553991 -11.062468
-19.664879 18.665642 -10.748232
-9.9245319 27.56905 -1.854944
-15.223751 30.361294 2.6671813
-12.455486 25.255569 -3.8505437
-16.674965 22.534702 0.45571208
-13.150084 24.620264 3.6004636
-7.0737543 30.174877 -7.1353955
-15.577469 25.397209 -6.2185001
-15.912807 22.790787 -6.2185001
-14.126174 29.792257 -4.9550357
-17.177376 27.116035 -2.1467509
-12.555914 25.163349 0.3301661
-21.074001 16.892414 -12.553593
-17.953878 20.229469 3.8159664
-20.300501 18.084635 -14.585307
-8.1085072 29.229033 -9.3308287
-17.58744 15.228506 -8.1150951
-15.339547 26.451656 -8.6608171
-14.343558 29.960875 -1.1704404
-16.472403 26.949724 -8.9127827
-13.595426 24.213577 -10.173384
-14.306774 11.420965 2.7309818
-16.346687 25.553436 -6.2185001
-18.698721 15.231637 1.849797
-13.321386 24.464071 -8.7740459
-13.22509 24.552094 -11.905611
-13.277673 24.503643 1.1253647
-10.611725 26.940903 -15.190351
-18.521582 19.710577 -4.8668628
-14.756479 30.767651 1.8506509
-14.543053 23.347376 -15.706925
-17.886894 20.290695 -1.1765606
-20.507219 17.895679 -14.576093
-11.032066 29.398691 -6.5961571
-15.017498 22.913696 -15.98288
-18.124027 15.230015 -8.3450022
-20.249672 18.131096 -12.50247
-15.628708 15.223009 -2.8128691
-13.330015 24.456184 -13.290885
-14.849108 29.467871 -3.7959924
-11.907448 30.51079 -4.6072998
-20.651432 17.763836 -4.989397
-16.705967 22.418655 -4.7021194
-15.60911 30.029984 1.6360588
-11.690901 25.954456 -3.4009714
-11.452446 30.881636 -2.9426754
-14.307162 12.191555 1.6633188
-15.903793 15.223787 2.1994576
-9.3030882 28.383387 -7.3647857
-10.926067 26.653072 1.1536611
-17.565397 26.928944 -6.0071478
-19.9683 15.472025 4.3058052
-16.459805 29.289545 3.4099505
-14.716831 26.938931 -8.6190681
-15.217329 30.376669 -1.7267394
-14.368296 29.409918 -5.7280021
-14.897335 23.282734 -6.2185001
-19.555187 18.765909 -13.273551
-13.533657 24.26967 -1.9558876
-16.080053 21.942198 0.50662279
-19.08239 19.198082 -13.916405
-9.52981 28.326389 -8.5186653
-19.204388 19.086563 -14.76185
-18.030254 20.159662 -1.2388909
-20.604805 16.465187 -9.2263298
-18.306023 19.907738 -16.078173
-12.657724 29.324451 -5.744391
-18.849859 15.232033 -15.804332
-19.150063 15.232903 -0.30037165
-10.398282 28.452539 -7.2417011
-17.386427 20.748318 -12.949635
-16.839001 21.59786 -1.9102372
-12.026176 25.647987 -16.733459
-14.177583 29.858261 -5.8031735
-17.5509 26.669996 -0.28673601
-19.074522 19.205173 -3.8583162
-13.778713 24.04604 -7.6598568
-12.008447 25.664196 -8.7392025
-16.961149 21.137054 -9.4359055
-12.830093 24.912743 0.90621638
-17.189312 27.021877 -6.9520087
-16.538879 15.225554 -15.799588
-11.277674 26.331694 1.9808657
-16.874752 21.216028 -12.08053
-17.928207 27.745581 0.0088775158
-15.726831 15.223288 -0.87621969
-13.966526 31.460558 -2.1869457
-13.274133 24.50688 1.9929284
-13.483931 24.315491 -7.1897326
-14.30717 11.770514 1.6362429
-13.682796 24.521086 -6.2185001
-16.479401 22.971354 -2.5494437
-15.620783 22.36198 -2.870204
-8.4145727 28.949265 -9.3048935
-18.882013 19.381239 -7.4501333
-12.705945 25.026215 -1.7326161
-20.106741 18.261745 -13.692217
-14.309774 12.344565 -5.6134734
-14.811847 23.101677 -17.861866
-12.76659 24.970787 -2.6682634
-14.309971 13.0311 -6.1623707
-15.84798 22.154573 -15.484888
-19.912663 15.235044 -0.67164248
-12.991544 29.838856 -4.8754659
-10.591416 26.959467 -17.849079
-14.30786 13.414887 -0.25708413
-17.180794 26.594154 -3.5231771
-15.590743 22.389439 -1.8924799
-11.998592 30.156612 -4.2459884
-15.546818 27.893169 -8.4573164
-11.752417 29.48394 -5.4059081
-11.988628 25.682312 -5.9306259
-9.2268009 30.539261 -4.5512624
-16.839001 25.440884 -2.5388639
-14.0701 28.212982 -7.7868614
-17.321915 20.807102 3.7340839
-17.173553 27.269943 -0.6082778
-12.426097 25.282433 -4.1736188
-13.349701 24.438187 -14.387872
-20.748884 16.496861 -2.3973393
-14.996589 15.221237 1.4979329
-20.215487 18.162304 3.4466662
-15.17792 29.137903 -1.7263968
-17.566608 26.663557 -6.4847555
-19.740086 18.596897 -9.072216
-17.542772 27.21039 2.9192157
-15.040348 28.048241 -9.0475006
-14.311738 11.652088 -11.146856
-19.510048 18.807116 -5.6451464
-14.312326 14.141963 -12.678514
-16.747356 21.332476 -16.644455
-15.599959 29.247425 -6.9132142
-13.925036 23.912291 -16.342087
-16.38719 27.931498 2.9993091
-13.576005 24.231331 -5.263906
-14.983675 27.378933 -8.6369581
-19.476299 18.838017 -6.9935951
-16.350605 27.965588 3.8326139
-17.072435 15.227072 3.0102489
-14.309761 10.952593 -5.5969186
-19.987385 18.370794 -3.285255
-8.3401489 30.07156 -4.3600035
-18.252272 19.956732 3.2125144
-11.197458 26.4055 -17.196709
-15.912777 15.223803 -8.3122921
-16.281786 28.041412 0.65721846
-15.501943 24.904625 -6.2185001
-15.848671 15.223621 -8.3937216
-19.1656 19.122021 -14.879586
-14.714695 15.22044 -3.8970828
-20.935169 17.504501 -16.928732
-20.880144 16.525743 -3.2724924
-15.692842 28.634876 -4.0435715
-12.272395 25.422495 2.1490393
-12.257446 25.436592 -18.25913
-14.311913 11.559593 -11.635494
-19.627062 15.234242 3.7079916
-14.490441 29.819569 -2.7166562
-13.447165 27.623226 -8.533947
-20.84598 17.586014 -1.2727227
-16.61109 21.457033 -17.404375
-18.874018 15.232121 -9.8426428
-16.013008 22.003727 -15.487667
-15.579914 28.349949 -8.515873
-14.312945 12.083303 -14.481472
-16.479401 23.52618 -4.4018455
-11.587652 27.488518 -8.4907494
-15.694376 22.294979 -17.673431
-14.767966 29.545732 -2.8608534
-18.829863 15.232002 -4.3484292
-12.617398 26.889204 -8.7741003
-10.943493 30.596672 -4.4483285
-15.740225 29.3242 -6.7779775
-15.118366 22.821499 -5.9587383
-16.839001 22.392792 -5.7864804
-16.605175 15.22575 -5.1313648
-15.373037 15.222292 -1.9169738
-8.9665785 28.444691 -9.2255726
-14.413451 29.883564 2.1776874
-16.839001 26.601152 -2.3037889
-9.296833 29.352957 -5.6390448
-13.503594 24.29752 -7.2572184
-19.34733 18.955906 -14.170111
-6.9352398 30.301489 -10.389274
-16.839001 24.111168 -6.1867704
-21.074001 16.671398 0.93904948
-9.12216 28.974602 -7.3564939
-19.060169 19.218294 0.12545776
-17.294048 26.419001 3.3659124
-16.623018 21.44591 -3.820888
-14.308427 14.487401 -1.8130565
-16.227783 21.807405 -8.3794155
-14.312559 14.137726 -13.327415
-11.866595 25.793407 1.3304981
-13.236487 24.541676 -16.090343
-16.657879 23.489128 0.45125484
-17.066027 15.227041 -9.2439651
-21.073999 16.846174 -9.7876492
-11.3357 26.443361 -8.4906998
-14.308 14.253177 -0.62767655
-17.189346 15.227393 -4.3828278
-17.167196 27.580765 1.9505024
-10.277239 28.617687 -6.9477549
-11.363606 26.419001 -8.6865301
-16.999887 28.831676 -0.93265665
-10.839793 26.73193 -1.1804484
-16.023956 21.993717 -12.344606
-19.675028 15.234375 -6.5237622
-19.822477 15.234778 -9.4414005
-14.309551 14.179239 -4.9496512
-16.079868 15.224285 4.4544487
-15.470084 22.5 -16.303719
-12.555084 30.863947 -3.0587051
-16.048578 21.970964 -0.5089128
-14.310366 11.069642 -7.3113503
-12.258478 25.435213 -1.637987
-10.485361 27.05641 -14.142539
-12.422407 31.787052 -2.3347518
-13.417958 24.375797 -4.8320727
-6.9679008 30.271631 -7.0310478
-13.125406 24.64282 2.1646919
-17.28092 20.844761 -13.848712
-12.119455 25.562727 -16.99143
-16.948317 27.313107 -8.9307642
-15.961638 22.050428 2.8505008
-16.269594 21.768951 2.7490261
-15.863661 28.449314 2.7675371
-14.310186 11.665793 -6.792449
-15.484867 30.151615 -4.6641583
-16.515774 27.80682 2.0414591
-15.23312 29.090454 -4.5992827
-16.440695 29.325361 -5.2184744
-14.926317 22.997044 -14.267955
-14.950153 22.975254 -7.3400307
-17.549938 27.31575 0.092098236
-14.339433 23.533169 -2.9184422
-16.700697 29.085606 1.346535
-13.247648 24.531086 4.0041161
-14.312447 11.600222 -13.117931
-16.384628 21.663805 -1.7334917
-17.192146 26.419001 -2.2471273
-16.479401 22.612432 -3.5832977
-14.454607 23.428223 -11.373836
-18.387245 19.833361 2.2039156
-14.77525 23.13513 -13.760543
-9.3853645 28.252274 -8.6515388
-16.366222 15.225076 -7.7721853
-11.045601 28.099619 -8.925231
-17.550205 27.463142 -0.012914658
-16.839001 21.206778 -3.8532712
-15.087945 15.221486 -6.0177402
-19.427715 18.882427 -17.25691
-10.04155 29.514765 -5.3510447
-17.596352 15.228532 -8.3479958
-16.681097 22.420965 -3.0771821
-20.375231 18.016329 -16.564743
-14.627045 29.687153 -3.7486973
-10.959583 26.622438 -1.6097254
-21.073999 16.682888 -7.5834846
-17.529552 20.617493 -14.795106
-14.306678 13.208887 3.0265787
-19.162388 19.124865 -2.237813
-16.839001 21.219662 -3.6519232
-17.155338 20.959356 0.096232653
-17.538246 27.145788 4.7043667
-16.839033 21.578197 3.6945806
-14.891687 23.028698 -5.5693159
-12.209999 25.479961 -15.929878
-17.545277 26.419003 -2.6865852
-12.372599 25.330904 -0.95445323
-17.229424 26.419001 -3.2901821
-16.803967 21.280731 -6.0331426
-13.415884 24.377691 -16.432266
-7.6943092 29.607641 -10.054731
-14.812415 30.725304 -0.87190413
-16.839001 23.898758 1.6999788
-19.713245 18.621431 -9.1877193
-18.680468 15.231581 -6.3642159
-15.098554 30.483067 -3.3246677
-9.0679283 29.732779 -5.9971805
-20.165253 16.368513 -13.768343
-20.072458 16.348019 1.825382
-17.825209 20.347076 1.6377099
-14.313194 14.250431 -15.087856
-19.431866 18.878632 -7.7651386
-18.200653 15.230238 0.29415154
-14.307949 12.018229 -0.52163219
-15.449036 22.519239 -15.463988
-18.218124 15.230279 -9.1632824
-12.986769 24.769537 4.3482051
-20.942713 16.539541 -9.3889742
-17.163033 26.784302 3.6262612
-17.171722 27.474295 0.12771702
-17.701672 27.664501 -7.2452917
-8.8914833 28.513336 -4.1481724
-8.8395157 28.560841 -1.9422975
-15.47853 28.22439 -7.8759217
-8.3456192 29.012297 -9.9820213
-12.815722 24.926289 -15.60612
-19.462893 18.850273 -8.7328415
-14.089125 24.752724 -6.2185001
-15.633173 22.350655 -2.4278903
-14.311 12.204611 -9.0801659
-14.308249 12.689397 -1.3467796
-15.152708 29.152325 2.5258589
-17.326033 20.803339 2.1298404
-19.362078 15.233483 -11.305205
-13.552059 24.252846 -0.6498549
-14.808118 30.727037 0.019036651
-16.839001 20.99181 -2.5355787
-14.306588 12.099613 3.2608104
-20.316463 16.401711 -4.447207
-14.306079 12.349365 4.676568
-13.514394 24.287647 -14.521761
-15.228446 15.221888 1.115885
-16.208731 21.824581 0.032992125
-19.968445 15.518018 -11.232791
-17.933647 27.726116 -2.1006103
-12.537974 25.180168 -7.5660672
-16.311243 21.731117 -10.195838
-14.390638 23.486696 -10.181424
-10.525201 28.211412 -7.6708822
-16.739265 29.049377 2.618356
-10.823011 26.747267 0.32400179
-18.464226 19.763128 -7.2808895
-16.600616 27.735477 -9.1083193
-19.99061 18.367844 -3.3877769
-8.2891464 29.063917 -11.852815
-17.526279 20.620483 -16.826738
-11.730566 25.918198 -16.112309
-19.9683 15.895987 -1.2430849
-18.597549 19.641262 -11.314978
-7.0888467 30.161079 -11.418365
-18.769171 19.484272 1.9576261
-12.749058 31.387646 -3.0524867
-11.390647 26.228912 -8.6819448
-15.496675 24.029377 -6.2185001
-21.073999 17.179773 -1.3317723
-16.214657 29.499807 4.2930117
-17.059723 27.678289 -4.7248383
-15.922033 22.086884 -4.9768262
-14.312761 12.199169 -13.962586
-17.933411 27.778465 -2.0085125
-9.4552402 27.998018 -17.079088
-16.555464 27.524719 -8.7423353
-11.828396 31.364609 -2.1316755
-17.564854 26.950788 -5.792531
-17.919214 27.990295 3.4937596
-14.308721 14.280431 -2.6322372
-14.496888 29.806196 0.1229229
-12.277304 25.418442 -11.269066
-13.303793 24.480152 -9.9423771
-17.540924 26.459785 3.6486731
-17.974957 20.21036 -11.823499
-18.551058 15.231222 0.16234016
-10.047922 30.242041 -4.0565643
-9.7664413 27.713556 -7.2831016
-16.715073 21.361988 -5.0470524
-11.650934 27.323561 -8.7741003
-16.839001 21.278767 1.4461249
-17.366051 15.227894 -0.20932293
-16.025776 15.224123 -3.7372139
-15.978305 29.714188 -0.078124046
-17.112373 20.998825 -16.695648
-18.613983 19.626118 0.063233376
-13.428898 27.944805 -8.2037458
-15.785256 15.223442 -8.9477539
-15.291117 22.663305 2.1091599
-17.851488 15.229244 -12.978539
-16.909594 15.226604 -6.2618732
-17.539875 27.399046 4.0623665
-8.709507 28.679676 -12.72601
-11.609668 26.028709 -8.3084698
-17.372719 20.760666 3.3162065
-17.588867 15.228517 -2.5545702
-14.981152 27.297554 -8.6367893
-16.714859 15.226065 1.9676995
-16.412783 27.697569 -8.6992149
-15.781002 28.550112 -4.9900303
-14.308337 14.888588 -1.5621847
-16.479401 24.594866 3.7489183
-18.111069 20.085941 -8.6766081
-15.6429 28.572773 -6.8483272
-17.450914 20.689373 -11.394387
-16.839001 25.77467 -1.3106518
-14.770079 30.768377 -3.7461782
-21.073999 17.160791 -10.367765
-17.745907 20.419563 2.1527519
-13.722383 24.09753 -15.17448
-12.552383 30.439415 -3.796911
-8.5789127 28.799049 -4.4656224
-15.013621 30.553993 -2.1609364
-8.192625 29.38792 -5.5768127
-17.8188 28.117567 1.3754364
-9.0470152 28.371166 -5.5022607
-10.848715 28.287298 -8.5887451
-14.307848 15.164127 -0.19412521
-14.31168 12.684562 -10.945296
-17.160816 26.464661 4.5187583
-19.980381 18.377193 2.1223154
-16.088753 15.224297 -9.134819
-15.288751 22.665751 -5.5711999
-12.410588 31.3918 -3.0405276
-10.663721 26.893375 -2.513752
-19.915327 15.235052 -3.4059012
-12.642649 31.084442 -2.6819487
-8.4702978 28.898329 -8.921339
-16.199131 29.532232 -4.2073994
-15.638886 22.345434 1.4198651
-10.860481 26.713524 -8.6667747
-17.448431 20.691463 -0.56672144
-17.570881 20.579714 -17.07703
-17.04998 15.227005 -0.77983332
-14.311604 14.727478 -10.649265
-16.479401 24.164988 2.4636648
-11.140714 26.457369 -18.463129
-14.601593 30.907488 -0.72198606
-21.017822 17.428946 -2.9999213
-20.669483 16.479465 -14.181466
-16.306004 15.224901 -13.218362
-14.815754 23.098104 -5.0623498
-16.479401 24.823654 -1.2726976
-11.573255 26.061525 -0.45837462
-16.09906 15.224337 2.837019
-7.535737 29.752588 -4.7518477
-9.8600206 27.628017 -7.5724535
-13.968054 26.419001 -8.803894
-15.728217 22.264046 -6.0004091
-7.9952559 29.332556 -10.184152
-14.307586 14.216456 0.51747841
-20.498287 17.903814 -3.4594314
-17.167122 27.51046 1.9800453
-9.0074368 28.473236 -7.2048607
-18.319355 19.895418 -3.7375941
-17.305719 20.821907 1.665535
-15.673029 22.314493 -12.965399
-15.607522 26.969475 -8.6787834
-17.926214 27.697662 0.78054178
-16.839001 26.233574 -0.062900171
-11.935283 26.419001 -8.4921818
-17.948904 20.234018 2.6047654
-8.3108997 29.044033 -5.2556934
-16.797628 25.341969 0.34696633
-15.184599 15.221755 -9.3554993
-11.736101 27.664499 -8.9023352
-16.948044 15.226719 -0.90285993
-16.839001 26.628685 3.7840216
-14.310985 14.476922 -8.9404173
-12.101341 25.579285 -17.046978
-18.694548 19.552481 -3.268013
-8.1702375 29.172609 -6.6798129
-11.022953 26.56501 -12.924014
-16.479401 24.66921 2.4134777
-13.71768 24.101467 -0.62937021
-9.0216503 28.394354 -7.4210005
-13.78281 24.042295 -7.4423828
-17.4867 20.656662 -9.2613544
-16.079933 15.224266 -12.721027
-9.8789263 27.610737 -16.829041
-19.9683 15.488134 -3.626452
-19.96851 15.602592 -13.78167
-11.298922 27.945606 -8.1439943
-14.310745 11.585162 -8.3792915
-17.18465 26.818491 -5.0745392
-13.968657 23.872065 -1.1939174
-14.30845 11.367157 -1.9242673
-10.930189 27.313669 -8.7741003
-19.315092 15.233368 -3.1269112
-14.310451 14.039787 -7.4716043
-16.288534 26.453781 -8.7244396
-15.988207 28.32888 1.7055826
-14.311444 13.771563 -10.243153
-20.470053 17.929623 -4.5286827
-16.096298 21.927593 -7.4526315
-19.036491 15.232582 -5.1931162
-17.731926 20.432343 -1.2071121
-14.40522 26.858509 -8.8346739
-20.104567 18.263685 -4.9658847
-11.226448 26.379002 -16.796772
-15.310644 15.222106 -12.587818
-17.18803 27.213629 -6.4351835
-13.937713 30.366222 -2.9434547
-20.926203 17.512697 -7.3851218
-14.306452 13.012695 3.6504605
-15.137154 27.021591 -8.8623295
-8.9095678 29.678461 -5.0596795
-10.205651 30.794727 -4.0932422
-13.252781 28.983854 -7.3525004
-15.290822 28.714766 -6.8061619
-15.766847 29.901556 -2.0045669
-13.513093 24.288837 -11.464405
-15.25227 22.698811 3.9366212
-17.269064 20.855408 -3.3224959
-8.9317932 29.335693 -5.669775
-7.8773952 29.440287 -8.5932159
-18.90807 19.35742 -11.793268
-16.961931 15.226743 -15.658553
-16.175278 23.193586 -6.2185001
-17.311285 28.555241 2.1340215
-20.498007 17.9041 -15.980983
-10.601214 28.216934 -8.7149
-15.726431 22.265413 1.2465594
-19.046402 19.230976 -10.4133
-14.309136 12.805964 -3.8089097
-10.235866 27.28447 -4.839263
-16.55595 27.769072 1.2521029
-8.5024042 28.868982 -10.839263
-12.884003 24.863873 -3.6081522
-19.060322 15.232644 -9.4761543
-9.1229954 28.301716 -4.9725037
-14.310781 11.85153 -8.4749794
-14.09939 31.34499 -1.9441411
-19.929703 15.235075 -10.262504
-14.261171 30.037636 0.71015
-20.681423 16.482096 -14.773159
-15.075425 22.860748 -7.1313434
-14.998431 15.221234 -5.7565193
-9.1289768 28.296247 -4.7654467
-18.947124 19.321724 -12.624458
-16.839039 21.561783 4.0156155
-19.9683 15.73806 -1.3007188
-15.771264 27.711935 -9.0972013
-14.309437 15.203834 -4.6058745
-14.376164 28.187044 -7.8556423
-16.610317 22.42754 -0.50620425
-13.971736 23.869602 -15.780182
-16.929068 21.166176 -1.6511047
-16.930023 21.165506 -16.988747
-11.029646 27.886665 -9.0573997
-17.968296 20.216293 1.8120971
