# .PCD v0.7 - Point Cloud Data file format
VERSION 0.7
FIELDS x y z
SIZE 4 4 4
TYPE F F F
COUNT 1 1 1
WIDTH 1329
HEIGHT 1
VIEWPOINT 0 0 0 1 0 0 0
POINTS 1329
DATA ascii
-0.010243893 30.470448 -15.054859
5.3492565 29.439333 -16.750748
6.2689486 34.262218 -8.7382908
16.883333 30.814497 -14.452166
5.1278543 27.444923 -20.063648
-5.3700914 28.698408 -18.014315
5.58745 36.260365 -5.4219742
0.25838995 31.999876 -12.51403
-2.4415359 31.644447 -13.112639
1.8083203 35.470333 -6.7456741
7.6571407 27.650797 -19.713943
13.789469 26.517117 -21.584604
6.8213234 30.400787 -15.149465
7.6616063 36.603172 -4.8462472
6.47895 28.462887 -18.368896
-5.242877 25.882717 -22.69009
10.261153 27.954983 -19.200727
2.8483694 32.188213 -12.193251
0.22859526 27.994324 -19.166348
-0.60333204 32.748173 -11.273952
14.245802 28.707544 -17.949099
-5.8439574 29.797955 -16.116621
-1.1412458 26.413473 -21.795977
-1.0347691 27.838154 -19.429604
-3.4259624 27.459421 -20.065966
-4.9668446 31.567211 -12.203908
1.8864713 33.570492 -9.9006033
16.600899 27.952497 -19.202265
-1.3904161 23.521486 -26.599617
10.654059 34.954464 -7.5809197
10.449858 32.226376 -12.108803
1.6262002 32.523712 -11.639846
1.8974242 29.762367 -16.224918
7.7559128 33.950481 -9.2514238
17.252266 26.842283 -21.04492
12.848351 31.199663 -13.812862
7.1479135 32.952045 -10.911455
4.7124195 29.775494 -16.194431
14.271444 29.673302 -16.346203
9.4410229 26.764069 -21.18107
11.165603 33.252186 -10.406233
-4.383389 31.04184 -14.119417
-2.1462827 32.198006 -12.192402
14.351512 25.965248 -22.500557
-4.5301485 26.561829 -21.560051
-1.3090186 26.384039 -21.845379
0.29347372 32.617668 -11.487917
0.96403599 34.816639 -7.8339081
2.2094188 27.147543 -20.566528
11.020857 32.074871 -12.360256
8.0924892 27.560049 -19.863308
11.48143 32.253628 -12.063568
12.628208 26.116558 -22.249428
-0.17745781 31.835106 -12.789015
8.7736864 35.509861 -6.6591148
20.245819 28.656998 -18.033106
8.2024155 33.654755 -9.7411737
1.2820396 24.337595 -25.236021
-3.593601 32.765907 -10.304451
-9.3954058 27.588455 -18.61709
-5.9197922 27.539883 -19.940033
8.2415771 30.020889 -15.775997
11.063454 32.756271 -11.22932
7.4103479 33.929623 -9.2871275
9.8105927 34.240723 -8.7655401
-1.2172155 31.401352 -13.512584
4.2003274 34.885513 -7.7095375
10.418579 26.554579 -21.525969
16.085499 28.887543 -17.650351
9.6063719 27.385645 -20.148275
3.1223483 25.394119 -23.475712
9.8077841 29.268791 -17.020218
15.886042 31.308069 -13.632939
-3.0758729 24.954363 -24.225166
1.9647021 33.844868 -9.4446907
-4.7317276 30.649937 -14.771339
15.644926 28.044081 -19.050264
-6.2594337 28.91654 -17.654793
3.651453 23.726217 -26.244053
4.7634706 25.159256 -23.860699
-3.9455924 29.529839 -16.629126
4.3246193 32.324936 -11.961636
-9.746789 27.477129 -18.606119
-3.0074334 29.446369 -16.764845
2.4022508 25.880123 -22.670803
6.0280175 36.107655 -5.6742201
10.709849 33.046165 -10.748172
6.3067889 36.121811 -5.6498532
-1.2283902 28.67725 -18.036673
11.551307 28.447227 -18.381149
-3.1388574 29.479101 -16.710894
16.980066 30.606091 -14.79806
5.0152416 36.139256 -5.6248679
-1.2088108 31.70162 -13.013885
1.1560307 32.930378 -10.965927
8.8763828 34.122429 -8.9624033
14.369598 29.708435 -16.287889
12.251479 30.044624 -15.729915
16.28124 26.213705 -22.088188
-2.0917444 32.242462 -12.118407
-1.9436445 33.324844 -10.320375
9.6091633 26.49748 -21.623293
11.000099 29.08876 -17.31638
0.34861374 34.946037 -7.620904
-7.0691013 26.56962 -21.554951
13.755871 30.933167 -14.255169
13.481031 29.654421 -16.377542
-6.9157114 29.777071 -15.125898
12.915301 33.330803 -10.275754
-4.4018955 32.032433 -11.493484
15.189072 26.785625 -21.138958
1.2827353 26.120392 -22.275232
12.20488 29.177303 -17.16943
-2.2576389 27.458385 -20.064081
-3.0839586 31.255239 -13.760996
14.716251 28.373455 -18.503593
-5.8711691 27.357929 -20.242062
13.163375 33.109993 -10.642239
-2.1591859 33.891098 -8.6431665
16.694298 27.545509 -19.877754
-6.2635989 30.915421 -10.894403
10.99979 31.390162 -13.496683
8.0018225 32.107071 -12.31211
9.5599766 28.500132 -18.297535
8.5629835 30.633224 -14.758075
8.9050646 27.474838 -20.00231
5.1114984 32.680843 -11.368134
12.146185 25.435848 -23.379215
-4.4465551 28.371958 -18.553619
2.545244 34.01635 -9.1581116
14.186237 25.271427 -23.652109
-7.5044379 29.346111 -15.729265
-6.1042032 31.061117 -9.7920475
-8.9828873 28.429785 -16.3379
-8.4825239 28.348885 -17.447039
7.1100264 33.214207 -10.476185
9.9738026 34.218018 -8.8032188
6.0978265 34.810555 -7.8281736
1.040556 34.577633 -8.2306023
3.4304318 34.158463 -8.9193611
12.932002 30.07616 -15.677568
-3.7834589 32.838032 -9.9620724
12.412672 27.486248 -19.976114
9.0866833 25.138004 -23.882656
11.160156 33.721283 -9.6276636
2.5617194 32.191338 -12.18895
1.8970466 23.710699 -26.275238
7.2380314 30.600901 -14.81584
-2.8965697 31.384542 -13.545678
-1.2882133 27.600109 -19.825718
-5.5611229 31.557535 -10.286705
-0.88486385 26.152859 -22.228001
7.2018814 29.584637 -16.503717
5.3208847 27.430748 -20.086596
6.9610925 27.009705 -20.780785
10.381216 26.224943 -22.073523
-5.130641 31.158743 -13.11587
3.2320809 28.212366 -18.79497
1.9625797 34.608379 -8.176693
-5.0696964 32.006737 -9.8714743
6.6769986 33.739613 -9.6049547
-4.6277628 26.32093 -21.960426
-1.6544008 34.115295 -8.5166531
8.3751354 28.956421 -17.543407
9.7989349 35.09285 -7.3512402
11.978533 27.086971 -20.638798
1.7917762 34.410107 -8.5065022
12.758017 30.143263 -15.5662
-1.4973617 28.828781 -17.785847
1.8448582 25.271568 -23.683182
9.8959084 25.347212 -23.532711
11.785514 32.917412 -10.961871
1.1510844 26.848648 -21.066185
16.698 28.131044 -18.905926
10.46458 28.911528 -17.611515
-4.1282191 28.4259 -18.463053
7.9764748 26.616585 -21.430525
3.6706891 31.683464 -13.028982
6.0274057 35.602222 -6.513629
-9.1064568 27.437771 -19.302189
-7.3418474 27.989784 -19.19725
-0.27847242 24.986965 -24.162388
5.0493603 29.073839 -17.358669
1.7847795 33.371655 -10.231133
5.4431286 26.624624 -21.424988
-6.3991566 26.994408 -20.847408
14.586206 30.361731 -15.203598
19.771883 27.33597 -20.225554
-0.66197348 31.644382 -13.10725
-4.0524859 25.221226 -23.784988
-1.7906003 30.074759 -15.717488
12.550869 29.373825 -16.843254
10.926745 26.17487 -22.155003
14.910683 30.030508 -15.753334
17.44397 30.457376 -15.044907
1.7044525 24.584188 -24.825184
11.858664 30.173117 -15.516647
8.1492672 29.943499 -15.904814
1.3465757 24.328218 -25.251389
9.7401447 33.000225 -10.824424
12.436128 25.426743 -23.394329
9.7307892 26.037031 -22.387606
-0.19047832 24.315876 -25.276628
-2.3503671 25.246544 -23.737686
3.9658446 31.232029 -13.777794
-7.5726981 28.975189 -16.637531
7.6156378 31.653229 -13.067026
3.9879365 25.807926 -22.785812
4.8500128 33.527199 -9.9633579
16.802486 30.55286 -14.886395
10.932617 29.450928 -16.715286
-7.4570189 27.434517 -20.119762
20.378292 26.509632 -21.597038
9.4188423 26.786186 -21.144411
10.527422 25.930096 -22.56274
-5.5931396 29.195036 -17.190228
8.0200348 24.266371 -25.333513
-6.0525942 30.614359 -13.718698
3.1604924 26.811005 -21.122507
4.6560965 35.392643 -6.8659086
9.243721 34.309032 -8.6521606
10.375535 25.671917 -22.991982
-5.4163704 31.68985 -8.5683613
2.7581375 33.87923 -9.3851719
5.6857605 23.858427 -26.018211
5.614368 34.208046 -8.8302822
2.4882622 24.335192 -25.23629
14.499266 31.70191 -12.979268
4.0330877 23.577604 -26.489683
8.1001596 29.980515 -15.843491
4.060328 31.029703 -14.113514
8.9492369 27.708887 -19.613478
2.7878251 28.151934 -18.896698
1.4167056 35.395126 -6.8717847
4.8293929 24.826553 -24.413036
14.927581 32.188553 -12.171577
6.9550476 31.765697 -12.882279
-1.2092624 27.805294 -19.484715
17.054218 28.320923 -18.590786
-0.26048183 33.135246 -10.63006
9.7416697 34.541023 -8.2671194
2.4472911 34.747551 -7.9440665
9.2885094 29.3661 -16.860212
15.585623 30.469063 -15.025456
-4.4500217 28.542446 -18.270494
-4.2628708 27.928879 -19.288893
19.251617 27.487976 -19.973248
16.265541 29.326912 -16.921114
2.9521742 26.143328 -22.231995
-5.4713831 28.51853 -18.313362
-0.35778379 31.357422 -13.582885
-0.6880846 30.547152 -14.929564
18.817654 29.272903 -17.010822
0.36257219 27.794525 -19.497747
-7.0422654 30.203659 -12.623041
9.7424297 25.225405 -23.735483
18.934576 26.154064 -22.187178
1.2944946 28.317574 -18.626225
-1.8493972 28.069122 -19.048536
5.3300896 34.251839 -8.7584248
4.0172682 33.849133 -9.4312744
13.057369 31.497013 -13.319342
7.0004392 25.281935 -23.650057
5.9710498 35.259247 -7.0833931
7.0760002 28.453255 -18.383049
6.1535654 31.126244 -13.946724
1.4668422 35.427845 -6.8172917
10.558228 26.589008 -21.468357
-7.0269804 29.620079 -15.432084
-6.4764438 30.720863 -11.148584
17.407751 27.948359 -19.209141
0.5775075 34.02372 -9.1519432
7.0012989 33.17104 -10.548216
-3.1698847 30.436552 -15.120899
16.317665 30.562096 -14.87105
2.3926582 25.389242 -23.486069
1.9708571 27.174536 -20.522438
9.082552 25.427059 -23.40262
-2.0099387 28.185028 -18.856546
19.602331 26.968048 -20.83618
0.22646856 28.665228 -18.052147
7.7502322 31.693102 -13.000387
2.2277384 30.498238 -15.001801
-8.0793228 29.255709 -15.125163
16.678684 25.859484 -22.676096
4.5666814 36.010227 -5.8405366
6.1707001 31.225336 -13.782104
-4.8909197 31.760128 -11.776764
3.1957648 32.826111 -11.132786
6.5501719 36.937382 -4.2946434
4.0359125 24.793545 -24.470306
11.520684 28.962795 -17.52545
-2.2094541 24.011154 -25.788927
-3.7875628 27.480303 -20.0324
6.4439516 32.224091 -12.122577
12.343995 32.585487 -11.512772
10.336209 30.051497 -15.718709
5.9379005 32.281574 -12.028668
-6.2179718 27.049213 -20.755833
12.174215 27.930687 -19.238466
4.1491537 32.855003 -11.081867
-4.9691148 29.605536 -16.506561
11.849335 26.899239 -20.950384
-9.2040043 27.543694 -18.916019
20.826305 27.392754 -20.131378
10.401549 26.443521 -21.710459
6.6798096 29.988871 -15.833998
-4.1968389 26.455185 -21.736134
3.7897925 23.728662 -26.239571
11.313967 26.592955 -21.459469
12.961943 30.965366 -14.20173
4.4664097 25.415632 -23.435841
-1.8187604 33.528938 -9.9522123
7.1213751 30.35581 -15.223236
21.261473 28.026283 -19.079954
-7.9252944 28.060574 -18.780842
2.3191652 23.430185 -26.739799
11.569832 32.997952 -10.828194
7.2859111 30.577778 -14.854096
-3.4857373 26.495129 -21.667601
10.596514 26.66456 -21.342762
4.8624172 35.555458 -6.594883
-7.2222524 27.000034 -20.840605
9.8191938 31.376179 -13.52033
7.9595113 30.588459 -14.834281
-4.07582 25.323816 -23.614683
-0.4067812 24.386835 -25.159456
10.961313 29.862501 -16.032181
8.2807465 33.275032 -10.371553
-0.41452217 28.962963 -17.559666
7.8981905 27.333858 -20.239553
9.180377 30.294464 -15.318763
10.063529 31.84059 -12.749097
2.5240402 27.231827 -20.425587
15.494951 31.202429 -13.808274
-0.6119566 26.221804 -22.112659
-1.661562 25.252239 -23.726101
-3.3025255 30.646152 -14.773211
9.509387 27.62513 -19.750851
0.060761929 26.676613 -21.355259
-1.228261 32.538708 -11.623746
11.680286 34.105713 -8.9896212
-2.2094808 33.360218 -10.022935
1.1494098 28.864683 -17.718058
-5.6655321 30.422968 -14.589632
15.373257 27.390947 -20.134291
8.5448914 32.87796 -11.030183
2.5626273 28.87854 -17.690681
13.186337 30.843895 -14.403341
-6.2674322 30.197672 -14.604155
-2.2116041 24.878189 -24.349003
2.3562784 24.191481 -25.475361
7.8014984 26.311142 -21.93833
17.223005 27.011452 -20.764147
4.2267981 32.947857 -10.927424
9.3316231 30.892609 -14.324925
3.5431111 32.519806 -11.640415
7.4981775 36.789959 -4.5365524
16.988976 27.424835 -20.078045
5.788126 24.173508 -25.494621
0.80189562 23.550188 -26.545189
-7.0371838 27.622477 -19.806313
8.2321358 34.176453 -8.8746681
4.2685456 23.886976 -25.97517
10.304099 29.110264 -17.281958
-4.0878668 31.807014 -12.387094
9.8271952 30.770258 -14.526592
-1.4488988 23.602589 -26.465107
-0.23182535 31.530867 -13.294449
-7.3993049 29.179962 -16.251825
-4.5754495 32.362617 -10.508352
-0.97411203 27.650787 -19.740589
-9.7497683 27.446329 -18.681969
6.9593587 31.053288 -14.0654
9.2972088 26.215069 -22.093267
2.3958516 31.679678 -13.0392
7.5914049 26.192238 -22.13645
-3.2810469 26.296131 -21.997456
0.70317459 23.806078 -26.12052
16.436678 31.193712 -13.822765
-2.4550877 33.672314 -8.9519796
-1.8455157 26.102676 -22.314308
-6.7714014 30.451248 -11.703471
12.792377 31.986191 -12.507442
10.583719 25.74704 -22.866583
19.967014 27.31274 -20.26412
7.4143095 27.766512 -19.522518
4.3713427 36.294216 -5.3695059
7.9550576 29.159283 -17.207798
8.7481222 26.904444 -20.950085
3.1142693 33.339634 -10.280202
9.3772469 28.09873 -18.964725
4.0218019 32.513702 -11.649078
-6.4243879 30.632822 -13.360504
9.2831535 33.285362 -10.351305
14.326238 31.304201 -13.639359
14.306574 26.057623 -22.34724
4.0385547 24.722166 -24.588835
-3.7698669 30.551208 -14.932338
14.805719 26.692543 -21.293449
12.340088 27.524799 -19.912127
-0.97474194 23.334103 -26.909533
4.9531503 35.077694 -7.3880472
12.254547 33.461418 -10.058971
-7.6236076 27.365932 -20.234177
0.49021816 29.084696 -17.354702
-4.7045093 32.340542 -8.4438353
8.4091282 27.838131 -19.400501
6.198595 35.04385 -7.4404116
-7.3097787 28.129223 -18.965576
10.643395 25.528391 -23.229513
10.92239 29.74781 -16.222542
-0.75439644 31.686132 -13.038206
3.8743491 26.616234 -21.443768
12.795867 27.991098 -19.138201
-1.5300202 30.673704 -14.72199
10.855288 34.464241 -8.394558
-0.34388256 23.14794 -27.216759
11.800098 26.508989 -21.598095
8.4337111 26.343147 -21.883228
6.6929569 25.64106 -23.054592
-5.0902333 31.987961 -8.4853258
-0.67829132 25.040611 -24.074532
-4.690145 29.022705 -17.473642
11.874687 30.883488 -14.337627
5.1188087 29.066902 -17.369974
11.453596 27.164797 -20.509636
0.56062937 33.013958 -10.828955
6.4853249 26.307028 -21.949223
14.481047 26.54126 -21.544537
11.034058 24.868097 -24.324898
17.089449 29.663137 -16.363073
6.0178156 30.690498 -14.670807
9.2799473 28.001221 -19.126965
-2.9831138 33.575417 -8.7564335
-1.6389112 24.569706 -24.859554
12.271436 26.859489 -21.016365
19.337307 27.560165 -19.853439
5.384367 30.694448 -14.666199
13.009517 32.635117 -11.43041
-3.1999912 26.396341 -21.830784
-6.0827236 28.650904 -18.095406
4.4518323 23.633106 -26.396217
-1.4096398 25.829973 -22.765852
1.6491017 34.664932 -8.0837374
-8.6760368 28.071871 -18.001627
1.0140758 31.773361 -12.887877
1.0053563 33.103397 -10.679047
6.988585 36.310806 -5.3338795
7.496213 24.485874 -24.970585
5.4566679 32.345188 -11.924513
1.0578856 24.605227 -24.79224
2.7987952 32.186775 -12.195791
0.89188051 32.265007 -12.071754
-2.440537 28.936199 -17.610367
5.7374806 27.227007 -20.423676
14.102484 32.481861 -11.684765
0.06638813 27.339975 -20.253555
-7.555953 29.131245 -16.232674
5.6098003 31.401918 -13.490574
-5.9719315 29.629494 -16.448551
2.0831566 35.819233 -6.16539
19.299046 28.280136 -18.658518
9.194294 30.669224 -14.696335
12.203249 25.099672 -23.93718
4.4989591 33.063286 -10.734885
-9.391552 27.366253 -19.213058
7.5024781 34.142014 -8.9341145
-3.7144578 33.245525 -8.6782312
7.9906044 24.819353 -24.415237
13.333374 30.736107 -14.582239
-4.6949406 31.105801 -13.694624
-2.2642756 25.006365 -24.136299
8.5696774 26.704535 -21.282633
4.0436897 33.565006 -9.9030533
15.65065 29.633549 -16.412182
3.7472534 23.769329 -26.172161
-3.4855139 32.99073 -9.8230743
6.1048284 31.510324 -13.309014
13.930269 30.325491 -15.26375
9.2711792 32.828514 -11.110059
3.7704778 31.119032 -13.966055
4.4970427 33.875729 -9.3856239
-1.0983238 31.362688 -13.576425
9.356781 34.078049 -9.0355282
-5.0130553 32.05851 -10.287724
5.1646271 24.081234 -25.64979
-8.2383499 29.053436 -15.859347
12.542362 25.507185 -23.260815
-1.0122437 23.810139 -26.11907
5.8616247 32.751095 -11.249153
-2.1792917 31.786346 -12.876169
2.1367912 30.472818 -15.044296
18.338802 29.388584 -16.818804
8.982008 32.245937 -12.078465
14.388464 31.28153 -13.676981
1.3345456 24.169369 -25.515236
-7.1741962 28.730362 -17.702606
11.094408 25.41753 -23.412239
-4.6479435 29.534924 -16.622839
-0.083356857 24.455826 -25.04388
-5.2618318 27.29711 -20.34119
3.5738959 30.309723 -15.31072
10.711287 34.788792 -7.8558865
13.719932 26.082117 -22.306583
-0.47888756 30.438721 -15.108999
0.12375593 33.6628 -9.7527418
2.6294866 23.371181 -26.836834
1.8826189 27.808685 -19.469543
12.142445 27.870468 -19.338411
5.7718697 29.023548 -17.43996
5.6934257 32.772331 -11.214404
2.7195327 34.649502 -8.106061
4.0648842 31.422466 -13.461217
6.2552614 28.56921 -18.193007
13.239422 25.686546 -22.963125
-8.0783405 29.125191 -15.81078
19.022053 28.427933 -18.413212
-0.24068117 24.80262 -24.468424
-1.9863329 33.305885 -10.352
6.4656582 24.506983 -24.938709
3.8187251 28.28443 -18.673477
15.446844 26.965393 -20.840584
-1.2511139 33.83654 -9.4684467
-0.36798334 31.286928 -13.699992
10.815269 27.208452 -20.438824
14.995864 28.835226 -17.737179
7.5548263 32.144714 -12.250983
6.6361718 27.748089 -19.555513
-4.795639 32.257244 -9.5534353
1.9965444 27.26469 -20.372631
-3.2635212 28.709318 -17.989695
11.468165 27.879436 -19.323521
5.2011347 33.266418 -10.395364
1.891232 29.241646 -17.089725
14.519541 27.500832 -19.95191
9.1981258 31.522825 -13.278707
7.1030135 31.241364 -13.752614
-3.9147534 27.855038 -19.410452
-3.8889327 30.700527 -14.684717
8.7161322 35.645771 -6.4335413
5.9925246 27.005436 -20.790859
21.907459 27.482693 -19.982166
6.3500161 24.355637 -25.190416
12.644701 25.454746 -23.347853
11.873583 32.722698 -11.28504
8.0464735 24.414442 -25.087523
-1.9381008 25.223955 -23.773926
-7.1423879 28.120674 -18.979256
2.6029634 29.609661 -16.476345
-3.1067867 32.468964 -11.559519
5.4454479 29.615423 -16.458008
-1.9395328 28.038893 -19.09902
9.0610895 29.917126 -15.945797
6.4751673 27.796791 -19.475126
16.347698 30.678198 -14.67835
10.315813 34.705173 -7.9946752
-0.64356613 28.94981 -17.582214
8.3168755 27.045994 -20.716335
-0.85681438 25.893156 -22.659216
12.900774 27.112556 -20.596338
-2.250566 29.511631 -16.654129
-7.7138329 28.59177 -17.54269
3.0734935 31.089458 -14.017321
5.5294867 23.989273 -25.80139
10.294033 31.798532 -12.818905
4.1128464 35.637764 -6.4605107
19.139277 26.32658 -21.900846
-2.1767516 28.830969 -17.784311
5.7063003 30.527243 -14.942894
-5.0493922 27.845833 -19.429241
-5.4248061 28.739285 -17.946598
-0.26757145 28.757877 -17.899807
8.4884663 35.636742 -6.4487042
-6.9589472 30.279816 -11.582768
3.3063483 28.396507 -18.488926
4.7390528 24.29958 -25.288483
2.6257753 28.522543 -18.28171
1.9222708 34.101898 -9.0179596
0.61933804 30.475899 -15.043863
12.841173 32.146141 -12.241962
8.8423471 28.584246 -18.160061
-1.5846272 28.571241 -18.213829
-4.315237 28.491531 -18.354633
3.059608 30.390867 -15.177547
7.6699009 29.58058 -16.509012
2.3158951 27.674599 -19.690889
-0.2386961 24.172514 -25.514866
-5.890842 31.256147 -11.701787
0.2366972 30.155045 -15.577904
15.438771 31.31513 -13.621219
-3.0168262 26.314432 -21.966246
7.7018509 27.498798 -19.966232
17.72937 29.93244 -15.916142
7.2336726 34.998692 -7.5122175
3.5388293 27.979172 -19.181297
-1.4632044 32.08577 -12.37669
-3.1905141 26.954601 -20.903618
-1.5164332 31.579636 -13.217418
-1.3658161 26.000305 -22.482836
2.9432445 35.777496 -6.2320499
10.948109 33.684288 -9.689065
12.011927 28.888527 -17.648716
14.180431 31.723955 -12.94268
-4.6511984 32.389275 -8.5323582
-2.556994 32.87059 -11.012068
-9.3240643 27.689716 -18.419243
-8.4373884 28.92841 -15.292954
-2.3424201 30.21306 -15.489509
4.9408817 33.901058 -9.3421879
3.8333828 30.753456 -14.572989
-4.0105686 32.974857 -8.8455372
-1.1083727 27.525772 -19.948624
6.0325437 35.667789 -6.4047184
3.599556 29.56768 -16.542994
10.038735 31.714666 -12.958098
8.5382128 36.213516 -5.4912391
-5.1284633 27.903763 -19.333277
13.868093 27.925228 -19.247524
15.324902 28.383476 -18.486959
9.3931398 35.792538 -6.189949
12.076231 28.395596 -18.466845
-5.0992026 31.979765 -8.7507725
11.40015 25.750204 -22.858805
5.4218016 28.77536 -17.853214
13.32149 31.720177 -12.948952
-5.1061368 31.973427 -10.185113
6.4045362 24.783653 -24.479422
12.034229 31.606995 -13.1368
4.5388551 35.666645 -6.4112234
1.554616 23.318474 -26.927685
16.094751 31.265787 -13.703128
0.1902957 27.982134 -19.186708
0.080308914 26.595699 -21.489571
-1.6317129 27.127903 -20.610996
18.47744 28.537758 -18.230906
1.7202721 25.125547 -23.926073
-4.8578377 26.429247 -21.781246
6.834475 29.005112 -17.467297
14.844691 30.935188 -14.251818
10.532534 31.483831 -13.341221
14.060772 30.043161 -15.732338
-2.7559257 24.663317 -24.707531
17.295116 26.320072 -21.911644
-5.8031826 31.074335 -12.757484
-6.6294317 30.58102 -10.528097
2.0150228 29.923828 -15.956406
2.7044244 30.516048 -14.970749
11.847806 25.591114 -23.12163
15.575203 30.188484 -15.491143
-5.9626546 31.190504 -9.484787
8.0380545 35.324451 -6.9687266
5.5883155 24.127813 -25.571127
12.475595 30.045483 -15.728484
8.0360212 34.427723 -8.4579687
1.9925988 35.620602 -6.4955444
2.6616359 25.391764 -23.481049
11.340471 25.400892 -23.43911
12.83104 32.219151 -12.120791
-0.041735649 26.497065 -21.653759
10.49354 31.054291 -14.054142
14.780984 31.413239 -13.458381
7.2082138 24.265163 -25.338024
4.2982378 25.790531 -22.813744
11.187012 34.577835 -8.2060213
9.8688059 29.951656 -15.885958
4.0162802 31.557032 -13.23789
-1.5984578 30.200607 -15.507897
0.76411581 33.772266 -9.5689688
3.1124113 32.541344 -11.605978
6.70368 26.564665 -21.520678
-3.9826908 27.753929 -19.578581
7.7178516 27.33695 -20.234974
13.811234 26.143471 -22.204756
10.754436 31.555788 -13.221792
3.3263993 23.93688 -25.895195
-0.70204544 25.403894 -23.471283
-4.0557413 25.828419 -22.776598
7.0337868 27.993921 -19.146019
-2.9109445 28.495975 -18.342924
7.3470197 37.071415 -4.0695829
7.1143436 27.508152 -19.952513
11.248495 31.954285 -12.560395
-1.4058857 33.174656 -10.568143
19.288025 28.077065 -18.99555
8.6336908 30.721727 -14.610871
-6.9898448 30.251577 -11.627196
15.758564 29.367786 -16.853273
-7.3167114 29.952795 -13.28133
10.148799 30.695095 -14.650427
3.0384977 34.593498 -8.1980858
0.098234653 27.209057 -20.470884
-1.1941442 25.27907 -23.680103
14.185823 26.131344 -22.224882
3.6593618 24.165998 -25.51366
2.7170224 27.607834 -19.800537
9.1934061 35.214615 -7.1491394
0.19943523 23.693518 -26.30901
14.917974 25.60125 -23.104692
3.6612663 28.392969 -18.49371
2.6283712 35.212902 -7.1706743
-6.8084431 27.259659 -20.408159
-0.70350885 25.468721 -23.363625
8.4045591 35.625481 -6.467658
2.3790658 34.836479 -7.7965899
-2.4212666 32.780766 -11.225435
5.036593 29.855528 -16.06052
4.1251807 30.844723 -14.420518
-1.2796874 24.98682 -24.165722
6.2251306 27.4722 -20.014961
8.2433681 25.472124 -23.330366
-7.4128094 27.048126 -20.761322
-3.6384768 28.461554 -18.402332
-5.4339223 31.673805 -8.9125633
13.157014 31.617453 -13.11944
-2.3570142 33.146778 -10.458058
16.273781 29.400301 -16.799313
-7.1245594 28.039074 -19.114717
7.0562286 25.75692 -22.861053
6.0721517 32.089493 -12.347261
7.212348 26.696203 -21.300657
13.155418 28.026144 -19.080034
-5.2836847 27.531115 -19.952633
-4.5766716 28.88833 -17.696449
6.7569342 34.783184 -7.8715887
1.1464596 25.845524 -22.732143
18.668901 26.591446 -21.461241
7.7791605 29.549543 -16.560217
6.7658262 32.05928 -12.395294
-0.313241 23.080166 -27.32922
-3.7492619 24.724976 -24.608196
-4.2728572 25.321674 -23.618845
13.081996 31.041164 -14.075928
17.711876 26.297733 -21.948727
0.11771488 24.228699 -25.42046
6.834383 34.527946 -8.2952404
1.4312935 31.453812 -13.417287
13.548504 32.96743 -10.878856
1.6008372 24.923405 -24.26215
4.0281658 33.433678 -10.121208
1.0830202 30.206326 -15.490123
3.2523892 33.63625 -9.7871752
1.5110812 23.064926 -27.3489
11.150108 28.242893 -18.720293
15.045916 29.690504 -16.317654
1.2858257 26.593306 -21.48983
10.079126 29.27331 -17.011875
13.836574 30.511259 -14.955427
9.2652664 24.878649 -24.312828
-3.0641909 32.652298 -11.101897
0.71910906 29.228148 -17.115761
-8.2747746 28.735737 -16.636951
7.2137976 27.143587 -20.557663
14.325914 32.333069 -11.931715
6.5786223 35.968056 -5.9043541
8.4929237 36.382587 -5.210628
-1.2470155 24.535471 -24.915199
7.5947785 32.585281 -11.519178
2.2244461 34.739693 -7.9578071
9.7202902 25.536921 -23.218197
11.970417 33.085491 -10.682905
2.1367259 30.240971 -15.429334
-7.8473835 29.467724 -14.933719
5.2955503 27.445066 -20.062899
13.933046 27.971981 -19.169931
12.893971 28.379448 -18.493645
12.456441 31.315077 -13.621305
7.0262575 32.674564 -11.372655
-0.081504345 35.203011 -7.1176701
3.9149263 29.023575 -17.445642
-3.6105881 29.73877 -16.281103
9.2023048 28.890379 -17.650534
1.2664003 23.357485 -26.863789
9.0513868 28.922304 -17.597982
7.1958714 34.107693 -8.9920559
8.5516634 24.481279 -24.974962
1.3327374 31.221336 -13.803674
-1.383903 26.504017 -21.646357
3.2248983 28.705564 -17.97591
-5.9276609 26.406797 -21.821835
15.7881 28.481651 -18.324015
8.2683277 36.361134 -5.2463427
-0.7240181 27.986523 -19.18224
3.1630111 23.953825 -25.867561
2.204206 34.533108 -8.3009481
-4.3626842 26.238661 -22.096239
3.117135 29.648895 -16.409601
9.3294182 25.751026 -22.863827
-7.8147254 27.143936 -20.603451
-0.18990374 34.258556 -8.7643013
9.445672 26.830584 -21.070595
-1.0604944 27.379713 -20.191044
-7.5814114 28.55822 -17.766216
10.768039 34.841496 -7.7684145
11.983589 29.753269 -16.213476
-0.84863997 32.903946 -11.016003
10.009809 24.536474 -24.878799
20.937988 28.1182 -18.927378
1.5857511 27.714531 -19.626825
-1.9924841 31.565531 -13.242316
4.6733761 35.817791 -6.1597948
4.8200221 30.377783 -15.193844
4.6763325 27.272625 -20.351191
-6.6948147 30.521255 -12.127068
7.8528409 25.565649 -23.176247
10.075816 28.504416 -18.288828
-6.4292736 30.763979 -11.873862
12.737861 33.339657 -10.261057
17.542091 30.477644 -15.011275
5.3697267 23.822809 -26.078337
-2.7553039 32.382141 -11.88848
4.7538328 36.284859 -5.3838606
5.046207 34.791798 -7.8625631
11.392764 33.770485 -9.5459995
-0.8161931 33.000553 -10.855472
19.47991 28.677563 -17.998934
5.4112587 29.580439 -16.516216
-4.1916089 26.788898 -21.1819
-3.9113359 33.065567 -8.294879
20.070887 27.578074 -19.823759
8.2968693 28.443213 -18.39596
9.7736111 24.653282 -24.685539
1.8744011 23.052048 -27.369167
4.0581069 32.721607 -11.303686
3.151598 29.076689 -17.359787
8.5932465 33.305264 -10.320387
1.0449977 28.783321 -17.853502
-5.2594833 31.431244 -12.304787
11.983368 28.74733 -17.883064
9.1985674 28.126394 -18.919331
-4.2811151 25.995985 -22.499006
-3.7161231 30.708431 -14.671059
-7.5176764 28.878992 -16.954784
-0.59884787 34.51059 -8.347002
6.1833553 27.051638 -20.713543
5.2810202 31.440212 -13.42799
15.007485 30.625355 -14.766052
0.64030981 27.737278 -19.591965
-1.2010417 29.589088 -16.522255
8.4452467 33.344395 -10.255857
5.6400824 29.732357 -16.263208
6.1785107 29.873943 -16.026407
20.716179 26.73315 -21.226089
-2.8533988 31.359102 -13.587793
8.4645777 31.411703 -13.465511
16.260105 25.983459 -22.470331
11.227256 28.96336 -17.524511
8.5590277 30.040201 -15.742946
4.5430779 29.138298 -17.253178
3.0839138 29.700712 -16.32365
3.7015128 31.954443 -12.578854
14.847249 25.518476 -23.242079
-7.9996223 28.089256 -18.628511
6.2298856 24.889072 -24.304886
0.94185734 26.191551 -22.158108
5.1462555 28.010471 -19.124359
18.630758 28.40489 -18.451424
-6.7476788 26.865536 -21.062511
19.415249 28.117907 -18.927773
4.4244566 35.691452 -6.3703809
-1.3927412 26.177843 -22.188076
4.8688736 29.939272 -15.921953
2.2034979 26.630955 -21.424473
21.111528 27.478153 -19.989656
-0.2181139 25.165276 -23.866077
-7.0607018 29.063473 -16.907118
5.7810116 35.761932 -6.2491446
4.3291693 27.89035 -19.326368
-3.7330604 27.658442 -19.736389
6.6423168 33.979851 -9.2060833
4.7389894 34.530636 -8.2972355
2.4908595 23.352703 -26.86795
11.171065 25.520369 -23.241209
11.289909 30.789246 -14.494045
6.3728065 28.367535 -18.52758
12.002755 31.96682 -12.53959
4.0338674 30.212778 -15.470304
15.573399 27.832588 -19.401279
19.098753 27.939201 -19.224346
20.162258 27.509417 -19.937714
-2.8564448 27.735165 -19.60627
6.6932135 29.502979 -16.640902
-5.3447394 27.966175 -19.230293
2.4605112 31.889036 -12.691313
-6.9299555 30.306316 -12.562251
12.319048 27.686676 -19.643459
-1.9632792 32.68383 -11.385002
9.4137421 27.488873 -19.977436
-1.7184653 25.931412 -22.598345
6.2286119 36.104679 -5.678546
-4.1824002 32.817791 -9.227314
0.77178621 25.540468 -23.239916
4.7041478 33.389629 -10.192272
2.2039938 30.347702 -15.251877
14.696478 26.176216 -22.150406
6.5391016 31.921295 -12.625153
16.72633 30.887882 -14.330361
1.3617067 23.16983 -27.17514
-4.0786753 26.231361 -22.107483
10.193747 26.265972 -22.005968
13.082087 25.35067 -23.520588
8.8704138 25.860577 -22.683306
-8.3403606 27.648876 -19.490061
-6.8000469 29.566061 -15.796047
0.82538176 33.725746 -9.6460371
10.004875 25.081219 -23.974129
0.63840532 23.848362 -26.050499
11.758291 30.938084 -14.247011
10.723757 34.062141 -9.0619335
4.7754688 24.393415 -25.132534
2.4387951 28.244873 -18.743427
4.354135 32.221279 -12.133694
-6.9913278 30.250219 -12.189153
11.980779 27.731049 -19.569813
-2.7260165 28.461704 -18.399261
2.1866698 33.149334 -10.599113
19.617695 27.438612 -20.055197
-5.5800509 31.540234 -9.0765257
2.0968609 33.72451 -9.6441689
8.5271349 25.834272 -22.72805
-5.7050886 30.810154 -13.511564
4.658071 24.202223 -25.450418
-4.6300974 27.696508 -19.675938
17.728558 26.545118 -21.538134
6.4883213 28.361355 -18.537489
1.509469 29.030033 -17.442337
-1.1342802 32.981678 -10.887793
3.0577726 26.221912 -22.101154
-4.0489516 25.368172 -23.540936
20.941507 27.963696 -19.183811
7.4697328 34.770504 -7.8904467
8.9163532 35.030369 -7.4549417
-7.3485518 29.464766 -15.557946
10.253222 27.52046 -19.922388
9.7827158 28.895832 -17.63969
6.9646177 28.987741 -17.495747
-2.8858643 27.99494 -19.174934
16.074722 26.401096 -21.777166
11.695729 25.248075 -23.691801
13.772314 26.946918 -20.87125
5.9371758 29.780567 -16.182228
5.0917716 24.326471 -25.242737
-1.7956419 33.01228 -10.839015
-5.6081605 26.573723 -21.543631
12.381012 30.184668 -15.497478
5.4660482 26.587633 -21.486351
0.86244059 28.265398 -18.714207
3.0330718 33.895954 -9.3565493
3.1540003 32.00795 -12.491685
8.7880745 29.281214 -17.002735
10.936789 24.774414 -24.480776
-0.8937993 28.1397 -18.928383
-6.4802289 27.574476 -19.88431
0.92836714 25.316065 -23.612112
3.1522026 26.134672 -22.245749
6.5632753 33.465332 -10.060814
0.26449347 35.15839 -7.2684999
1.8804541 27.95332 -19.229345
-0.35522032 25.370655 -23.525412
12.504956 33.764687 -9.5556231
-0.048993111 26.866028 -21.041025
19.219139 28.735741 -17.902359
-4.5896912 32.130268 -11.087442
7.4767666 27.94573 -19.224686
5.4796548 35.564899 -6.5772991
12.214897 32.782249 -11.1862
1.1413636 34.070087 -9.0731955
-5.8958793 31.251543 -8.8331604
8.9284325 29.032221 -17.41581
2.1032262 30.221184 -15.462299
7.1187477 34.973541 -7.5543346
13.359289 25.596958 -23.111818
4.6713872 24.531631 -24.903313
-2.8790579 27.257053 -20.400358
17.093765 26.192305 -22.123707
8.4270229 33.269882 -10.37966
11.732018 31.481918 -13.344396
-2.6687813 31.24321 -13.779696
-8.4673662 28.763535 -16.405029
-1.741991 34.262871 -8.046773
-1.0428529 34.279102 -8.6794748
-6.9494257 27.080627 -20.705919
-2.570838 27.366009 -20.218464
0.69084644 30.120501 -15.633871
16.364172 27.459415 -20.020645
19.712715 28.793129 -17.807142
7.9127502 25.893227 -22.632038
7.9730043 26.249859 -22.039577
5.4693732 26.672083 -21.34609
-5.3999629 28.188038 -18.862009
4.7380438 34.682987 -8.0442247
14.842516 31.623714 -13.109051
8.7301865 35.344673 -6.9332814
15.765068 28.791269 -17.810133
-7.2169247 29.793484 -14.831998
8.9320812 34.535988 -8.2754765
-2.4848223 32.627319 -11.480468
18.74963 29.186184 -17.154747
2.0093284 35.77882 -6.2327375
20.894512 26.869808 -20.999298
10.399585 25.828501 -22.731857
-3.2871747 31.673912 -13.066316
2.1455894 26.108774 -22.291866
9.8663054 27.567415 -19.845602
3.0383339 27.350689 -20.226593
-3.1453266 31.271669 -13.733898
13.333529 31.748072 -12.902658
8.6179276 28.793728 -17.812851
8.9045315 26.200146 -22.119261
-3.1537642 31.772175 -12.902713
16.748032 29.598257 -16.470757
-0.68905354 34.656261 -8.0033922
0.98132372 24.885239 -24.32745
16.612202 26.77783 -21.151892
-2.5385299 32.978573 -10.735929
13.008778 30.396929 -15.14518
14.441944 31.34111 -13.578097
2.9068122 26.650751 -21.389425
7.1881118 27.646177 -19.723061
3.6411901 27.643536 -19.738386
-1.2992773 28.982166 -17.530504
6.4031076 25.393845 -23.466043
2.2012444 23.86021 -26.025997
15.355526 26.386324 -21.801685
5.5632553 34.395771 -8.5186758
-1.8868999 32.318306 -11.991814
4.7581239 28.45112 -18.393745
-2.9307752 33.412796 -9.2138786
1.8924747 24.845985 -24.389824
2.6684642 35.918453 -5.9987993
-9.6399794 27.473484 -18.704803
-0.4044199 25.493046 -23.322304
10.851235 34.44521 -8.4261417
17.790018 28.464701 -18.352152
10.401162 27.941753 -19.222267
-1.4706907 29.248215 -17.089188
14.242451 31.065287 -14.035891
13.02821 25.165117 -23.82855
1.8685999 33.376347 -10.223084
6.9520755 28.618658 -18.108736
-2.4943299 31.256979 -13.756289
16.821341 25.988243 -22.462391
8.1308813 36.56081 -4.9151492
3.3046818 24.578114 -24.830334
0.0040421486 23.988853 -25.819134
7.3193188 34.995182 -7.5177822
8.8052359 25.807474 -22.7717
3.8100393 32.74715 -11.262028
-4.6071825 32.429508 -10.177974
-6.8386517 29.052624 -17.15807
8.1712503 35.212788 -7.1537638
9.1807976 26.948347 -20.875835
-0.94646215 33.821182 -9.4930105
2.9427438 32.802746 -11.172375
13.951466 32.050255 -12.401113
0.99893284 31.37649 -13.547033
11.2057 31.48678 -13.336325
13.477945 29.751865 -16.215809
-4.6414385 27.451244 -20.083294
-5.487205 26.583763 -21.526577
1.9993491 32.728416 -11.298735
14.96957 28.935642 -17.570515
-5.1499634 29.099062 -17.348251
10.640814 33.414162 -10.137398
-8.459322 28.176207 -17.933069
-0.51991653 29.579912 -16.535391
1.9748626 27.031727 -20.759594
9.6251802 25.587776 -23.134031
11.726495 33.27964 -10.360668
6.8013382 25.259369 -23.688148
-0.48045492 25.382875 -23.505501
5.3607264 24.806749 -24.444284
-6.184967 27.971376 -19.224253
11.571174 27.861567 -19.353188
18.079054 26.245708 -22.035069
-5.3515301 29.582756 -16.545574
6.5361924 33.663223 -9.7322454
15.625153 26.968988 -20.834623
11.894852 27.798054 -19.458597
1.1770349 33.050644 -10.766126
1.6035924 23.09742 -27.294651
-3.0005751 29.124422 -17.2995
7.8196497 34.747162 -7.9281378
4.7298832 29.66684 -16.374828
13.630756 27.247143 -20.372965
6.8737173 27.986843 -19.15827
-3.2098174 33.193569 -9.537921
0.21979952 32.665741 -11.40831
19.8617 27.081944 -20.64716
-4.7584472 26.02438 -22.453329
6.8130388 26.963507 -20.857965
4.1752419 29.878983 -16.024223
-2.1593523 33.012379 -10.839972
-5.0118313 28.96595 -17.568888
2.974556 25.940992 -22.567947
-0.60891962 28.141161 -18.925072
-6.160244 27.236544 -20.44455
-4.2523499 32.753853 -8.2544889
10.02286 30.984898 -14.169525
7.8828135 26.413601 -21.767918
14.505756 31.065105 -14.036188
5.031579 32.255997 -12.073944
19.32889 29.214363 -17.108015
17.011311 28.992786 -17.47567
0.69889307 28.807722 -17.814043
0.95522833 24.277996 -25.336002
7.2054758 36.904041 -4.3479924
5.5709457 32.661743 -11.398438
5.1237431 34.991207 -7.5311518
2.3782663 28.57177 -18.20072
12.257056 33.461819 -10.0583
1.2680616 29.671127 -16.378386
19.759861 26.821934 -21.078695
-7.6532288 28.717495 -17.260172
15.510201 28.009029 -19.108437
7.9314003 27.528368 -19.916416
3.3031287 23.977957 -25.827049
13.076658 29.271582 -17.012945
-8.1013412 27.193241 -20.522455
6.0727434 30.47168 -15.034044
20.156563 27.192413 -20.463837
7.8973193 25.560591 -23.184513
-1.9890685 31.527222 -13.305923
19.347288 28.694313 -17.971119
14.671494 29.65822 -16.371231
10.975893 34.179604 -8.8669701
-2.1679721 29.334465 -16.948101
3.8395519 25.420986 -23.428879
-0.26457834 24.309278 -25.287819
0.67373276 34.55143 -8.2752476
3.5153041 30.816431 -14.469386
2.6753886 33.522358 -9.9781046
-4.9954348 31.267149 -12.954956
16.297071 27.925955 -19.246319
-7.5075588 26.893255 -21.01882
4.9205647 29.957012 -15.892338
4.3729887 31.20046 -13.828965
-4.3723087 31.673285 -12.468319
4.8174424 33.895588 -9.3516464
13.53814 32.244545 -12.078648
-6.2734561 29.58466 -16.270262
14.373849 31.097881 -13.981791
1.8217812 32.625084 -11.470889
14.456963 29.223656 -17.092491
19.38838 28.89967 -17.630308
17.865984 29.213013 -17.110165
14.157898 25.88526 -22.633318
-1.4132028 30.820604 -14.477665
11.251451 28.254158 -18.701599
9.9014854 33.448265 -10.080796
0.41243458 29.950787 -15.91658
-5.0888867 31.989195 -10.068314
12.554058 29.967199 -15.858411
1.2221179 25.485296 -23.330154
13.824479 32.518353 -11.624199
-6.6719828 27.308533 -20.326572
4.4308677 34.747108 -7.9386806
0.20436859 27.827591 -19.443325
-8.2784672 28.237595 -17.945911
5.4457006 35.720818 -6.3184547
15.475235 29.509291 -16.618418
-1.7035751 28.288488 -18.683773
5.6099572 27.992241 -19.1532
-0.50036049 29.01786 -17.468754
3.4547501 31.951199 -12.585007
8.2893753 34.486301 -8.35991
11.916582 33.846149 -9.4204197
0.11538839 30.216536 -15.476158
18.785189 27.36861 -20.171356
-0.32991648 30.269711 -15.38922
5.7586098 32.766342 -11.224142
-2.2186079 26.754509 -21.232925
14.754744 31.763327 -12.877336
4.3621249 29.230696 -17.100285
3.6030269 23.54878 -26.538879
19.098793 27.779449 -19.489485
8.9170513 24.761715 -24.508102
-2.3311248 25.125246 -23.939077
2.6926751 25.823608 -22.763763
11.337358 25.911678 -22.590832
10.470073 34.587467 -8.1900368
9.1523199 28.89925 -17.635958
15.925893 29.314615 -16.941525
21.126204 26.801249 -21.113096
1.4993682 24.766882 -24.522409
5.1093631 32.213024 -12.145075
4.6598253 28.457508 -18.383442
13.453389 27.718521 -19.590601
-4.2361774 27.358725 -20.235701
9.0741491 27.22097 -20.423403
14.644802 27.189909 -20.467957
4.9167643 35.557049 -6.5920715
-8.1835051 29.16048 -14.758876
9.2912016 32.500526 -11.654692
9.8511963 31.012383 -14.12441
10.593124 28.434242 -18.403776
-3.7052393 33.253948 -8.0373926
-3.7907519 29.131329 -17.290466
-6.410851 30.604652 -13.443485
13.302604 26.310844 -21.926956
0.63934183 33.706959 -9.6778107
-2.6555443 32.420391 -11.824645
8.5038195 29.4944 -16.649563
-3.7290416 33.232197 -8.3816557
-1.2232466 34.341408 -8.3296881
-1.8928242 31.128302 -13.968134
6.3059382 31.200817 -13.822412
-3.8237867 31.562046 -13.253749
8.2012005 28.010921 -19.114185
-0.37069321 26.998386 -20.822201
4.1533999 25.428215 -23.415909
4.0914254 24.807323 -24.447245
10.901449 30.872101 -14.356527
1.24051 26.547073 -21.56675
12.682758 30.452526 -15.052906
5.7022285 31.490324 -13.34347
-0.52606344 34.751949 -7.9048615
10.547802 27.730902 -19.571981
1.2746706 35.022617 -7.4908643
11.466529 27.141436 -20.548405
2.8336535 35.690445 -6.3769574
1.869493 28.835463 -17.764359
-6.1839805 29.498287 -16.59506
9.781888 24.51366 -24.917389
3.6339993 28.642952 -18.078634
15.091252 28.458759 -18.362011
1.7618599 33.514442 -9.9940701
1.2194881 27.751163 -19.567116
-1.3860278 28.616501 -18.13805
2.2908015 26.741953 -21.239862
-6.8515515 30.377985 -11.945554
11.032065 31.79635 -12.822527
11.60283 27.116972 -20.58901
-5.7268705 29.597942 -16.521509
-0.35889769 24.832275 -24.41954
7.0439453 25.767448 -22.843609
0.69012737 24.360214 -25.200277
6.1641374 23.79155 -26.127802
2.4325111 35.890015 -6.0467563
-5.8354893 31.306746 -9.8920059
-7.4197435 28.47084 -18.165724
-0.66292906 34.031464 -9.1429024
3.5885005 26.953682 -20.884228
4.0968513 26.913855 -20.948803
0.9084425 28.321644 -18.620653
5.6035328 32.259022 -12.067149
3.0653214 23.260456 -27.019375
-0.89008474 28.738014 -17.934711
-7.0572143 27.760603 -19.576977
-7.7277856 29.138424 -16.070568
10.973904 26.214361 -22.089273
-1.2451334 29.067019 -17.389416
-1.784174 29.74225 -16.269684
-0.16085291 23.175976 -27.169628
7.9803233 35.698868 -6.347085
20.023693 28.130482 -18.906939
-0.36486769 25.981712 -22.510628
10.901774 34.256947 -8.7386055
-3.2315874 29.919716 -15.979427
11.727667 31.455881 -13.387613
10.772211 28.998188 -17.466709
0.46179867 29.773996 -16.210035
4.9855042 33.012077 -10.818424
-1.23245 30.720098 -14.644017
-3.0920172 32.645237 -11.093406
-0.0045437813 28.065378 -19.049065
18.43104 28.196945 -18.796551
16.544165 28.288786 -18.644121
1.9420102 35.363243 -6.9231195
11.320222 24.832647 -24.382885
11.417233 33.737461 -9.6008158
2.6692324 28.156654 -18.889227
2.4481614 33.843731 -9.4450855
-2.9925697 33.754112 -8.2939968
2.4115102 32.945374 -10.937141
16.268299 31.144289 -13.904782
3.3312745 33.993557 -9.1935358
0.37988138 35.224663 -7.1580844
7.0935698 31.76969 -12.875218
11.776934 27.898594 -19.291731
6.0504541 34.37085 -8.5585518
16.577858 30.787205 -14.497444
-4.9195695 30.299076 -15.35461
4.8608131 27.467747 -20.026566
15.33332 31.150938 -13.893735
6.025794 33.479023 -10.039735
2.2090664 25.596844 -23.141857
10.826674 31.954708 -12.559696
3.5024905 26.560085 -21.538158
-1.2479558 24.688492 -24.661074
-2.017446 24.351898 -25.222443
10.828967 29.502075 -16.63039
0.66901064 30.408421 -15.155771
6.375917 33.256245 -10.408633
-1.685461 31.712593 -12.997134
-0.53351593 24.073122 -25.680841
-4.0951643 26.971716 -20.877985
-5.7280445 31.404957 -9.7740669
11.862692 25.423685 -23.399643
7.2185035 35.873253 -6.0598421
-4.2147913 27.513025 -19.97938
2.8745346 27.299412 -20.312262
-5.0686722 32.007675 -10.082889
-0.61816978 30.500725 -15.00645
6.6471195 31.343592 -13.584244
20.528769 26.760548 -21.180611
14.564213 30.418327 -15.109666
3.5134256 31.332836 -13.611771
7.4925728 33.182014 -10.528467
10.045692 31.69091 -12.997526
4.8805366 32.234535 -12.110058
6.8356433 33.571377 -9.8838568
-1.0002441 28.582645 -18.193083
4.031846 24.793638 -24.470158
14.496524 31.378355 -13.516287
-3.0592399 29.96603 -15.90198
-2.2640333 29.109867 -17.321396
-1.8447475 28.775604 -17.875231
6.990869 32.802612 -11.16011
-2.3003335 29.814648 -16.151043
7.8300695 26.899738 -20.96073
11.303347 24.844948 -24.362507
18.656155 26.987598 -20.803734
4.2606063 23.822762 -26.081841
1.9249606 32.148376 -12.262266
12.356108 30.048489 -15.723494
5.7972627 34.365005 -8.569047
-1.9613633 32.752754 -11.270535
-4.8301392 30.462412 -15.083077
