# .PCD v0.7 - Point Cloud Data file format
VERSION 0.7
FIELDS x y z
SIZE 4 4 4
TYPE F F F
COUNT 1 1 1
WIDTH 1611
HEIGHT 1
VIEWPOINT 0 0 0 1 0 0 0
POINTS 1611
DATA ascii
31.309643 36.755474 14.207247
41.705433 36.831081 13.622431
32.62299 30.778105 24.188684
24.093979 27.154133 30.240801
22.902613 30.313839 24.964537
27.442448 26.48233 31.362421
24.675983 28.070948 28.709789
28.544352 29.256077 26.730526
41.237881 37.094288 13.394447
39.330994 30.506012 24.643057
21.185923 32.195961 21.821722
23.792953 33.022026 20.442135
25.53809 32.632484 21.092508
29.972828 32.799767 20.812891
30.69672 34.013557 18.785961
27.430019 38.89621 10.632711
20.38003 37.623096 12.759104
39.582279 39.005409 9.9985237
38.750248 35.032558 17.084141
33.36491 40.650379 7.7030926
36.65213 37.683567 12.657198
27.045322 28.001696 28.825287
30.655828 40.760471 7.5194168
30.000393 31.458916 23.05196
28.761864 31.48526 23.008039
31.19183 37.093632 13.642572
45.557182 29.256866 26.729019
33.420311 27.610191 29.478811
45.294357 30.084188 25.347462
41.999447 36.276802 14.79351
36.640633 41.277069 6.6563816
40.776447 35.837341 15.740231
28.607166 31.889437 22.333124
26.12916 34.321362 18.272247
30.622952 26.856455 30.73748
39.247581 32.891571 20.659393
33.589535 36.041695 15.399033
44.579887 30.412683 24.798904
38.329372 38.014099 12.105247
25.777294 37.854828 12.371801
43.264271 35.588398 15.347607
32.826832 36.147533 15.222347
20.385357 32.718399 20.949366
42.772263 33.667576 19.363537
21.001438 38.223537 11.756401
21.032537 34.24498 18.400116
40.187435 29.352497 26.569324
31.07896 29.020519 27.123724
35.774723 40.55698 7.8589025
34.214882 41.418739 6.0452476
34.021656 37.856815 12.367964
42.342262 29.712811 25.967632
30.969843 33.445572 19.734409
30.295788 31.947697 22.235729
24.735298 32.204807 21.80673
33.378567 41.325577 6.5755897
29.673777 28.724815 27.617599
28.719429 30.58452 24.512167
42.828438 36.500778 13.371143
33.871632 36.284855 14.992964
35.778809 39.241692 10.055277
30.485428 32.918285 20.614948
31.410309 29.038778 27.093208
42.321995 33.572128 19.522926
40.114902 35.212055 16.784397
35.944283 36.026485 15.42437
22.245869 36.226398 15.091306
24.106449 27.372892 29.875492
21.847775 38.008255 12.115845
35.71944 31.665146 22.707417
36.192425 30.650354 24.40202
31.20339 36.086342 15.324626
24.196678 34.768669 17.525417
25.01947 29.273014 26.702465
30.338505 30.815741 24.125957
21.912916 27.290356 30.013458
36.420807 36.593998 14.476679
31.150816 39.721424 9.2544765
40.825134 32.6068 21.134937
35.30854 36.867641 14.019713
33.259048 40.294704 8.2970295
26.992157 31.554104 22.893188
32.903587 29.597925 26.159479
40.72831 37.493195 12.849712
27.999962 35.467667 16.357939
20.620228 33.066128 20.368687
21.693113 27.557896 29.56671
37.596424 34.779114 17.507366
40.059978 37.333492 13.241786
26.327652 29.920982 25.620346
43.770668 30.484472 24.679024
36.746803 32.729633 20.92981
35.469429 29.242828 26.75246
32.326576 34.968746 17.190811
22.01556 33.475388 19.685184
23.856012 39.427933 9.7450266
39.874905 34.04356 18.735672
34.161949 33.385113 19.835218
37.364502 40.638065 7.7234592
44.673252 30.407194 24.808075
42.207344 30.068504 25.373657
34.686462 28.047947 28.747801
29.985931 39.454353 9.7005196
30.005402 35.928162 15.58884
39.585098 34.853954 17.382389
20.874313 32.191811 21.828674
31.450159 28.723631 27.619469
42.92963 36.674786 12.146997
39.385551 38.655659 11.033895
27.709179 31.237869 23.421221
21.61076 35.082558 17.001421
32.664845 32.336571 21.586208
30.813211 34.29282 18.319622
40.450176 27.383795 29.856873
33.614574 27.650175 29.412041
23.209192 33.519569 19.611332
43.334034 35.694817 14.996288
28.067291 39.585743 9.4812355
32.803974 28.958933 27.226534
24.932146 39.13385 10.236036
34.388123 35.940281 15.568325
24.402744 31.978262 22.185059
20.681656 31.300831 23.316521
43.503521 35.726624 14.742395
21.770321 32.938408 20.58189
25.705898 29.86599 25.712225
30.108669 28.198818 28.495926
21.380558 31.174809 23.526917
21.030716 34.349113 18.226229
33.315598 29.005432 27.148893
32.976326 29.673496 26.033278
20.50581 34.482822 18.002979
23.503019 33.332809 19.923178
22.165092 31.976391 22.18832
27.519707 36.23629 15.07446
22.118805 27.057146 30.402878
32.601456 31.683186 22.677288
40.447205 32.459782 21.380442
25.65077 36.491413 14.648543
20.556229 32.469677 21.364695
27.468149 32.308765 21.632965
29.376654 27.851162 29.076511
29.449682 39.46476 9.6831799
23.424942 39.365837 9.8487434
24.822184 31.066872 23.706942
21.079103 32.351345 21.562256
26.594921 28.088619 28.680161
38.669861 39.543472 9.4892511
21.224518 36.149471 15.21983
28.362473 28.405426 28.151022
20.956371 33.156147 20.218346
40.461037 27.005091 30.489277
38.530991 40.563007 6.9320884
26.695826 38.311039 11.609924
41.908695 30.145702 25.24474
24.697392 33.2379 20.081585
29.460854 29.415596 26.464092
29.159517 33.820068 19.109159
33.51532 39.649536 9.3743649
33.709187 36.43679 14.73926
36.116676 33.919395 18.94302
22.034389 27.140022 30.264492
39.848457 35.776146 15.842417
28.168829 37.796024 12.469845
22.75161 31.277174 23.355888
39.561424 31.842815 22.410717
25.987705 38.907799 10.613447
26.36824 31.524717 22.942301
27.919724 37.350521 13.213799
35.200893 33.416187 19.783337
37.487774 28.590439 27.841888
31.64291 35.314461 16.61355
21.535812 28.702053 27.65612
38.783173 35.891453 15.64987
24.161724 39.288898 9.9771729
36.063583 33.160313 20.210623
32.518017 30.088963 25.339495
32.069244 35.847897 15.722749
44.695915 28.254074 28.403587
19.413942 38.068398 12.015564
33.366913 41.401134 6.4494228
35.504997 27.398045 29.833076
26.945719 35.491295 16.318548
26.288361 30.085054 25.346371
30.401436 31.458733 23.052233
24.276655 33.990082 18.825565
31.119946 39.069511 10.343092
22.571114 34.471104 18.022419
21.833689 29.285124 26.682438
31.889269 32.473087 21.35829
44.709023 28.98983 27.174938
22.239248 27.924099 28.955164
42.372395 28.930431 27.274132
29.783611 31.462595 23.045822
30.609308 34.613506 17.784121
40.290829 33.318172 19.94701
43.932411 31.825285 22.439995
38.85577 29.591665 26.169933
26.183224 35.931801 15.583002
20.411827 32.281139 21.679533
26.489616 34.214508 18.450655
28.412045 39.507458 9.6119413
40.657143 37.568333 12.722287
36.907143 36.274952 15.009454
37.015015 36.29261 14.979977
37.328091 29.622051 26.119192
45.577408 29.840939 25.753666
43.726494 35.010529 16.412956
29.854321 26.662945 31.060665
25.322515 28.675135 27.700832
31.184422 34.065796 18.698696
31.008137 38.53669 11.232845
34.384583 38.406937 11.449306
36.962856 32.501282 21.311142
36.13924 30.30505 24.978642
42.282623 29.617283 26.127155
33.55048 32.929092 20.596739
20.960083 37.260468 13.364614
36.494797 40.212406 8.4342785
31.227613 41.234631 6.7275963
32.434822 38.426834 11.416198
33.158611 27.199562 30.164522
37.039322 29.835175 25.763294
43.279045 30.865944 24.042004
36.116295 38.537811 11.23069
20.745987 36.36248 14.86416
35.198948 37.709141 12.614494
25.870565 30.06024 25.387835
30.210598 33.622005 19.439838
31.744555 39.304581 9.9505138
41.704689 27.393429 29.840786
35.104729 35.352322 16.550167
37.672977 38.297195 11.632499
35.659302 39.337677 9.8950005
28.283043 39.124378 10.251645
36.098068 37.528873 12.915516
41.910679 27.399769 29.830194
42.403423 28.462484 28.055557
39.506599 34.473751 18.017302
25.977669 35.744095 15.896466
40.447662 35.70726 15.957447
36.093876 41.218296 6.7545624
34.254356 36.162807 15.196745
40.49939 38.135006 11.38192
32.499664 41.419361 6.2351656
30.793736 31.06303 23.712982
34.779209 32.529282 21.264383
44.6791 29.717091 25.960485
38.482605 30.278872 25.022362
39.863991 36.560207 14.533106
36.344856 34.889622 17.32283
38.128883 38.322784 11.589763
36.127148 37.583942 12.823563
29.237904 29.959515 25.555822
43.924156 35.4786 14.977022
31.078865 35.472866 16.34906
28.040964 33.347244 19.898792
30.741055 39.172153 10.171717
38.359642 31.133326 23.595501
25.286209 29.608534 26.142166
31.780834 26.928787 30.616695
28.224476 35.91391 15.612753
32.007545 37.599262 12.798175
37.914047 32.404758 21.472321
32.179886 40.766762 7.5088172
32.66172 31.35545 23.224573
38.857841 27.859234 29.062935
20.693287 30.746502 24.242184
38.53038 39.767105 9.0376568
21.168346 34.550789 17.889442
28.184849 37.509933 12.947577
22.875589 33.232418 20.090855
26.315006 31.948111 22.235283
33.701908 39.140663 10.224112
23.609112 30.294369 24.997009
41.907322 29.214476 26.799805
42.930511 35.052509 17.050819
27.05261 31.167334 23.539043
36.424168 39.783768 9.1500511
27.163187 40.35593 8.1951694
38.944805 31.273262 23.36182
28.009817 33.567627 19.530777
20.460827 35.566238 16.193808
36.046654 28.125017 28.619101
30.867632 35.746738 15.891747
29.73814 29.020145 27.124432
36.909706 29.956501 25.560692
23.380428 32.251553 21.728758
20.923532 35.16766 16.859356
44.300133 33.827847 18.965446
25.997894 30.811367 24.133535
41.099808 32.253742 21.724508
29.901121 35.090813 16.987125
28.911102 30.11293 25.299658
36.802639 35.44458 16.396099
30.554825 39.346767 9.8801384
36.851688 39.699146 9.2913589
40.278587 28.389818 28.176907
32.607975 38.768223 10.846113
30.917412 38.570297 11.176735
23.664564 33.221939 20.108316
35.124596 41.41914 5.5340877
38.717072 39.484253 9.5985527
37.174267 32.484924 21.338455
27.317553 37.515499 12.938348
30.059536 36.337502 14.905291
26.452759 33.007023 20.467022
42.840073 32.533672 21.25705
43.87233 27.560005 29.562618
28.330196 36.544922 14.559034
20.666004 36.093174 15.313875
39.381222 30.827026 24.106991
20.516869 36.705589 14.291222
40.483452 33.749111 19.227375
38.756134 30.464203 24.712872
35.338135 30.918062 23.954967
26.530975 37.161217 13.530001
28.261524 34.398029 18.144091
36.838615 36.721058 14.264501
39.28548 36.339409 14.901819
41.109104 27.769535 29.212725
21.732573 31.482328 23.013372
27.96611 29.172806 26.869612
24.852718 31.411385 23.131649
26.84203 31.419363 23.118198
23.817493 26.412621 31.479053
31.224951 27.848034 29.081636
24.246964 26.904655 30.657387
44.474823 29.931057 25.60318
21.347624 37.248524 13.384533
37.387856 37.167324 13.519271
27.106771 29.665176 26.047466
38.716789 33.461109 19.708321
35.534378 35.197956 16.80794
26.325872 30.326313 24.943495
38.230083 37.689899 12.646629
43.673107 27.444897 29.754837
39.631508 27.360531 29.895721
26.292667 26.614799 31.141287
36.795643 38.301231 11.625752
39.286125 31.447525 23.070814
30.027504 35.066677 17.027418
29.03941 32.766495 20.868511
34.908302 30.053349 25.398968
23.982063 28.740961 27.590996
30.751585 30.284361 25.013277
37.406078 39.283741 9.9850607
24.106998 31.485588 23.007782
38.033051 38.588188 11.14656
39.593903 34.243065 18.402525
33.031101 33.20686 20.132906
32.88224 38.039066 12.063702
37.616791 32.458176 21.383131
25.36924 36.207134 15.123282
32.900959 35.949856 15.552431
23.367496 33.015488 20.453074
23.772436 36.372292 14.847586
35.976028 41.290127 6.6346273
27.387859 29.567091 26.211239
25.775497 37.916306 12.269138
36.558113 27.791677 29.175747
27.91148 35.172245 16.851261
38.878529 28.406933 28.148325
45.349838 29.105415 26.98193
40.320061 32.317711 21.617687
29.297029 29.248194 26.743639
36.607101 27.105518 30.321571
23.319628 39.464432 9.6841087
30.514219 28.829842 27.44216
40.621101 32.403633 21.474209
30.210716 39.475288 9.6655483
22.226929 33.343197 19.90591
41.453411 37.823296 11.250698
44.856453 28.367985 28.21336
38.12746 31.454485 23.059195
43.053406 27.366028 29.886541
24.59407 28.731039 27.607515
33.266068 34.144257 18.567543
40.631962 36.167191 15.189409
28.515862 29.194414 26.8335
21.339466 39.083443 10.320438
37.211685 35.48505 16.32852
25.226955 39.002571 10.455237
29.020218 27.688152 29.348743
29.324444 27.86673 29.050522
25.858002 31.441137 23.0819
35.402878 27.603319 29.49029
28.904808 26.668936 31.05072
35.297539 32.737881 20.91604
36.205456 31.05114 23.732738
40.531162 27.458096 29.732798
28.738752 36.773556 14.177214
20.906717 33.108383 20.298107
37.099014 27.138151 30.267073
35.724937 30.688158 24.338888
31.322832 36.882229 13.995582
27.002451 29.563927 26.216547
36.60902 37.648399 12.715929
23.9196 37.253502 13.376057
37.761524 31.748632 22.567997
42.169106 33.00687 20.466854
26.762777 39.267506 10.012736
27.79347 33.309376 19.962042
41.91724 31.022488 23.780594
29.470972 31.70245 22.645311
23.112688 37.303631 13.292399
29.920708 34.444321 18.06669
35.667061 37.885509 12.319973
22.311272 34.220898 18.44025
32.815468 41.419456 6.2833562
25.461632 29.981585 25.519205
22.977882 39.433899 9.735117
34.723545 40.472301 8.00037
22.581068 31.059149 23.719978
41.23288 37.886475 11.304503
34.318913 33.865448 19.033108
25.690395 38.309734 11.612167
34.521423 31.957443 22.219299
22.5343 29.717075 25.961088
30.480438 26.744949 30.923687
25.515089 30.010487 25.470942
44.171356 34.813782 16.487707
27.42906 28.842567 27.421104
29.67268 40.751102 7.5351181
39.329704 38.091587 11.975846
27.25252 31.08503 23.67647
40.241844 39.362392 8.2963963
30.243803 27.033363 30.442089
36.57526 41.419235 6.0015574
33.392239 36.63274 14.412072
24.915886 32.446537 21.403063
33.288219 37.097683 13.635679
31.052055 41.266628 6.6741648
27.609371 29.739784 25.922848
39.795055 31.102634 23.646751
21.235168 34.208912 18.460337
33.049889 31.121151 23.615837
43.836487 30.19264 25.166363
34.589626 37.179195 13.499477
22.605412 34.706177 17.629871
32.464764 28.985895 27.181511
36.936131 35.050064 17.054907
37.278831 40.710865 7.6018996
35.628269 31.384182 23.176598
36.092728 38.177094 11.833057
45.174404 31.409081 23.135015
43.661118 34.430431 18.011822
28.573557 36.806801 14.121708
37.339863 30.079845 25.354721
23.075262 35.364471 16.530575
21.641182 36.068966 15.354234
41.868263 37.303577 12.2097
35.495483 31.063801 23.711605
30.714081 26.693741 31.009201
31.5256 39.789875 9.1401453
37.336952 30.203985 25.147415
37.105896 40.048374 8.70819
45.847542 28.589239 27.843889
27.855818 36.844509 14.058784
42.041626 30.124575 25.280022
22.705877 29.519169 26.291557
35.79813 30.291195 25.001785
37.926266 40.452152 7.8309836
44.660698 28.572365 27.872068
39.049435 39.703083 8.687067
35.919579 30.550955 24.568003
42.634998 36.596664 13.311302
45.713394 28.506901 27.981388
34.541245 39.601189 9.4550438
33.824757 40.030743 8.7377768
29.52203 33.43095 19.758917
22.008362 35.251972 16.718494
21.107016 32.274956 21.689819
20.335594 38.724194 10.920403
30.03364 35.641167 16.06809
42.265556 29.998745 25.490147
36.805737 34.493713 17.983963
31.397999 38.561699 11.191061
40.808338 28.187214 28.51524
27.659769 29.770649 25.871307
44.55703 28.540253 27.925697
37.618839 33.088711 20.330191
33.723331 26.936426 30.603937
36.797947 34.438301 18.076492
36.339306 39.892143 8.96908
24.629379 27.095013 30.339485
35.91153 29.193493 26.834845
42.578102 30.568604 24.538532
26.368294 38.790092 10.809984
29.689186 34.772278 17.519051
21.205795 36.522316 14.597218
33.875912 37.13475 13.573746
29.115976 31.149406 23.568855
26.196222 29.678459 26.025341
21.67392 34.101662 18.6394
42.337254 37.26712 10.531485
21.888693 26.648867 31.084671
21.819336 28.059505 28.729082
26.011566 27.297935 30.000547
28.217779 37.763748 12.523743
29.992994 38.736298 10.899592
29.879425 34.904217 17.298721
44.598217 27.680164 29.361958
38.739738 33.366299 19.866644
33.045986 41.279381 6.65275
36.721355 40.955303 7.1936994
32.502655 33.360428 19.876499
40.451176 34.303078 18.302303
39.029091 39.47591 9.3082638
21.506872 34.53558 17.914822
36.760708 35.271549 16.685045
22.810621 28.618492 27.795574
38.032799 35.376694 16.509466
31.041735 41.309845 6.6020117
36.999706 29.096918 26.996113
32.997391 35.425766 16.427599
34.979378 34.678677 17.675091
28.463657 36.931614 13.913294
23.190849 32.982456 20.508251
29.452421 28.284668 28.352604
28.684052 36.953499 13.87673
34.889252 32.045639 22.07202
39.098476 37.882637 12.324771
39.607418 34.00581 18.798714
22.709961 31.761181 22.547667
35.52663 40.637604 7.7242856
23.219795 27.737263 29.267097
35.654457 27.651995 29.409002
24.242935 34.448597 18.059902
24.692474 30.136482 25.26059
34.135853 41.418793 5.8867288
45.676945 29.871578 25.702503
24.385742 31.627716 22.770428
30.79789 37.226562 13.420615
28.846096 28.122593 28.623291
42.433525 27.828773 29.1138
28.402645 33.81929 19.110512
41.418186 35.665188 16.027704
38.150757 30.988493 23.837358
27.381802 36.718056 14.269972
33.723602 35.668598 16.022047
29.907604 38.777828 10.830245
25.457214 28.791645 27.506262
25.788223 31.074961 23.693375
29.920916 35.212921 16.783216
30.571766 27.994236 28.837523
35.76445 36.571503 14.51425
44.276688 29.948204 25.574545
24.003069 39.155144 10.200544
36.166702 34.41058 18.122789
37.618126 33.545063 19.568123
42.090199 29.601372 26.153725
31.222202 33.265923 20.034393
20.34281 38.807549 10.781202
25.889254 35.654202 16.046577
37.336296 29.464823 26.381744
28.385246 36.296253 14.97427
33.856018 39.445679 9.7147627
40.540882 39.06337 8.42307
33.751431 29.013714 27.135057
30.367338 32.605145 21.137867
29.099194 39.698601 9.2927074
21.379002 35.496582 16.310066
40.132988 27.317825 29.967033
43.12569 35.803108 14.918566
40.770149 30.578098 24.52268
36.277031 40.972511 7.1649847
27.848976 39.111847 10.272597
35.05003 35.229004 16.75609
25.230175 33.203926 20.13829
37.848217 35.841049 15.734035
24.349388 27.316362 29.969881
33.548504 29.10791 26.977757
26.831871 32.289268 21.665565
40.662514 28.230328 28.443241
26.569321 26.985584 30.5221
41.135735 32.408543 21.466007
30.007322 29.350456 26.572834
36.477581 39.398468 9.7934723
39.011703 34.409222 18.125053
24.922592 33.504223 19.63685
38.854996 32.856293 20.718304
29.159355 36.265339 15.025846
34.141636 30.47019 24.702877
28.854292 36.646515 14.389351
29.626087 38.330101 11.577903
34.755806 41.291759 6.6319714
38.472294 31.885368 22.339655
42.693619 30.530518 24.602139
21.028721 30.67289 24.365086
43.414639 36.069916 13.923508
38.655678 39.478092 9.6605034
34.518299 37.561588 12.860935
30.847912 38.959412 10.526958
30.471775 29.524464 26.28223
35.26125 37.544075 12.890136
26.659294 27.932676 28.940563
34.964836 28.22551 28.451288
19.173428 38.679539 10.995039
37.083275 33.074173 20.354458
26.770823 28.072903 28.706394
24.302202 37.456932 13.036334
38.963905 35.647858 16.056648
42.195766 37.4086 10.379786
30.513474 27.309219 29.981422
40.150917 29.809135 25.80678
29.603928 34.938343 17.241743
31.804668 32.23777 21.751247
24.934908 36.437641 14.738392
25.285236 26.89257 30.677502
38.401966 32.622231 21.109171
26.694263 36.104763 15.294144
38.569351 40.349113 7.4593506
24.374645 30.637714 24.423613
33.290382 41.418655 5.8046751
37.748085 33.80151 19.139885
25.690157 39.755539 9.1978474
31.085318 30.899586 23.985907
37.569469 26.87512 30.706312
40.399284 29.39509 26.498192
19.887669 38.539795 11.22835
22.586519 31.110109 23.634882
42.94883 31.402161 23.146576
44.807224 29.917576 25.62569
41.147449 35.927406 15.589828
24.483742 27.607409 29.483856
39.897812 32.497486 21.317482
42.986122 31.773781 22.526001
33.030113 30.359385 24.887913
45.714821 31.628248 22.769026
37.309578 39.446812 9.7127399
38.753746 39.894539 8.4768991
31.137047 34.339531 18.241592
31.485582 38.693985 10.970154
42.576149 27.292706 30.008984
45.392792 32.044586 22.073776
44.007454 28.870472 27.374256
41.647739 32.570808 21.195038
44.091713 32.562111 21.20956
28.324984 35.47514 16.345446
40.917507 34.024639 18.767267
38.952675 27.888866 29.013447
31.881592 31.250042 23.400631
35.794044 39.524715 9.5826588
29.289185 32.841591 20.743095
40.714176 36.884682 13.991262
34.952862 33.790997 19.157438
35.966866 27.596252 29.502085
35.161957 31.14934 23.56876
31.131569 27.228241 30.116631
36.587795 36.455143 14.708553
20.815531 34.321968 18.271566
24.880089 33.4244 19.770149
30.856407 34.769405 17.523773
31.872744 29.070305 27.040554
21.357525 35.821838 15.766932
34.941975 34.892078 17.318724
42.033077 31.661221 22.713964
28.45731 29.602615 26.151854
28.474421 36.6077 14.454185
29.754509 38.635468 11.067972
42.93129 35.300816 16.441208
37.090931 31.051672 23.731859
21.446047 29.355461 26.565014
33.838638 40.040707 8.721138
24.749752 32.478809 21.349182
39.680199 36.612492 14.4458
20.797661 32.422134 21.444069
40.433788 28.438002 28.096447
36.563942 41.404793 6.443109
30.633694 27.21286 30.142324
25.529606 38.05653 12.034994
40.156433 28.714081 27.635418
35.039654 39.727955 9.2433167
34.786381 29.874956 25.696863
27.64015 31.610983 22.798164
38.362816 38.212959 11.77316
42.407402 35.092121 16.984676
37.884323 40.609276 7.457458
43.000431 35.012859 17.117035
39.767811 27.312183 29.976458
38.194809 26.867586 30.718891
23.81632 35.605545 16.127956
24.344547 38.256096 11.701819
27.513527 39.823132 9.0848637
36.025684 35.365723 16.527784
35.02243 28.521202 27.957508
39.51828 32.929642 20.595825
33.668331 34.720676 17.604971
29.990471 39.338284 9.8943367
36.255241 38.734463 10.902305
37.305218 40.454945 8.0292492
24.898975 27.183184 30.192238
37.537537 27.10656 30.319826
29.074503 27.043282 30.425604
29.03021 40.514549 7.9301796
22.798651 36.086403 15.325047
33.321934 36.322674 14.929845
44.462067 32.225437 21.771778
43.944092 27.707329 29.316605
39.145405 29.030506 27.107014
31.552696 29.785141 25.846863
32.995804 39.549297 9.5417843
33.223637 32.952286 20.558006
27.435694 34.394226 18.150486
33.181152 35.097797 16.975256
23.953985 30.604702 24.478767
33.966629 33.527649 19.597202
37.13591 36.912838 13.944254
40.639442 27.705769 29.319206
20.288692 32.822193 20.776049
32.34103 33.690651 19.325073
36.126133 35.442223 16.400047
35.706665 28.097391 28.665237
21.547935 31.218145 23.454538
32.323521 41.036812 7.0578561
27.705688 36.24667 15.057116
20.358017 35.52935 16.255409
39.020176 30.596292 24.492294
31.369267 29.007061 27.146173
21.442446 32.56559 21.204473
23.660219 33.405098 19.802454
34.94508 35.914986 15.610575
35.067482 40.643658 7.7142043
33.041725 39.002464 10.454933
34.204903 34.178787 18.509861
46.24054 28.63994 27.759222
43.128136 36.084213 14.172667
46.288544 29.53479 26.264912
40.939945 27.054947 30.406019
27.117275 29.289839 26.674242
42.262974 34.003574 18.802444
20.27103 32.795273 20.821005
42.182495 30.265045 25.045448
28.388485 29.752762 25.901127
22.591311 37.928246 12.249406
30.982265 35.713287 15.947598
32.661732 30.644949 24.411045
28.966827 37.096653 13.637664
25.517345 27.132343 30.277096
38.77124 39.706402 8.9569426
36.339443 33.35778 19.880865
25.219635 30.705322 24.310665
36.32658 35.958321 15.538206
27.407314 37.972412 12.175346
24.408085 29.828712 25.774546
38.477512 35.757629 15.87334
36.845585 32.393326 21.491413
29.542479 31.152651 23.563408
34.321453 34.932571 17.251114
36.741257 36.128452 15.254099
25.349411 26.925022 30.623308
36.624138 30.781078 24.18372
20.357487 37.491322 12.979149
23.206036 29.058975 27.059998
41.338478 32.543049 21.241394
35.93119 36.761349 14.197221
38.893509 27.797609 29.165836
20.778797 33.420658 19.776646
26.16621 34.316578 18.280237
43.950142 34.888474 16.511742
34.127769 27.856005 29.068325
41.804192 33.858063 19.045446
40.131382 27.841248 29.092968
21.814177 34.764397 17.532701
33.297771 36.899658 13.966358
44.626793 29.896358 25.661125
33.225769 26.715694 30.97254
42.824196 36.215057 14.131058
31.348793 37.38266 13.159921
31.09004 41.357224 6.5228825
35.672699 37.485092 12.988629
36.859463 40.311405 8.2689495
28.500292 37.86314 12.357752
44.682167 33.333488 19.890009
42.51791 37.086479 11.391807
45.626965 28.562931 27.887821
25.589891 36.769764 14.183744
24.625412 30.281189 25.018955
39.866508 36.785175 14.157429
24.179363 29.022247 27.121265
40.120403 30.355026 24.895191
26.735483 31.545034 22.908348
23.075693 35.998428 15.471944
34.453896 27.694912 29.337336
26.334272 29.193815 26.834633
24.141113 26.949272 30.582893
32.314548 34.030807 18.757053
27.356565 32.494942 21.322083
26.253344 34.351772 18.221458
37.482658 39.668152 9.3431253
25.831465 27.195881 30.170973
22.708385 29.345388 26.581753
32.385902 36.386906 14.822647
22.897133 28.407825 28.147354
39.023491 29.426746 26.445335
21.60154 27.509193 29.648045
33.963863 41.342094 6.5479684
40.084934 30.623644 24.446625
35.184452 33.946827 18.897209
44.615295 31.123848 23.611326
34.596016 33.801208 19.140383
26.599411 26.847794 30.752192
29.415455 31.456549 23.055944
32.496681 32.897949 20.648787
28.373213 37.44265 13.059925
35.207764 26.798492 30.83427
32.457531 26.907053 30.652988
24.635025 28.883064 27.353651
42.345184 27.834822 29.103699
30.645775 33.292252 19.990459
30.898813 30.857979 24.055395
22.531738 29.573822 26.2003
33.502972 36.910992 13.947409
41.266037 34.05257 18.720627
38.00721 26.931076 30.612871
40.17593 39.255318 8.7429514
39.244141 28.857033 27.396704
27.965557 33.56871 19.528969
39.823761 28.785376 27.516365
46.445953 29.221252 26.788483
41.280762 27.039379 30.432014
29.151415 39.487709 9.6448755
40.822136 29.604425 26.148624
24.540134 39.593254 9.4689188
36.533722 31.28438 23.343254
37.265488 26.993555 30.508537
45.22155 28.194487 28.503094
35.310562 26.85907 30.733114
22.096508 29.750616 25.905104
21.911507 28.963184 27.220034
41.028889 33.227558 20.098328
31.912712 40.640697 7.7193475
36.482868 30.052069 25.4011
28.395409 33.43985 19.744129
27.293474 40.399853 8.1218176
41.097881 27.906343 28.984264
42.177639 29.085493 27.015194
40.444115 29.279991 26.690399
32.590714 34.082253 18.671133
23.56097 34.662968 17.701973
42.02486 27.047493 30.418465
40.952728 28.789261 27.509878
42.498734 32.761475 20.876637
32.53936 30.275887 25.027348
36.706272 31.315014 23.292101
36.894634 33.534378 19.585966
23.173485 30.319382 24.955269
36.199657 26.92308 30.626225
28.56131 27.143162 30.258844
32.472458 32.974483 20.520981
36.162304 35.239132 16.739183
23.261919 31.738976 22.584707
36.532604 41.27039 6.6675444
32.497128 33.272331 20.023609
34.389484 40.824528 7.41222
33.064289 40.570263 7.8368912
28.556866 37.762928 12.525086
25.314192 37.799343 12.464491
36.044842 27.448299 29.749157
31.779373 29.833134 25.766708
26.966564 27.183926 30.190872
37.602699 29.12822 26.943842
36.421925 30.311066 24.968599
25.602232 35.169022 16.856791
21.523926 38.471851 11.341713
20.22398 32.825825 20.769989
31.506678 27.933477 28.938951
35.005585 37.009743 13.782417
27.281496 39.023544 10.420082
31.925762 41.157299 6.8566794
25.511335 35.27338 16.682533
45.098404 29.47666 26.361984
32.747669 32.954014 20.555145
26.178741 39.286575 9.9809265
30.711378 30.589712 24.503374
22.435389 28.045048 28.753181
29.171511 40.114887 8.5975599
25.439453 38.449089 11.379479
34.259605 32.970486 20.527613
20.653782 36.694176 14.31027
30.90556 31.965162 22.206524
33.895405 35.329937 16.587564
32.746815 29.805367 25.813066
40.598839 34.393337 18.151581
46.469963 28.91457 27.300617
21.720695 32.300144 21.647722
32.143173 27.895748 29.001959
21.562828 34.798508 17.475756
26.60257 31.487341 23.0047
23.980579 39.1777 10.162872
30.870758 30.247658 25.074553
33.932968 34.711269 17.620665
43.785789 32.29229 21.660135
23.874157 37.743649 12.557575
39.225773 38.526134 11.250192
39.850399 29.65513 26.06395
40.820801 37.812935 11.911765
25.824055 36.29995 14.968262
27.819498 29.939064 25.590063
42.173409 31.88419 22.341627
39.496643 30.164417 25.213488
33.755219 26.776403 30.871164
28.754025 27.660522 29.394894
24.346527 26.549129 31.251062
22.949972 31.611979 22.796799
24.080109 31.99094 22.163906
36.915688 30.88298 24.013559
29.712305 33.680042 19.34296
29.389881 39.14616 10.215207
34.04995 27.663101 29.390459
21.912062 37.703854 12.624147
41.051052 32.365479 21.537918
29.29438 40.641369 7.7183876
31.9265 26.965036 30.556162
25.223152 31.057545 23.722492
27.123447 28.414421 28.136078
30.477318 29.560085 26.22275
33.691418 29.549181 26.240883
24.558357 34.811707 17.453527
36.249081 32.95285 20.557062
28.262493 35.365414 16.528675
32.454281 32.393158 21.491726
36.563824 36.928185 13.918619
26.523491 36.679195 14.334921
30.967495 32.282135 21.677216
27.093061 27.900801 28.993767
35.493622 40.593788 7.7974515
38.681335 29.14529 26.915337
37.535194 27.23432 30.106476
23.519684 39.279583 9.9927731
22.324793 27.893278 29.006626
21.070797 36.688194 14.320238
34.668827 30.170174 25.203876
30.54887 39.70697 9.2786541
40.357567 35.8218 15.766182
40.74894 34.516506 17.945904
32.704033 40.045742 8.712801
23.758202 30.658876 24.388315
41.665237 32.515686 21.287083
35.564064 31.982174 22.178003
21.57336 34.681805 17.670637
31.085325 33.507412 19.63114
39.765308 28.656338 27.73184
29.421217 37.630287 12.746532
22.717272 36.252781 15.047219
38.091331 40.310028 8.0415401
35.946983 37.668579 12.682234
24.584778 27.921675 28.959068
40.67878 36.919601 13.932947
30.890221 30.0364 25.427334
24.054016 31.333973 23.260965
41.210365 37.595852 12.095676
26.039238 37.791046 12.478292
39.252384 28.896521 27.330757
34.155666 39.887508 8.976943
40.420921 33.809216 19.127012
39.619972 34.199299 18.475605
35.479733 39.107304 10.27971
37.740479 30.494932 24.661552
24.439482 39.396568 9.7973614
26.609861 29.685966 26.012783
43.716782 31.872353 22.361389
35.245785 33.221542 20.108372
32.944744 29.021717 27.121695
35.722973 34.316086 18.280579
23.596861 32.167854 21.868509
40.839901 38.764374 8.6813631
42.595341 30.04146 25.418819
34.714657 40.618587 7.7560854
28.13871 34.039925 18.742086
46.280182 29.676167 26.028824
39.774059 36.10952 15.285713
29.207859 28.497547 27.997139
22.269241 32.176956 21.853394
25.699516 29.968555 25.540945
42.802773 31.486622 23.005531
44.688889 27.740158 29.26178
34.29121 41.255356 6.6927938
29.837151 28.189857 28.510904
25.179193 39.799675 9.124176
29.41592 39.594532 9.4664783
32.603729 35.022625 17.100821
25.028139 39.857815 9.0270977
34.420769 39.135426 10.232817
26.085455 32.269066 21.699345
37.90176 39.33807 9.8943348
26.51391 30.294828 24.996063
24.999205 29.9552 25.563288
25.832899 38.113018 11.940655
27.825443 37.818092 12.433014
36.478363 32.711029 20.960876
22.769283 31.892792 22.327885
44.482086 33.285175 20.00211
35.615395 26.88731 30.685953
32.35511 40.119514 8.5896349
25.408882 32.703056 20.974669
31.818817 27.892046 29.008139
28.101765 33.951008 18.890577
21.096159 34.175884 18.515488
34.97982 30.591518 24.500265
37.896488 29.587646 26.176647
22.31526 39.158882 10.1944
27.44367 35.47187 16.350952
42.181183 29.403463 26.484211
31.212095 26.812235 30.811327
30.479027 28.137051 28.599043
34.832241 35.261288 16.702183
25.216387 38.92292 10.588247
23.181522 28.95553 27.23274
29.324993 28.614038 27.802605
37.349751 36.62801 14.419884
20.559792 34.113914 18.619007
32.999279 33.715599 19.283371
28.24972 28.154873 28.569422
39.599392 37.08123 13.663048
32.243244 38.328304 11.580747
22.842505 26.838978 30.767147
22.307289 35.50853 16.290058
35.239563 41.37516 6.4926763
35.475197 35.847332 15.723543
31.403803 35.032066 17.085131
26.780922 27.5784 29.532158
23.788185 35.512363 16.283567
37.632923 27.786314 29.184706
29.658558 39.236309 10.064648
36.969463 37.333565 13.241674
28.413162 34.542641 17.902603
23.912474 26.481184 31.364559
22.605579 34.813202 17.45116
36.597389 39.861019 9.0210447
32.38905 27.917583 28.965496
43.589218 27.760365 29.228035
31.352503 35.341763 16.567972
31.722385 38.228844 11.74687
37.460625 37.219418 13.432287
29.651217 26.834621 30.773996
39.647465 34.8344 17.415041
24.875809 39.479164 9.6594048
21.686798 35.788319 15.822882
24.670128 34.501961 17.970764
35.661575 31.924213 22.27479
42.734089 34.446285 18.063162
35.094688 32.236958 21.752535
21.790161 35.842903 15.731724
32.254967 33.575851 19.516783
24.576427 30.206726 25.143299
35.901043 31.261003 23.38229
26.675467 32.032001 22.095177
23.800554 29.642025 26.086329
22.445122 37.593597 12.808236
38.364052 32.189682 21.831486
41.78553 31.458826 23.051945
43.316612 28.736897 27.597317
30.484539 29.878763 25.690594
24.07312 37.962593 12.191961
39.380047 27.109756 30.314489
41.504971 28.997158 27.162704
43.415863 29.922138 25.618069
41.957848 30.603821 24.479725
46.114014 29.508345 26.309069
36.137329 33.7845 19.168285
39.37635 29.499273 26.324219
40.060562 37.521629 12.927628
33.177784 40.156475 8.5278664
31.481953 35.386536 16.493204
37.394802 37.864307 12.355379
41.987633 27.349218 29.914612
27.050152 28.425129 28.118204
25.728559 38.923866 10.586634
26.228373 37.962299 12.192307
37.333748 28.210293 28.476694
31.895582 26.776157 30.871571
27.051529 37.607033 12.785507
25.893391 32.443291 21.408424
41.257881 31.931858 22.26202
31.036224 39.375671 9.8318453
19.161451 38.238834 11.730971
22.734882 34.000221 18.808729
32.915901 27.825689 29.118948
29.446609 33.341064 19.909023
30.86121 37.831619 12.410242
37.719551 36.084572 15.32737
22.359497 28.866405 27.381615
22.078247 37.077023 13.670877
32.100445 27.929281 28.945963
26.979576 36.257286 15.039433
31.082939 40.621624 7.751255
24.908699 28.430653 28.109116
26.913967 27.353493 29.907719
41.029846 38.57444 9.1411829
39.195255 27.553932 29.572765
19.705263 35.781654 15.834131
41.051842 28.989712 27.17514
33.348698 29.976858 25.526695
27.543373 37.096146 13.638603
38.784988 32.747822 20.899441
41.736305 37.276276 12.41408
39.089607 33.807056 19.130611
32.496284 27.887526 29.01569
27.757278 28.356596 28.232601
24.392391 38.525871 11.251325
32.418011 35.068928 17.023508
40.947987 31.499044 22.984785
37.936096 29.652786 26.067867
30.903297 36.288837 14.986504
34.231262 30.40797 24.806782
31.535511 35.599113 16.13822
29.482237 37.209522 13.449158
38.736904 28.747152 27.580193
45.662724 28.853743 27.402195
30.943949 33.776253 19.182217
30.388027 31.801052 22.480604
44.520897 27.583818 29.52285
29.924955 36.727993 14.253223
33.211086 32.914509 20.621088
27.690411 32.451591 21.394451
26.178089 32.346878 21.569405
35.951767 41.419056 6.3545837
30.244345 34.601414 17.80434
31.046692 29.928242 25.607933
28.483978 33.359409 19.878452
40.432991 30.920883 23.95026
34.571724 29.334803 26.598869
37.817116 27.781689 29.192429
34.637817 32.86932 20.69655
29.241493 34.797726 17.476589
28.167456 31.696415 22.655472
35.857353 31.702221 22.645498
44.200844 33.816868 19.093758
35.982182 34.402931 18.135565
24.552139 39.052906 10.371229
42.272694 36.640621 13.557957
21.471359 34.674568 17.682728
43.319698 34.745609 17.520226
27.782684 29.767546 25.876484
27.401924 39.410027 9.7747021
23.76926 39.275181 10.000107
23.241959 28.605621 27.817038
32.333111 28.626089 27.782354
27.164787 38.640381 11.059933
36.52977 27.584576 29.521587
31.550613 33.368851 19.86249
37.814873 31.767658 22.536221
40.625641 33.942871 18.90382
32.480606 34.048977 18.726707
42.05032 37.554031 9.4419575
27.27655 27.553009 29.574528
42.464462 36.715927 13.166703
43.242889 33.686172 19.332485
34.029427 27.788288 29.181408
24.459551 37.43568 13.071813
29.05035 39.473499 9.6686039
25.184126 37.346073 13.221393
42.62014 36.464485 13.675774
40.571136 37.032207 13.744917
27.823189 39.864651 9.0155106
32.894989 29.080402 27.023693
24.257927 37.003853 13.792919
20.721272 36.46093 14.699758
26.024813 38.982967 10.487926
39.58107 30.345474 24.911139
35.957401 34.669418 17.690554
24.375084 28.912693 27.304193
41.624584 30.233521 25.098091
31.298513 27.256323 30.06974
24.466364 35.392845 16.483103
39.512344 33.342987 19.905567
28.376953 31.276436 23.356773
27.456793 30.862812 24.047535
34.403095 33.930367 18.924707
32.48687 34.910561 17.287966
34.549282 28.782555 27.521072
19.989498 37.903847 12.290303
33.150623 30.971668 23.865459
29.354708 40.470539 8.0036526
27.520271 36.55431 14.543406
28.197359 40.544441 7.8803186
34.532604 30.05607 25.394419
28.4151 32.655155 21.054474
28.645378 39.361683 9.8553543
24.728497 32.178726 21.850283
34.896469 29.204834 26.815903
24.0755 33.4076 19.798248
41.965309 37.639042 9.7856216
24.063984 26.414684 31.475594
40.399853 36.022022 15.431824
28.310635 33.567253 19.531389
38.615475 28.185083 28.518791
32.075665 31.950403 22.231096
26.496403 39.851082 9.038249
33.417664 28.091345 28.675331
29.984882 27.283432 30.024517
40.599136 27.869102 29.046455
37.023247 39.430447 9.7400665
28.505447 27.537201 29.600843
22.294439 32.756714 20.885267
39.776756 31.091501 23.665344
28.445972 27.364828 29.888693
33.796406 41.09528 6.960135
37.031921 36.270603 15.016719
42.762177 30.930399 23.934372
23.82523 28.288097 28.347231
28.872597 35.400414 16.470186
40.315323 35.373508 16.514786
31.265829 35.520992 16.268688
32.385731 40.024483 8.7483215
23.596113 38.017193 12.100805
24.563084 37.025703 13.756412
20.81286 36.490932 14.649656
46.234428 28.982254 27.18759
36.367485 41.419109 6.1985788
22.750065 36.418156 14.771063
42.102764 37.501595 10.714563
40.876167 37.527592 12.610929
34.559639 31.580261 22.849157
40.100388 28.30983 28.310482
25.403124 33.018227 20.448376
34.566067 32.919582 20.612617
36.484592 26.805079 30.823277
29.439747 27.403812 29.823528
44.357929 29.075127 27.032505
32.167393 28.527166 27.947546
42.603813 27.649771 29.412716
37.52116 40.584133 7.8135176
26.261059 27.090824 30.346386
32.261494 34.636497 17.74563
26.35359 31.190224 23.500864
23.955128 38.431141 11.409544
20.639395 38.908165 10.613172
43.140522 35.600395 15.439846
41.853096 37.751247 9.8566046
45.69305 30.850601 24.067623
29.932835 35.922966 15.597521
21.663536 36.782543 14.162645
26.341133 38.30027 11.627932
24.885496 34.503166 17.968739
21.141121 38.64463 11.053221
34.701187 30.702574 24.314819
26.959511 38.783607 10.82078
29.988951 27.824514 29.120972
38.748779 33.338524 19.913017
43.586357 31.907675 22.302408
30.856379 39.718842 9.2588015
42.325771 28.428209 28.112799
33.807564 34.078022 18.678131
40.801781 29.804794 25.814028
35.585678 30.622097 24.449203
37.396538 29.363787 26.55047
45.320297 31.899822 22.315523
33.510544 41.418739 5.7104974
39.006516 31.494816 22.991846
39.352871 33.294762 19.986103
26.785946 37.54356 12.891521
39.25972 35.137241 16.909332
43.178101 35.774681 14.941256
43.383625 28.527908 27.946308
27.506144 32.569962 21.196796
35.328026 29.190065 26.840567
37.439396 28.827824 27.445473
36.657661 29.82262 25.784256
40.635445 31.205381 23.475182
30.824539 40.075348 8.6634846
25.324821 27.477274 29.701117
31.867954 32.676479 21.018652
30.827534 41.131577 6.8997045
30.304281 34.564369 17.866196
34.369675 38.84201 10.722794
44.824131 33.430405 19.491884
41.675751 35.71167 15.950086
22.218607 38.233814 11.739157
40.464458 32.447929 21.400236
35.16275 33.796947 19.147505
32.339195 31.900455 22.314491
31.670784 34.568607 17.859035
33.948647 27.157274 30.235142
34.059761 28.416811 28.13183
41.270977 34.358673 18.209473
24.104685 38.343948 11.555127
35.878201 35.508549 16.289278
31.14407 27.712994 29.30714
28.447803 34.32267 18.269915
24.98481 29.091764 27.005131
31.834196 40.368923 8.1731844
32.663525 40.360233 8.187644
31.782465 38.673779 11.003883
36.14257 36.012611 15.447538
36.642193 28.231171 28.441837
37.157562 41.141026 6.7790675
21.720629 34.780052 17.506565
37.849483 39.152321 10.204516
29.990667 31.72336 22.610365
43.239277 31.925274 22.273022
28.496122 32.057198 22.052988
28.70583 40.558102 7.8574719
43.347805 30.145092 25.245754
24.787779 37.887039 12.318079
38.923 37.780903 12.494663
21.456551 30.942657 23.914579
39.613293 39.231709 9.368948
27.172251 39.789795 9.1405468
31.959677 35.37949 16.50494
19.583712 38.426891 11.416916
31.473614 30.074306 25.363997
34.320454 30.925932 23.94183
35.434437 32.492886 21.325161
26.308958 35.998009 15.472443
35.667553 26.768503 30.884354
23.650665 28.844395 27.418293
37.028313 27.147179 30.252001
28.418732 35.00742 17.126472
37.773106 26.913166 30.64278
29.241394 34.557308 17.878054
44.698227 32.014507 22.124012
29.329916 39.755913 9.1969919
21.296453 38.021038 12.094526
41.101128 36.153931 15.211552
30.091888 29.132069 26.937506
30.376377 27.891106 29.009745
29.775557 29.081295 27.022316
26.153067 26.972733 30.543591
35.962803 39.115227 10.266461
38.168888 39.792625 9.1352615
33.29702 31.592506 22.828707
28.003069 29.333652 26.601019
31.723856 37.494576 12.973013
35.744495 35.966892 15.52389
38.454269 33.426102 19.766775
22.559294 30.876392 24.025167
32.521687 33.825653 19.099628
29.134464 33.491283 19.658195
34.307137 30.993975 23.828205
35.30843 37.510876 12.945577
33.997692 38.38517 11.485676
41.327095 31.257923 23.387434
28.489799 34.302567 18.30349
40.508575 31.730745 22.597862
29.697098 37.818325 12.432514
35.740959 30.549723 24.570065
22.107344 33.476379 19.683516
35.272697 30.454285 24.729435
40.734993 31.431894 23.096918
31.711765 37.857273 12.367352
39.378517 27.508814 29.648104
31.215719 34.927525 17.259714
21.252722 35.03812 17.075655
30.91997 31.619434 22.78385
28.515972 33.865669 19.033058
37.814953 37.970413 12.178188
37.808681 29.032064 27.104412
23.318714 36.035866 15.409404
21.361851 33.425362 19.768764
30.702755 31.332069 23.263729
46.58709 29.002523 27.15374
33.689632 37.716522 12.602264
33.622982 30.173388 25.198505
43.857315 33.330544 19.926353
30.335907 36.942623 13.894791
43.63657 29.59544 26.163635
33.439083 27.787226 29.183182
37.823105 40.430908 7.9904966
30.826136 38.092022 11.975402
37.597652 33.34951 19.894672
34.723015 38.396118 11.46735
34.123383 33.761303 19.207018
37.63781 33.185753 20.16814
29.712448 26.849213 30.74963
37.975906 39.464592 9.6830492
44.794601 30.343548 24.914354
20.133949 34.286114 18.331478
31.121584 34.936485 17.244749
30.345703 38.111969 11.942118
37.659592 35.443169 16.398455
32.359413 35.307877 16.6245
34.497105 38.409122 11.445656
38.811131 35.253017 16.715994
23.859125 38.255413 11.702992
23.311312 36.899105 13.967899
30.711742 34.506081 17.963503
30.209904 32.518391 21.282742
26.044991 29.451603 26.404175
43.385773 30.444202 24.746277
35.992561 36.083096 15.329831
20.341219 37.501083 12.962851
42.849705 34.545837 17.896923
28.076183 29.46249 26.385868
34.970394 28.853268 27.402985
39.116425 33.671181 19.357512
40.029995 37.634201 12.739634
38.497814 29.865341 25.712921
23.533142 35.794697 15.812117
31.91959 41.368732 6.503613
26.18503 39.169548 10.176346
27.377583 37.017334 13.770212
22.883116 38.662502 11.023262
38.054863 32.230408 21.763475
36.976768 35.510891 16.285362
39.909439 39.17308 9.2273827
38.015457 38.710354 10.942566
27.074749 31.522566 22.94585
26.442039 29.404339 26.483074
40.199432 35.107994 16.958168
33.109821 34.674656 17.681858
40.727989 36.026417 15.424491
21.644749 37.923649 12.257137
40.852356 28.969173 27.209436
35.767773 29.823381 25.782986
30.50017 40.411011 8.1029835
33.862747 34.67514 17.680998
28.345142 30.612507 24.465464
33.034756 32.897755 20.649076
41.986485 37.61787 11.084454
33.797794 39.064476 10.35133
43.063511 36.348858 13.537481
37.389332 28.021206 28.792454
42.454136 37.150253 11.583106
35.634876 40.033417 8.7332029
43.38839 33.484356 19.669497
30.768795 27.661844 29.392565
28.019339 28.771919 27.539042
28.124905 36.117989 15.271973
43.85128 32.147297 21.902271
21.713089 32.79361 20.823692
38.563904 27.673931 29.372372
32.666924 39.0368 10.397614
38.168526 29.652996 26.067516
30.093327 28.614471 27.801836
26.632267 37.839317 12.397646
33.917942 26.760433 30.897831
37.320694 37.678596 12.665492
37.429352 32.057476 22.052256
38.398876 38.287842 11.648119
32.634636 30.960924 23.883392
25.579609 27.272144 30.04364
41.912102 37.692245 10.549588
20.631851 31.107952 23.638607
41.501919 37.524712 11.991792
27.476503 35.403919 16.464424
32.229031 36.218525 15.103827
20.257347 37.478504 13.000559
31.447172 40.976505 7.1586123
43.699203 33.331459 19.924822
28.480724 33.883732 19.002893
24.931652 35.825016 15.761404
26.603334 39.173798 10.16923
30.691038 31.729275 22.600445
28.92499 26.836319 30.77121
35.190598 40.466049 8.0107841
34.150032 32.009766 22.131922
34.402313 33.459152 19.71158
38.400406 28.437216 28.097759
41.972206 29.103249 26.985546
34.281673 39.765907 9.1799984
46.338104 28.653666 27.736309
34.974258 27.703669 29.322714
35.31179 28.696913 27.664087
26.638372 38.585659 11.151342
44.940674 30.003443 25.482302
41.923157 34.263706 18.368055
42.434875 32.546406 21.235786
42.870605 29.874556 25.697533
43.712273 28.061741 28.72477
33.596046 31.703835 22.642799
28.098953 27.906122 28.984816
24.782698 34.973969 17.182564
25.860918 39.767231 9.1783113
30.389313 27.957439 28.898981
32.181614 27.046541 30.420052
26.481876 39.862888 9.0185394
37.670586 34.749931 17.556097
35.920334 29.971384 25.535837
26.928234 36.704323 14.292938
40.555653 39.048607 8.8380938
25.052565 27.188971 30.182568
43.622757 35.603821 14.947754
23.635284 38.387821 11.481897
22.034906 37.921928 12.259989
28.658394 37.223469 13.425919
36.037651 31.540045 22.916309
28.656483 37.418438 13.10034
27.786356 28.065197 28.719198
40.812584 37.527481 12.674805
27.919456 26.441135 31.431181
42.941292 27.681913 29.359043
35.164989 33.708096 19.295874
28.789091 34.634624 17.748968
37.833488 29.351797 26.570488
27.071743 36.828476 14.085605
25.411051 36.830364 14.082561
44.132641 31.039207 23.752668
37.819981 30.371443 24.867777
34.274048 29.822479 25.784489
33.207462 27.697632 29.332798
26.110809 37.772194 12.509772
23.912193 35.18206 16.835121
39.09985 27.200527 30.162914
38.596577 35.443554 16.39782
22.193863 37.985802 12.153313
24.27371 39.747105 9.212018
42.672657 28.656202 27.732071
34.747723 33.470776 19.692175
36.211075 35.210762 16.786562
25.984512 31.812862 22.461157
27.237133 26.407438 31.487495
25.122938 31.713764 22.62669
25.811842 27.592522 29.508642
20.675007 31.574646 22.859282
20.376957 36.013332 15.447222
27.815716 30.110924 25.303076
23.131807 39.424397 9.7509661
31.081003 34.688137 17.65947
33.953728 29.863548 25.715912
29.029255 27.88279 29.023724
31.73505 33.094437 20.320713
26.713039 35.058662 17.041006
27.681911 28.813284 27.469995
41.29422 34.123219 18.602659
35.522186 30.605848 24.476337
36.149334 38.554333 11.203101
34.426659 29.109703 26.97476
23.66176 34.908859 17.291353
44.538261 33.032772 20.423595
28.954315 28.01424 28.804216
37.848476 29.461218 26.387764
36.82357 35.887161 15.657025
32.492558 31.7649 22.540842
33.300671 33.067806 20.365097
23.762699 30.481947 24.683764
36.327538 30.93527 23.926233
39.246716 29.078007 27.027695
35.318554 30.535616 24.59362
39.390797 30.517065 24.624596
36.912914 39.858547 9.0251789
41.463276 32.281536 21.678097
25.473463 36.393364 14.812292
41.904667 36.411064 14.533426
24.037239 27.147896 30.251217
24.471237 37.076393 13.671773
27.460674 30.270103 25.037287
33.827732 32.680222 21.012327
28.287647 30.63722 24.424194
33.611694 29.999901 25.488218
29.863564 30.39987 24.82044
23.359913 29.885014 25.680599
35.420128 40.015591 8.7629795
42.907448 34.181625 18.505116
35.340416 35.317951 16.607559
33.421486 34.777313 17.510406
44.185699 29.851 25.736866
39.974033 29.347702 26.577324
26.347446 27.158707 30.233023
34.531845 30.024818 25.446609
26.890289 28.377831 28.197193
35.269524 32.028748 22.100229
37.934715 29.518652 26.291859
42.793907 27.395603 29.837154
24.522915 26.544123 31.259415
27.526474 28.07111 28.709343
35.205021 39.263905 10.018225
24.018309 37.024113 13.759112
44.050232 34.631443 17.091272
37.209846 30.417957 24.7901
22.458191 33.056377 20.384853
22.938759 28.243446 28.421846
27.457438 28.824059 27.452017
38.288742 35.324215 16.597101
20.658878 31.589993 22.833651
21.568775 31.642929 22.745199
28.117882 30.596466 24.49226
25.936901 31.556198 22.889753
44.191666 29.835169 25.763304
35.618885 33.612984 19.454702
28.393034 29.714664 25.964748
25.377254 27.092472 30.343681
33.414803 33.884796 19.000807
25.108974 26.803043 30.827017
35.613213 28.584383 27.851999
24.542461 27.610542 29.478617
39.271301 38.129452 11.912613
43.141899 30.32366 24.947571
44.636581 29.570272 26.205658
29.235058 33.11311 20.289694
23.95833 38.002026 12.126117
20.501352 36.344391 14.894382
38.488525 31.377243 23.188179
45.472298 29.911116 25.636478
27.607267 31.086306 23.674318
29.807171 39.292339 9.9710817
30.846533 27.365505 29.887413
20.865383 34.75721 17.544762
37.092102 34.062683 18.703743
38.411209 36.741524 14.230333
21.307995 32.757759 20.883587
38.691742 32.955673 20.552351
42.02454 37.096634 12.60047
28.144785 36.031979 15.415599
27.251785 35.058174 17.04179
37.210724 33.888268 18.995007
22.542824 36.939224 13.900949
22.517658 38.331863 11.575409
21.09256 30.942247 23.915283
28.723225 37.387764 13.151561
21.526974 36.722805 14.262411
27.310221 35.719929 15.936733
42.425629 32.91494 20.620369
29.068466 32.787422 20.833565
31.328083 30.425547 24.777475
43.533531 32.524593 21.272205
21.825714 32.13773 21.918926
36.021454 29.834316 25.764729
37.065426 38.391685 11.474705
