# .PCD v0.7 - Point Cloud Data file format
VERSION 0.7
FIELDS x y z
SIZE 4 4 4
TYPE F F F
COUNT 1 1 1
WIDTH 1510
HEIGHT 1
VIEWPOINT 0 0 0 1 0 0 0
POINTS 1510
DATA ascii
44.720413 3.5629456 -29.821697
53.186382 -2.720608 -29.975626
42.560596 -22.153587 -29.957199
55.434898 -14.886745 -16.853037
55.436142 -10.90889 -21.66913
55.436256 -17.684261 -21.962738
55.43515 1.9539504 -18.828785
55.438206 -5.1257715 -27.678604
42.864182 -21.029766 -29.957199
36.099564 0.083132982 -29.978001
45.52816 4.6325808 -29.821699
55.437912 -14.205597 -26.816883
49.007469 -5.3408003 -29.977348
44.873199 -20.882561 -29.957199
55.434898 -7.0522318 -16.86989
47.279991 2.5592735 -30.116022
48.525185 -16.362879 -29.977549
43.174786 -15.162744 -29.978001
55.434948 0.98750043 -18.257982
53.184753 2.5117126 -29.975628
43.542637 -13.583008 -29.978001
55.438911 -18.143536 -29.542288
47.713921 -8.1422224 -29.977882
55.436905 -1.0123389 -23.916586
53.266773 -15.224785 -29.975594
55.115501 -9.466692 -29.974834
55.43523 2.1128201 -19.06395
48.952507 -7.3083758 -29.977371
55.436234 -6.4614439 -21.96743
55.436058 -18.659859 -21.392998
55.437508 -15.508712 -25.628315
53.321629 -16.23175 -29.975574
38.488163 -5.5525017 -29.978001
55.438122 -18.890812 -27.410675
55.435982 -15.27251 -21.172026
55.503078 -1.5088432 -18.038336
40.611198 -8.9125271 -29.978001
54.500507 -11.301349 -29.97509
55.434898 -13.503772 -16.488136
38.83828 -5.4915352 -29.978001
55.43573 0.72392082 -20.516134
51.942207 -5.6451092 -29.976141
51.619408 -14.13391 -29.976274
55.437698 -4.7094784 -26.21941
46.774208 -1.7516485 -30.234501
51.297333 -19.75729 -29.976408
55.434898 -4.459898 -14.897408
53.42305 -0.99641263 -29.975531
52.440704 -7.8127122 -29.975937
46.152416 1.9687203 -29.821697
51.660519 -16.569578 -29.976257
55.438339 -0.43223643 -28.064251
43.046448 -14.054658 -29.978001
55.43874 -17.526909 -29.218887
55.435146 -3.1910582 -18.821989
55.437927 -7.2611084 -26.873703
55.438728 2.7137749 -29.17511
55.435966 -17.278984 -21.127638
43.456337 -1.0004731 -29.821699
44.572559 -0.90344369 -29.821699
55.434902 -15.172211 -18.040022
55.102142 1.2329414 -29.974838
55.438324 2.1606922 -28.034565
55.438431 -12.872414 -28.328152
55.43803 3.2249022 -27.158993
36.367733 -0.38905394 -29.978001
46.962086 -11.541088 -29.978001
37.855537 -6.7244921 -29.978001
50.347588 -12.222812 -29.976797
55.55304 -1.9106504 -14.897845
40.253201 -1.1712562 -29.821697
42.660194 -15.929773 -29.978001
55.43734 -3.2310112 -25.165041
38.645699 -12.627346 -29.978001
55.691502 -1.9804338 -16.611872
55.434898 -3.60954 -17.922647
52.450527 -1.9932183 -29.975931
55.435863 -18.439234 -20.824028
40.96471 2.5629566 -29.821697
55.434902 -12.230852 -17.708031
55.435928 -9.7860279 -21.064621
39.725712 -1.2181786 -30.2346
48.783638 1.0662061 -29.977438
55.438366 -3.1024849 -28.143505
55.436691 3.5170565 -23.29796
46.224297 -11.508662 -29.978001
55.437111 -1.9953082 -24.503025
50.248943 -7.6244302 -29.976839
54.408394 -9.0987682 -29.975128
55.438393 -9.5076122 -28.215519
55.437275 -4.6296487 -24.99637
55.414097 -18.678114 -16.378799
54.196239 -0.95775521 -29.975212
55.411018 2.5588405 -17.287392
55.436405 2.1130924 -22.464008
48.382195 -20.404716 -29.977612
49.208992 -15.261967 -29.977268
41.789948 -13.710395 -29.978001
37.365936 -10.498069 -29.978001
43.550167 4.7329197 -29.821699
55.438454 -5.2115197 -28.395426
53.216072 -19.351719 -29.975616
55.436119 -15.047415 -21.574738
53.842869 -14.74434 -29.975359
42.852116 -3.8746872 -29.978001
37.981342 -7.644433 -29.978001
42.35516 -17.225887 -29.978001
47.656895 -21.163589 -29.977905
53.570004 -18.967085 -29.975471
55.438793 -21.127525 -28.123812
55.434898 -10.506641 -16.745281
55.439167 -20.22327 -29.075008
42.346828 -0.2479836 -29.821697
40.178272 -7.8861251 -29.978001
53.55093 -19.401852 -29.975479
55.437576 -20.690693 -25.826418
55.436478 -17.335398 -22.624491
38.422173 -4.2188711 -29.978003
55.436798 -11.799019 -23.590813
51.449913 -17.121346 -29.976347
51.422882 -13.683645 -29.976357
45.054123 -8.4074345 -29.978003
50.676212 2.1160827 -29.97666
40.824051 -18.239927 -30.184401
50.746075 -18.527246 -29.976633
39.782707 -18.051405 -30.184402
46.697731 -9.3175678 -29.978001
55.434898 -8.0147209 -14.948959
48.215523 -6.2550926 -29.977674
55.438522 -18.953119 -28.58946
54.441231 -4.3400497 -29.975111
53.174446 -8.3975248 -29.975634
44.550076 -16.695375 -29.978001
55.435448 -4.8377843 -19.704205
53.813015 -6.1547589 -29.975372
55.435371 -10.849424 -19.421869
46.663383 -15.195249 -29.978001
50.244385 -21.021744 -29.976841
40.037407 0.011422319 -29.821699
54.676105 -16.465752 -29.975018
55.434898 -10.185893 -18.039833
55.278599 -1.0053096 -15.064093
52.351566 -11.019409 -29.975975
41.315628 1.7261043 -29.821701
55.436306 -11.710876 -22.162363
53.370533 -15.450317 -29.975554
48.991325 -1.4880582 -29.977352
49.440334 -19.867115 -29.977173
45.171993 -1.7585058 -29.821701
48.244694 -16.485846 -29.977663
36.752522 -8.0889273 -29.978001
55.436558 -0.33534908 -22.910954
55.434898 -12.790833 -15.492928
40.837181 -5.4983625 -29.978001
42.961113 -1.8004849 -29.836063
55.436729 -18.643177 -23.36702
50.958191 -13.062951 -29.976547
46.293644 -0.39516687 -29.821699
55.437897 -10.964819 -26.794895
55.278599 2.3546257 -16.396559
52.241119 3.6688333 -29.976017
47.23391 -13.12081 -29.978001
39.929302 -5.7637424 -29.978001
55.438568 -5.4055324 -28.72459
55.434898 -9.4280434 -17.781513
42.286663 3.414149 -29.821699
48.560707 0.85718107 -29.977531
50.65826 -17.668537 -29.976673
48.646423 -11.044445 -29.977499
53.259117 -21.037151 -29.975599
37.359669 -2.8258176 -29.978001
55.438164 -2.352108 -27.564726
46.787693 -20.767574 -30.184401
37.889774 -15.572864 -29.978001
52.811985 -11.563295 -29.975784
55.436798 3.3346753 -23.600464
55.437042 -8.219183 -24.308418
55.438885 -4.6615148 -29.637989
37.132339 -11.038387 -29.978001
42.946968 -11.783925 -29.978001
46.846497 -1.8025863 -30.234503
54.535606 -3.5638702 -29.975071
55.435371 -0.33243644 -19.470146
55.435219 2.7232652 -19.029669
53.460609 -13.212599 -29.975517
55.437462 -8.0128956 -25.531141
40.022915 -20.622408 -30.184399
55.436111 0.080766439 -21.611908
51.038834 -11.372686 -29.976515
53.288322 -10.139802 -29.975588
55.434937 3.6075728 -18.211704
48.883263 -13.46671 -29.977402
55.437458 2.0124836 -25.51778
37.767639 -5.8918748 -29.978001
55.436501 -18.698643 -22.685089
55.437298 -4.9968877 -25.047424
55.660233 2.1497345 -17.880754
55.435589 -14.278639 -20.056547
47.580929 -19.805538 -29.97794
55.438972 -10.907179 -29.901451
36.818264 -9.5552711 -29.978001
55.434898 -5.556488 -15.876575
52.492809 -21.465351 -29.975914
38.826286 -11.013936 -29.978001
55.435154 -12.010752 -18.793739
47.510651 4.4019022 -29.977962
55.437469 -7.9995122 -25.544075
39.553734 -15.909024 -29.977999
51.098473 2.2507358 -29.976486
55.434898 -4.3168888 -16.723803
46.562466 -18.993681 -30.184401
40.577343 -8.766654 -29.978001
43.827484 1.4431112 -29.821699
55.436749 -6.0715928 -23.455799
50.454124 -15.983242 -29.976755
55.436062 -0.23084474 -21.480785
55.437256 -17.279736 -24.890333
38.048367 1.4829491 -29.978001
43.226028 -0.55794227 -29.821699
38.988308 1.4586242 -29.978001
55.43644 -7.1106529 -22.559441
55.43885 -13.813022 -29.547747
55.438511 -19.269115 -28.469944
55.414101 -18.720778 -16.484343
55.434898 -9.4195156 -15.967882
55.435753 -20.583153 -20.507637
44.570415 -7.3710556 -29.978001
55.438927 1.7207823 -29.760765
43.157761 -19.788603 -29.957199
42.293594 -15.400375 -29.978001
38.343403 0.31268096 -29.978001
55.434898 -8.1349125 -16.490082
49.755867 -12.763423 -29.977043
55.601456 -17.663919 -16.306095
55.43507 -17.401775 -16.69935
41.361496 -1.7747257 -29.821699
45.748093 2.2144606 -29.821701
46.157558 -3.7958231 -29.978001
48.951775 -12.149025 -29.977375
55.336975 0.53733063 -17.256027
43.483913 2.9209063 -29.821699
55.434898 -11.23749 -17.508915
54.188435 -16.10424 -29.975216
55.436214 -3.0919001 -21.93001
48.221313 -8.2245893 -29.977673
45.875893 -16.011631 -29.978001
54.90023 -12.213064 -29.974922
44.510632 -9.0002499 -29.978001
55.436222 -10.17097 -21.92337
51.625015 -4.9373884 -29.976271
55.43935 -20.614809 -29.184551
51.663597 -12.329944 -29.976257
55.435501 0.8032738 -19.855053
52.618088 3.0721769 -29.975861
55.435726 -11.615471 -20.461956
55.434898 -4.0666199 -17.465475
55.437401 -2.5959523 -25.360823
55.437912 -9.9255724 -26.824833
55.691498 3.1090026 -17.512127
51.964699 -2.1668525 -29.976131
55.434898 -14.042149 -16.377798
45.890812 1.4038472 -29.821699
35.804005 -3.2115774 -29.978001
39.260399 -20.552153 -30.022949
55.435745 -12.439274 -20.525475
41.745262 -18.610708 -29.957199
39.768894 -13.354703 -29.978001
55.43837 1.4770689 -28.157627
55.437813 -16.570715 -26.515259
55.438126 -18.192753 -27.424034
52.765255 -19.800117 -29.975801
42.362854 -12.353046 -29.978001
47.847576 -20.282335 -29.977829
55.438511 -8.333149 -28.572109
55.436909 -0.73379683 -23.920698
42.628181 -8.8983316 -29.978001
52.47823 -18.563618 -29.975922
55.437378 -11.688496 -25.293873
49.967655 -14.788365 -29.976955
55.437222 -19.057354 -24.801502
42.626232 -1.2079616 -29.821699
47.614197 -7.4761767 -29.977922
55.435287 -16.288815 -19.159866
44.778271 -15.985518 -29.978001
49.713066 -4.9637346 -29.977057
39.692848 0.60543692 -30.2346
47.276134 -3.9884994 -29.978001
47.913696 -11.531338 -29.977798
55.434898 -13.219669 -16.044991
48.066982 -18.260454 -29.977739
50.699837 -14.478345 -29.976654
47.094673 0.2138226 -30.234501
50.225563 4.062233 -29.976845
38.717609 -2.2448311 -29.978001
55.435844 -2.3200345 -20.853472
55.435436 -20.225939 -19.586666
55.435913 -8.7731285 -21.033043
55.318459 -11.531622 -29.974751
42.948524 -1.9272488 -30.135302
55.437469 -0.73377955 -25.555225
55.438477 -15.935729 -28.466629
46.039314 0.17813325 -29.821699
36.381859 -4.7652168 -29.978001
52.762642 -12.397006 -29.975803
55.435913 -17.196201 -20.97559
55.438614 -5.9853015 -28.857658
55.436878 -1.764308 -23.834904
55.438763 -14.374833 -29.289768
48.283844 -0.57677031 -29.977644
46.580658 -6.877543 -29.978001
55.435467 -9.9085779 -19.714508
55.437916 -9.651289 -26.837929
55.435776 -15.051149 -20.585846
55.438858 -9.1572609 -29.561596
40.129486 -21.473473 -30.107246
51.97216 -8.6166658 -29.976131
55.437225 0.98978341 -24.843225
55.438614 -10.903423 -28.848526
55.435989 -8.1679735 -21.257164
55.435181 -0.36105227 -18.918634
41.798225 -22.000454 -29.957199
55.43618 -15.254094 -21.761536
55.179153 -11.816227 -29.974808
55.435474 -4.530817 -19.771572
55.438026 -13.930273 -27.150269
45.954735 1.0269992 -29.821701
55.436954 -2.3791933 -24.057724
50.159714 4.2920742 -29.976873
52.222111 -1.6720191 -29.976025
52.850075 -17.40015 -29.975767
46.600166 3.9460332 -29.956474
44.503242 1.8470999 -29.821701
45.755028 -0.64071172 -29.821699
55.437504 -10.814368 -25.643124
42.046509 4.5691562 -29.821701
49.844421 0.88746721 -29.977003
55.435452 -17.913452 -19.627621
51.966797 -8.4765949 -29.976131
53.961472 1.9638854 -29.975307
55.435844 -11.708897 -20.800774
54.995289 -1.5012441 -29.974884
47.874207 -6.1915588 -29.977816
52.800472 -9.7740097 -29.975788
47.354771 -18.532988 -30.026382
38.434444 -15.221915 -29.978001
53.140236 -14.259083 -29.975647
49.829243 -17.691174 -29.977013
55.437172 -20.922504 -24.648712
55.434898 -5.3323212 -15.68197
52.142788 -8.5720739 -29.976061
55.434898 -15.102401 -15.484689
51.885231 -15.691104 -29.976166
50.061478 -5.187439 -29.976915
50.326733 -4.751996 -29.976805
44.375523 -14.790757 -29.978001
55.437447 2.3136368 -25.477907
48.126995 -8.8611021 -29.977711
55.435806 -14.464182 -20.677593
51.814621 -5.1852741 -29.976194
55.438248 -9.7322655 -27.79809
47.195957 3.4488821 -30.199764
40.254379 1.7213068 -29.821697
43.605904 -13.359933 -29.978001
47.46928 -0.54989171 -29.97798
55.43745 -5.5825582 -25.495247
38.901543 -10.722949 -29.978001
48.163334 -13.22592 -29.977697
45.184032 -4.4072132 -29.978001
55.278599 2.3511016 -14.651684
55.437035 -7.1134205 -24.290993
54.845802 -19.829664 -29.975052
41.568996 3.1050291 -29.821697
47.364269 -6.8359909 -29.978001
49.771591 0.73270828 -29.977032
55.437538 -14.982017 -25.725952
55.437141 2.2573805 -24.60376
42.821213 -6.7679067 -29.978001
42.64563 -9.8879099 -29.978001
42.366714 -11.968567 -29.978001
51.778923 0.21204364 -29.976206
55.438511 -17.715347 -28.537617
55.437801 -7.0095868 -26.513245
55.436291 3.7357311 -22.134804
51.322994 -2.8780792 -29.976395
55.455368 -2.6492684 -16.975597
53.613777 -3.0741308 -29.975451
43.266827 -0.2968381 -29.821699
41.994621 -8.1313133 -29.978001
55.435772 -4.2176719 -20.625925
42.708313 -11.847958 -29.978001
37.180225 -2.2131686 -29.978001
55.435295 -7.9175096 -19.212191
55.436806 -18.360714 -23.576073
55.364601 -1.8308305 -14.445199
55.435364 -4.2207074 -19.448065
50.931267 -4.3310246 -29.976557
43.868195 3.4456124 -29.821701
46.672447 -0.010129452 -30.127167
55.438217 -10.030132 -27.72216
39.955021 2.1751719 -29.858273
50.813049 -3.2407126 -29.976604
45.660812 -8.3368168 -29.978001
44.091961 -5.7387466 -29.978001
44.973946 -13.140938 -29.978001
55.43515 -2.631026 -18.826086
48.068604 -6.2235317 -29.977734
55.438004 -6.4980578 -27.092308
55.434898 -15.519964 -16.570477
55.437073 -0.12510896 -24.393324
55.438599 1.930829 -28.827229
55.438042 2.3846273 -27.206602
55.592064 -2.5121412 -16.485947
52.688667 -9.2203722 -29.975834
55.435722 0.73979306 -20.50234
53.12048 -14.206836 -29.975657
55.434898 -2.8934648 -14.428315
55.434898 -14.727304 -17.702719
55.437973 -8.0222397 -26.99118
43.912636 3.4230576 -29.821701
51.562889 2.9854703 -29.976295
55.438015 -16.570242 -27.105412
41.373314 -13.977924 -29.978001
48.417618 -8.6536827 -29.977592
47.040352 -12.414569 -29.978001
53.00032 -9.1091232 -29.975706
45.054913 -17.41757 -29.988201
46.157631 -12.294097 -29.978001
55.435989 -11.871531 -21.219769
55.438633 -1.845962 -28.922243
37.716827 -12.421052 -29.978001
37.247356 -6.5526466 -29.978001
55.434898 -9.6619072 -17.812019
43.238083 -11.956161 -29.978001
49.045547 -18.174957 -29.977333
41.749165 -2.8935351 -29.978001
41.029491 3.4360192 -29.821697
41.575863 -17.232758 -29.978001
55.438526 -10.071437 -28.604675
40.34972 -6.7801733 -29.977999
55.435074 -10.792817 -18.57468
55.434967 -13.369538 -18.243753
55.435089 -2.3985488 -18.662441
55.435608 -16.694748 -20.092232
48.984116 -10.935947 -29.97736
37.253437 -7.9172106 -29.978001
55.438805 -4.8460255 -29.422804
48.663647 -18.69379 -29.977491
54.048363 -15.182984 -29.975275
48.724579 0.063106775 -29.977463
47.907837 -14.919888 -29.977802
51.328159 -7.3848238 -29.976395
55.434898 -10.429613 -17.887674
55.436199 -10.435238 -21.854015
48.339935 1.1237017 -29.977623
53.703045 -17.514381 -29.975418
55.523743 2.5358341 -18.017611
45.208778 -1.8632885 -29.98431
39.238823 1.626464 -30.121273
55.43758 3.207273 -25.869644
47.868496 -5.9662724 -29.977818
55.436314 -2.9501011 -22.190466
53.949043 -7.6206727 -29.975317
46.465511 -13.614885 -29.978001
47.162823 4.051713 -30.232784
38.129902 -11.891353 -29.978001
49.431824 -4.2005334 -29.977173
53.690689 1.7583213 -29.97542
55.43539 -20.547565 -19.447689
49.780296 -2.6547451 -29.977028
53.549618 -0.66324353 -29.975479
55.436378 -13.789406 -22.352177
55.436687 -8.7728949 -23.280037
55.436089 -5.608573 -21.548527
39.564049 -8.9833193 -29.978001
39.838089 2.6323695 -30.134449
38.961494 -12.67272 -29.978001
46.445873 -7.8100424 -29.978001
55.436516 -14.807541 -22.742283
55.436417 -11.468995 -22.477594
55.436119 1.0305789 -21.631823
54.770035 -11.864903 -29.974976
55.438774 -20.845463 -28.21616
41.595459 -0.58888918 -29.821701
55.435608 -12.586613 -20.113674
44.280983 1.1459402 -29.821701
40.204388 0.31466585 -29.821699
55.511116 -2.5933473 -16.869484
47.323578 -19.157749 -30.046183
51.408451 -17.842039 -29.976364
42.190102 -14.549511 -29.978001
55.434898 -9.4003172 -15.880543
49.310745 -20.343529 -29.977226
48.84877 -0.38135517 -29.977413
43.446041 -20.380718 -29.957199
39.89003 -0.10432732 -30.011778
55.434898 -12.68708 -15.828217
55.437183 -0.23786294 -24.719013
55.436569 -12.665869 -22.920618
49.021133 -11.629584 -29.977345
55.438354 2.9035373 -28.096458
55.435574 -4.4415464 -20.065441
55.435307 -9.5126009 -19.2495
43.697777 4.2299547 -29.821699
52.166733 -19.748245 -29.976048
42.296227 -11.101314 -29.978001
55.435501 -2.2828534 -19.850811
52.030518 -2.229486 -29.976105
55.434944 -3.4055195 -18.229605
42.164093 -11.817178 -29.977999
55.436054 -14.842442 -21.394058
49.356983 -18.525787 -29.977209
55.413811 -8.0068731 -29.974712
52.452538 -16.613508 -29.975929
55.438797 -12.276286 -29.383789
54.589203 -12.010346 -29.975052
36.435589 -5.4954329 -29.978001
55.438015 -20.049278 -27.099129
46.786587 -0.01878741 -30.234501
46.72916 -12.543224 -29.978001
55.434898 -13.220012 -17.101324
37.644081 -4.5216069 -29.978001
44.644211 1.7021451 -29.821697
41.271908 -13.328112 -29.978001
43.620258 -20.371868 -29.957199
37.870346 -6.8729615 -29.978001
47.931084 -7.237536 -29.977791
44.79528 -21.144699 -29.957199
45.998268 0.80697441 -29.821697
55.434898 -3.9393487 -16.333525
55.437973 -14.000305 -27.006111
49.208889 -4.9008641 -29.977266
45.821323 -4.7696781 -29.978001
43.724403 -13.579756 -29.978001
55.438202 -14.529016 -27.671799
55.438931 -16.313734 -29.774406
49.411583 -14.010654 -29.977184
45.278847 -11.82849 -29.978001
55.438892 -7.451417 -29.665016
46.630051 -1.6089118 -30.027039
42.028473 -2.6207948 -30.026834
45.35648 -5.956604 -29.978001
50.436115 -13.96405 -29.976763
43.053871 -20.219666 -29.957199
55.436764 -1.7579319 -23.50688
55.438339 -8.9449959 -28.05962
55.437393 -19.311672 -25.286755
55.438156 -15.405853 -27.523594
41.321823 -20.900883 -29.957199
43.758232 -6.2048531 -29.978001
53.77343 2.7235367 -29.975386
55.438293 -19.469406 -27.917147
42.954964 -18.372612 -30.070904
55.438972 -0.78009975 -29.898062
52.639679 -6.3373594 -29.975855
52.482224 -17.681091 -29.97592
55.434898 -14.540295 -16.40045
44.4202 -3.1323819 -29.978001
55.434898 -11.402725 -16.291584
55.434898 -8.1771212 -15.594486
55.435577 -18.908911 -19.991116
55.435104 -5.3002415 -18.697636
44.553085 -11.130509 -29.978001
42.394653 -5.2396493 -29.978001
55.434898 -8.2589083 -14.872878
55.434898 -9.5932741 -15.446606
55.278603 -1.7088482 -15.357884
55.435669 -7.1007833 -20.33457
55.438354 -0.40046954 -28.106091
46.285381 -5.2816224 -29.978001
41.010971 2.2417235 -29.821701
48.05151 -3.638865 -29.977743
46.036301 -13.804508 -29.978001
55.435562 1.9329703 -20.021854
36.965137 -4.3208394 -29.978001
55.296085 -8.1618423 -29.974762
39.78434 -2.1332998 -30.2346
45.61911 -13.667787 -29.978001
52.556637 -9.5634928 -29.975887
46.135071 -9.6456842 -29.978001
44.052341 -10.991219 -29.978001
39.097153 -20.263334 -29.978001
55.436531 -0.89212644 -22.827873
46.092239 -15.225302 -29.978001
55.435349 -2.9149454 -19.413044
48.615353 -15.25239 -29.977512
43.259487 -11.890272 -29.978001
55.438416 1.8388329 -28.294712
44.689701 -1.123668 -29.821699
55.437359 -14.780635 -25.204876
55.436188 -18.222754 -21.772366
42.574959 -13.672323 -29.978001
42.664238 -9.5681438 -29.978001
55.43877 -17.409027 -29.308229
40.465687 2.198101 -29.821701
55.434898 -15.34644 -16.92226
42.220505 -5.1110215 -29.978001
55.43502 -10.26876 -18.406914
47.014389 -17.629948 -30.122993
40.643097 -17.53554 -30.063074
55.438904 -3.0898955 -29.697853
44.517532 -21.43244 -29.957199
50.590889 0.41436267 -29.976696
53.866642 -3.1596804 -29.975349
55.434898 -5.7450781 -15.354681
49.27644 -11.661423 -29.97724
48.522018 4.2686524 -29.977547
55.501762 -17.506847 -17.153662
55.434898 -10.74492 -15.76255
46.988869 -15.731929 -29.978001
55.435497 -19.853615 -19.773968
45.224243 -17.274084 -29.978001
55.437229 -7.7980714 -24.848778
39.798519 -6.0673041 -29.978001
41.842213 -3.6906586 -29.978001
51.497761 -17.698385 -29.976324
46.127499 4.3028994 -29.821699
55.438988 -20.661118 -28.618267
42.840359 -5.0719309 -29.978001
46.894646 4.2439747 -30.234501
55.438278 -10.607397 -27.885117
47.584244 -6.9398069 -29.977936
55.278595 0.90829706 -13.091183
43.751335 -18.496466 -29.957199
55.437416 3.2831268 -25.381874
39.239105 -8.9962664 -29.978001
47.80526 2.0735321 -29.977842
52.858185 -0.051911831 -29.975765
40.558266 -5.1436729 -29.978001
55.437969 0.87368131 -26.997536
55.436386 -5.0787706 -22.414196
55.436836 -16.163063 -23.682983
42.53392 2.2999969 -29.821701
55.434898 -5.4639683 -14.975993
37.679142 -6.5732493 -29.978001
45.253075 -14.373133 -29.978001
55.258701 -18.525848 -29.974836
55.435905 -14.097825 -20.970942
55.43684 1.0335045 -23.714956
36.381687 -1.0261502 -29.978001
55.438534 -5.6672201 -28.626511
44.667091 4.0568318 -29.821701
55.43515 -9.5956154 -18.798565
35.859531 -3.0477641 -29.978001
46.661953 -4.9896126 -29.978001
55.173557 -16.652285 -29.974812
39.398933 -15.177537 -29.978001
53.666641 -12.534992 -29.97543
55.438202 1.2861665 -27.6623
55.536922 -1.5262564 -17.340721
40.518188 -20.43984 -29.957201
55.437386 -12.134607 -25.302372
55.435978 -2.7908611 -21.221273
42.386345 -3.316787 -29.978001
55.43605 -6.3765769 -21.431507
39.116425 -2.4934378 -29.999262
55.43528 -10.076195 -19.165874
55.43721 1.7648064 -24.805769
55.523838 2.1169405 -18.017525
42.314522 -14.933893 -29.978001
55.437836 0.24457073 -26.599138
55.436928 -16.671595 -23.935001
44.546265 -5.797327 -29.978001
55.438595 -9.4690638 -28.800531
53.752274 -2.2258472 -29.975395
39.669773 -22.256205 -30.184401
55.435654 -12.241066 -20.261583
55.434898 -13.32086 -15.155468
55.43494 -1.1320457 -18.243284
55.437988 -6.9117489 -27.048622
55.434898 -13.783652 -17.677784
45.259209 -1.9438168 -30.174376
55.437241 -19.980137 -24.857536
55.435558 -15.428163 -19.957653
55.088146 -10.640678 -29.974846
55.437302 -3.6236596 -25.077873
55.43647 -3.6933253 -22.654324
44.463673 -6.1516819 -29.978001
55.423878 1.0810106 -17.292839
55.435207 -11.916234 -18.961174
55.437439 -10.045773 -25.466816
51.343582 -2.4429576 -29.976385
54.324051 -10.056677 -29.975159
55.434898 -4.6865196 -13.743901
55.434898 -14.652108 -17.835709
55.436031 -7.2982273 -21.385006
37.140717 -7.14009 -29.978001
55.435127 -3.3396018 -18.767879
55.438602 -16.312634 -28.828674
45.184898 -10.392331 -29.978001
55.437614 -8.3696232 -25.971233
48.063587 -13.235988 -29.977739
55.438305 -16.734087 -27.955082
48.947182 -12.343778 -29.977375
55.43568 -16.517197 -20.296658
42.923279 -8.0973415 -29.978001
44.588055 -3.0056632 -29.978001
55.436386 -13.75034 -22.372017
45.670639 -11.986773 -29.978001
55.437881 1.2800965 -26.746489
50.906425 -10.669177 -29.976566
55.436111 -2.0213723 -21.633986
55.437996 -16.133556 -27.052879
41.779858 -21.067724 -29.957197
36.405075 -8.8700838 -29.978001
55.435383 -18.009155 -19.440197
55.438423 -4.9247189 -28.310474
49.301895 -20.429699 -29.977228
55.434898 -3.2147501 -16.62289
50.248661 -7.5072846 -29.976837
55.438999 -21.419777 -28.318672
55.43634 -10.380466 -22.265129
55.435951 -4.8084245 -21.15727
50.468182 -10.710824 -29.976749
37.449505 -0.26611948 -29.978001
37.694466 -10.934496 -29.978001
55.434967 -6.5695286 -18.282253
55.434898 -5.9470005 -15.423146
55.691505 -2.3558073 -13.480832
47.421577 -20.840389 -29.983982
55.43544 -19.972984 -19.590881
55.436081 0.89355779 -21.527966
50.919899 -0.32483357 -29.976559
53.08062 -0.045195818 -29.975672
50.588531 -2.4714904 -29.976696
52.072662 -16.419626 -29.976088
55.437679 -1.4105052 -26.151665
55.347603 -7.4869432 -29.974739
55.435863 -5.4565754 -20.892942
46.495945 -8.2882462 -29.978001
40.102409 -19.281816 -30.138807
55.691498 -2.0970762 -14.553068
55.691502 -2.3957403 -14.144814
43.378647 2.629164 -29.821699
47.566185 -16.925606 -29.977943
49.421471 2.8765466 -29.977177
55.437878 -4.6458325 -26.741234
41.63678 0.25869313 -29.821699
40.512138 -5.3747282 -29.978001
55.278599 1.7798603 -13.885731
47.9217 -19.44475 -29.9778
39.169281 -8.0434713 -29.978001
55.436298 -20.008524 -22.095348
47.212631 -19.602131 -30.116594
55.438095 -8.172225 -27.364765
55.435318 -13.137473 -19.265503
44.650696 -4.9188638 -29.978001
48.95575 3.4490283 -29.977367
39.501221 -9.0319548 -29.978001
55.434898 -6.0405078 -16.035566
55.434898 -2.9745474 -15.391721
55.436401 -4.2604723 -22.455568
55.438267 -15.175708 -27.862099
44.036148 -2.4751692 -30.171967
54.426308 0.38166142 -29.975117
40.140789 -16.590363 -29.978001
42.687057 -14.202739 -29.978001
44.798859 -21.201931 -29.957199
53.911819 1.3529303 -29.975327
54.587669 -14.212629 -29.97505
53.472202 -17.324736 -29.975512
43.42099 -1.2243311 -29.821699
36.294949 -1.9741235 -29.978001
55.436203 -1.1395326 -21.877735
55.43512 -3.9054093 -18.746902
49.113148 -0.25179103 -29.977303
55.438301 -6.0258517 -27.950108
51.155018 -21.717941 -29.976465
41.948093 -2.7594895 -29.978001
51.180466 -7.7483635 -29.976456
55.438404 -17.236267 -28.239433
55.436108 -5.8833075 -21.616381
55.4384 -19.931009 -28.019575
55.434898 -2.9820769 -16.584124
55.437401 3.5216715 -25.34757
44.798035 -8.5801859 -29.978001
48.006271 -1.5228053 -29.977758
55.435928 -0.77001333 -21.082787
55.434898 -11.707496 -16.672663
55.436512 -13.681456 -22.747543
55.436279 -7.1312079 -22.091553
49.964188 -5.571084 -29.976952
53.129768 2.26478 -29.975651
55.43618 -2.9468696 -21.813732
40.0163 -12.270263 -29.978001
49.774723 -14.210715 -29.977036
55.434898 -7.4280324 -16.099798
41.13279 -6.7579694 -29.978001
42.140053 -13.534696 -29.978001
51.280617 4.0032563 -29.976412
44.174812 3.4495134 -29.821699
50.225628 -7.2671485 -29.976847
34.927597 -1.1694151 -29.978001
38.101109 -4.3460302 -29.978001
55.437843 -12.638706 -26.619169
55.437588 -21.110241 -25.863556
55.439186 -19.225328 -29.511297
47.659344 -2.3364801 -29.977901
49.476646 -14.950343 -29.977158
55.437107 -18.861336 -24.452518
40.950485 0.48018032 -29.821699
55.438759 -8.0446873 -29.286272
55.609592 -20.227238 -17.737057
42.43206 -2.1038449 -30.234566
55.435749 -8.1688919 -20.555737
45.535568 0.63140404 -29.821701
39.656464 -9.674408 -29.978001
36.684135 -9.7439728 -29.978001
54.140968 -6.6794109 -29.975235
36.04528 -0.099139452 -29.978001
51.8974 1.827212 -29.976158
42.966393 -20.852779 -29.957199
55.278603 1.1634573 -16.338856
55.438988 -15.285407 -29.932425
46.576485 -0.52011269 -29.900543
55.278595 -0.87332821 -15.552874
55.438976 -7.975132 -29.903658
55.437874 -15.371176 -26.715466
39.95171 -1.0459378 -29.866087
51.191147 -10.722572 -29.976452
51.479378 -7.3902502 -29.976332
55.435955 -3.7376609 -21.167334
53.467697 2.7983122 -29.975513
55.437809 -0.60464954 -26.540081
55.436832 -18.998447 -23.656332
48.397449 -14.92879 -29.977604
55.434898 -5.8790846 -16.818336
44.897202 -17.796867 -30.184401
55.438992 -0.71725798 -29.951126
43.190472 -11.543341 -29.978001
43.328156 -7.2738008 -29.978001
55.435158 -10.363017 -18.807205
45.072838 -2.3251543 -30.234528
49.091537 2.8996131 -29.977312
51.599174 -18.093012 -29.97628
55.437695 -17.51849 -26.170547
55.435425 -10.521554 -19.585228
55.435863 -9.3431377 -20.875111
49.304653 -12.007855 -29.97723
55.438774 -19.11425 -28.941633
48.456444 -21.167091 -29.977577
52.975578 -8.7942657 -29.975716
55.278595 2.8158817 -15.13631
39.158348 -5.0355086 -29.978003
42.816875 -2.0055654 -30.234558
40.309105 -5.5988593 -29.978001
55.435017 -0.18848145 -18.449507
39.270824 1.1629138 -30.153175
40.76405 -8.986474 -29.978001
42.309429 -2.1531703 -30.234568
55.437431 -17.985401 -25.415459
46.284618 0.67084146 -29.821699
43.414211 0.39245325 -29.821701
37.116402 -2.0589457 -29.978001
40.777443 -9.3581161 -29.978001
55.437347 -4.4416447 -25.196259
55.434898 -10.052195 -17.124584
41.048782 -7.2961969 -29.978001
44.955368 -6.4764771 -29.978001
47.324875 -19.306057 -30.045357
44.190567 0.73903584 -29.821697
55.438194 -15.880829 -27.639446
48.013756 -9.3854628 -29.977757
43.36689 -17.12842 -29.978001
36.207314 -4.0258756 -29.978001
39.955494 -0.96376073 -29.857141
55.438427 -11.251398 -28.327127
55.434898 -6.6741667 -14.45002
55.434937 -1.3431044 -18.207321
40.852425 -17.911552 -30.184402
46.98465 -9.1326132 -29.978001
55.438232 -14.934091 -27.759125
49.896584 -5.4762545 -29.976982
55.43898 -13.765823 -29.916752
50.429657 -9.2888384 -29.976763
50.566719 -5.4491882 -29.976706
50.921085 -9.0726318 -29.976562
55.437279 -5.2609496 -24.999458
55.414101 -20.403099 -16.840195
52.329979 -18.635832 -29.975983
55.329781 -7.5533557 -29.974747
50.852833 -20.695507 -29.976591
53.18824 -18.17 -29.975628
52.877174 -13.996496 -29.975756
55.43597 -3.6680613 -21.203693
55.278599 -0.21656431 -16.73793
45.954025 -4.2529469 -29.978001
53.942955 -6.4116383 -29.975317
55.434898 -2.8673491 -15.367438
55.436703 -14.580996 -23.296644
55.435371 -5.3949175 -19.478474
55.43663 -19.324327 -23.072208
55.438957 2.3847005 -29.856026
55.438946 2.3021812 -29.822102
50.327213 -17.094599 -29.976807
41.264999 1.2816381 -29.821699
55.435059 -14.568461 -18.504498
55.434898 -6.6042652 -16.251289
55.434898 -9.3916426 -17.1693
43.045471 -11.499542 -29.978001
47.804554 -11.134745 -29.977844
55.436882 -11.152161 -23.835869
42.511982 -4.2330227 -29.978001
40.177101 -9.6979465 -29.978001
52.360962 -18.513987 -29.975967
45.208561 -17.92659 -30.184401
54.908691 -16.641155 -29.974916
55.435738 -15.527701 -20.472265
41.998451 -14.477926 -29.978001
54.724216 -14.28692 -29.974997
55.435623 -13.946932 -20.13987
50.928493 -16.662582 -29.976559
55.43631 -7.0623121 -22.200539
37.733551 -12.904198 -29.978001
55.436638 -8.5154181 -23.142704
50.867081 -19.414192 -29.976585
46.707649 0.41725805 -30.210299
46.71331 -21.208319 -30.184401
51.18174 -6.3496256 -29.976452
46.406837 -5.9292269 -29.978001
55.435261 -4.1631494 -19.150246
55.434898 -15.311346 -17.386171
55.437599 -13.93803 -25.910189
45.501881 -3.4010675 -29.978001
42.840824 -18.497602 -29.957199
39.003666 -16.385017 -29.978001
55.437794 -8.6100483 -26.485844
45.673595 -2.5409498 -30.1064
55.435837 -20.634834 -20.755245
55.278603 0.48832285 -14.224776
44.915695 -7.382206 -29.978001
40.582844 -21.391569 -29.957199
55.435604 -14.838668 -20.083107
55.438957 -13.052694 -29.84367
39.728107 -21.325205 -30.184401
55.43531 -14.504582 -19.221373
49.91922 -0.13109154 -29.976971
39.13649 -5.8958392 -29.978001
55.437439 -21.174103 -25.420418
46.492184 -6.2441945 -29.978001
48.397606 1.2809651 -29.977596
55.435608 -12.316537 -20.117393
55.434898 -7.1854944 -16.032343
40.459431 -10.678842 -29.978001
52.302559 2.3191509 -29.97599
48.965816 -2.1153507 -29.977365
55.434902 -12.684299 -17.220507
55.435425 -9.4864511 -19.610271
45.76577 -13.691914 -29.978001
47.210285 -19.342602 -30.118084
43.868141 2.7639613 -29.821701
51.128979 -7.1160855 -29.976477
40.757187 -5.4758949 -29.978001
55.435921 -12.380169 -21.019737
40.703678 1.4920851 -29.821701
39.471806 -3.5615196 -29.978001
39.555828 -14.934923 -29.978001
50.860195 -6.2276793 -29.976585
52.680229 -14.047448 -29.975838
48.376736 2.4643519 -29.977606
45.684929 -8.9703808 -29.978001
49.637329 -13.534742 -29.977093
35.170784 -1.055115 -29.978001
51.410553 -18.328783 -29.976362
55.437416 -9.9972773 -25.387501
55.436798 -5.554697 -23.610847
40.396694 -11.903143 -29.978001
55.434898 -10.077589 -16.011612
43.927364 -4.3740649 -29.978001
51.024231 -20.872574 -29.976521
46.585976 4.1049013 -29.922958
54.54303 -2.3349016 -29.975069
55.434898 -16.727606 -16.1159
46.452682 -21.941555 -30.062553
44.433285 -8.2287884 -29.978001
39.631786 -13.59252 -29.978001
48.359524 -16.78994 -29.977617
55.435905 -3.6124024 -21.022284
44.171005 -0.50907475 -29.821697
54.855671 -12.695543 -29.974941
55.436859 2.9304385 -23.775932
55.43589 -2.0075238 -20.982525
37.693703 0.22599411 -29.978001
52.734879 -12.032547 -29.975815
48.440113 -6.0131879 -29.977583
55.43729 -13.487512 -25.013096
55.434933 -15.308488 -18.127289
43.001286 -12.600227 -29.978001
43.894798 1.7758046 -29.821697
55.434898 -6.0165548 -16.070484
55.437294 -1.297087 -25.026838
50.719879 -16.067951 -29.976646
55.438206 -19.793797 -27.667301
43.779732 -11.072474 -29.978001
41.700203 -4.3515739 -29.978001
55.435833 3.5092072 -20.809126
55.434898 -11.333113 -16.614611
36.640533 -9.4612856 -29.978003
35.230976 -0.077004433 -29.978001
55.436985 -3.08393 -24.1537
45.655785 0.74586713 -29.821699
55.434898 -4.9924021 -14.423613
55.436302 1.6636127 -22.171001
55.278599 1.4673867 -13.276508
40.454845 2.4175036 -29.821697
43.494183 -7.1915641 -29.978001
55.434975 -10.839089 -18.280132
46.140869 -18.368587 -30.075592
50.774837 -4.2559323 -29.97662
51.322239 -4.7104416 -29.976397
55.434898 -8.4615898 -17.468813
53.303223 -2.3473861 -29.97558
54.008244 -4.7900972 -29.975292
41.36784 -12.167078 -29.978001
55.435036 -5.3033037 -18.493694
55.43676 -17.896532 -23.445389
39.565948 -6.2796688 -29.978001
55.435669 -7.8154936 -20.31329
55.4361 -3.6005583 -21.585392
47.056183 2.1459255 -30.234501
41.965664 -6.2097359 -29.978001
44.045647 -16.427109 -29.978001
38.058895 -16.437603 -29.978001
55.278603 1.7979163 -13.588011
40.195847 -14.274722 -29.978001
52.558182 1.8709674 -29.975887
49.226402 -15.367988 -29.977261
55.37178 -2.3329425 -29.97473
55.434898 -12.222145 -16.3556
55.282459 -1.7960358 -13.192246
55.524837 0.7950083 -17.335606
53.629105 1.4764715 -29.975445
54.43779 -7.8612409 -29.975113
55.438202 -8.9387007 -27.668327
46.707867 -0.47706497 -30.210808
50.560863 -7.8267746 -29.976709
55.43874 -16.284079 -29.217508
55.437702 -15.137618 -26.200634
36.931919 0.62941527 -29.978001
54.922894 -1.3403274 -29.974913
47.706657 0.85854322 -29.977882
55.535583 -1.6479883 -17.340157
45.315998 -20.046616 -29.957199
55.435181 -13.696178 -18.857281
55.438164 -5.1346965 -27.548182
55.435215 -14.270748 -18.94487
35.350491 -2.85273 -29.978001
48.168266 -12.054202 -29.977695
52.627968 -10.418721 -29.975859
53.74411 -13.515454 -29.975399
55.437881 -20.664572 -26.711555
55.437035 -5.4613681 -24.290857
55.6413 -18.223885 -17.068493
55.437881 -8.5022793 -26.748434
55.437298 -3.8986344 -25.057795
41.857353 0.094675243 -29.821701
55.435036 -19.520681 -18.41333
55.434898 -16.57794 -17.431923
37.577858 -5.4161053 -29.978001
55.434898 -2.7904997 -13.392349
55.591877 -20.245008 -17.764969
55.435902 -6.1172724 -21.008474
55.436024 3.1411452 -21.363747
38.668869 0.67008233 -29.978001
47.570747 -7.29568 -29.97794
40.406261 -8.2454433 -29.978001
37.481701 -2.8040023 -29.978001
54.118538 0.69713759 -29.975245
43.58503 -5.0689182 -29.978001
55.435711 -18.259623 -20.38055
48.833298 -5.5814304 -29.977419
51.061337 -16.634893 -29.976503
51.595299 1.8295999 -29.976282
55.436829 -10.123565 -23.683464
55.438145 -3.2992516 -27.51128
55.436066 -3.0876777 -21.488222
55.435379 -17.880285 -19.417192
54.391846 -12.569005 -29.975134
55.437607 -0.92560446 -25.955231
55.436024 -12.763288 -21.337208
39.429283 -0.28207111 -30.2346
55.506596 3.2416973 -18.034807
54.702572 -4.8625989 -29.975006
55.438953 -11.803598 -29.830212
43.984138 5.2147846 -29.821697
47.832417 0.039242551 -29.977829
55.434898 -16.021931 -16.306305
55.43536 1.7838053 -19.451136
55.434898 -2.7168877 -13.776229
42.691917 -12.093757 -29.978001
43.974949 -12.120312 -29.978001
50.336662 -8.7357025 -29.976801
43.536556 -10.610372 -29.978001
53.575214 -5.0455704 -29.97547
45.525967 -4.3797159 -29.978001
39.010712 1.4918272 -29.978001
44.375496 -13.643325 -29.978001
40.850853 -13.070195 -29.978001
55.43594 -19.631626 -21.048054
55.437332 -6.4750314 -25.146862
55.434898 -5.8469868 -17.163227
55.435318 0.56016445 -19.329483
51.241051 3.8554363 -29.976429
55.435974 3.0760381 -21.207518
46.580723 1.7985137 -29.910551
55.436169 -9.6432705 -21.767811
55.435799 -15.107713 -20.651081
43.797695 4.3525109 -29.821699
55.436649 -2.356895 -23.184217
37.60231 -8.4245796 -29.978001
55.436398 -19.958467 -22.380131
45.129181 -8.0798788 -29.978001
55.437172 -1.9358253 -24.688683
49.763756 -0.43136275 -29.977036
53.170216 -13.477489 -29.975636
42.877026 -4.2975674 -29.978001
55.43771 -16.6789 -26.210888
39.484608 -4.4842424 -29.978001
55.434898 -14.743944 -15.41154
46.420742 -6.9888496 -29.978001
55.43692 -13.945524 -23.935993
42.450665 -3.6239123 -29.978001
40.090584 -9.5567398 -29.978001
55.434898 -9.0730333 -16.491354
55.435501 -17.043291 -19.76914
45.249004 -9.7711973 -29.978001
53.582932 -11.919487 -29.975464
53.090172 -9.0077248 -29.97567
55.437786 -1.5272146 -26.464022
52.857506 -13.882436 -29.975765
55.615471 -19.066771 -17.727797
55.437325 -9.9627581 -25.128746
55.437614 -18.684418 -25.937841
47.860943 -20.346949 -29.977823
55.434898 -4.2869768 -15.437017
55.434898 -6.7767167 -14.410284
52.879364 -13.151741 -29.975756
55.278595 1.6040455 -14.708633
55.436722 -10.175651 -23.379072
46.928185 -18.560966 -30.184401
55.438808 -8.8369141 -29.421101
49.371368 -2.9107459 -29.977198
55.436626 -8.3673344 -23.099487
55.436195 -16.427097 -21.800583
55.434898 -4.8562636 -13.669481
41.754318 -20.484091 -29.957201
49.415615 -15.300768 -29.977184
55.436909 -4.3642712 -23.923555
55.434898 -4.9422388 -14.784783
47.374687 -4.9039383 -29.977999
49.891014 -14.971601 -29.976988
55.438732 0.91248202 -29.200287
43.722622 -16.305088 -29.978001
55.43692 1.2949013 -23.958122
55.102242 -9.347271 -29.974842
42.446518 0.82324314 -29.821701
40.118122 -2.9172282 -29.978001
55.436218 -10.495529 -21.901651
55.43882 -18.100447 -29.42391
55.435127 -0.70764768 -18.777861
54.805862 2.3607087 -29.974962
55.435787 -5.7873325 -20.671234
42.905186 -20.250851 -29.957199
43.669247 -16.404198 -29.978001
41.53323 -14.743461 -29.978001
42.811699 -7.5481291 -29.978001
46.806297 -12.818592 -29.978001
55.437183 -20.034145 -24.678282
55.438736 0.90936685 -29.213968
44.539272 -17.982113 -30.184399
46.138901 1.9160738 -29.821699
55.437111 -3.5675032 -24.509706
55.438843 -11.543939 -29.527317
45.646194 -4.5109282 -29.978001
55.437817 -8.6625166 -26.554104
44.634613 -17.091021 -29.978001
41.884338 -14.494397 -29.978001
55.278595 2.8796167 -16.054377
40.89502 -22.305464 -29.957199
47.905239 -13.528061 -29.977802
49.196999 0.13053507 -29.977268
50.22937 -3.6725605 -29.976845
38.397358 -16.8943 -29.978001
55.341873 3.6229162 -17.258102
49.780689 -4.4498539 -29.977032
55.434898 -4.3115253 -15.388868
52.983021 -8.6736526 -29.975714
38.119644 -12.356181 -29.978001
49.358768 1.201664 -29.977201
48.923805 -13.148381 -29.977385
51.981571 -7.0381308 -29.976124
55.437977 -1.9260074 -27.006531
48.407021 -2.4074807 -29.977592
49.49004 -3.1062417 -29.97715
42.719261 -1.0805602 -29.821697
42.744125 1.9871914 -29.821701
55.43885 -8.520483 -29.542953
55.436485 -5.6989651 -22.701494
55.435913 -7.613369 -21.035925
51.311485 -11.673388 -29.976402
45.152908 0.71933186 -29.821699
55.434898 -6.9351745 -15.581857
43.002205 -21.350752 -29.957199
43.312904 -1.7057993 -29.821699
55.437656 -3.2738006 -26.088251
46.780437 -20.869692 -30.184401
52.002842 -18.034735 -29.976116
55.434898 -12.428823 -16.176153
53.204414 0.034720778 -29.97562
55.436699 1.3302526 -23.318033
46.752388 -17.489746 -30.03401
47.27964 -15.898321 -29.978001
55.437405 -2.3223648 -25.366844
39.795357 -7.8345885 -29.978001
55.435394 -16.454502 -19.471064
45.777222 -10.693439 -29.978001
55.104607 -2.2836206 -29.974838
55.438194 -16.617918 -27.632986
52.512714 -19.365355 -29.975906
53.3503 -5.7977505 -29.975563
55.43576 -12.070661 -20.555456
55.641304 -19.063774 -17.508739
41.498356 -21.789978 -29.957199
43.59449 -12.601229 -29.978001
38.526726 -8.9754505 -29.978001
49.808666 -17.009817 -29.977022
41.58532 4.309011 -29.821701
55.434898 -11.074174 -15.83832
55.434898 -6.3163748 -15.123559
46.137596 -17.633953 -30.125536
53.328632 -6.7318401 -29.975571
55.435997 -8.5320807 -21.267019
55.434898 -9.51577 -17.918583
55.434898 -13.756769 -15.868768
55.437786 0.41290259 -26.461912
39.93766 0.13727164 -29.899281
49.552124 -9.2955093 -29.977125
55.434898 -7.2353373 -15.812584
52.940521 2.8880181 -29.975729
55.436142 -18.029799 -21.646927
55.438896 -15.993392 -29.681536
49.406494 -8.1267004 -29.977186
44.061333 -2.5502961 -30.097088
55.434898 -8.6173248 -16.561483
50.998016 -2.994596 -29.976526
55.435921 -0.72081697 -21.062765
55.520477 1.6882646 -18.020889
55.438866 -6.7019024 -29.58692
55.434898 -5.0410447 -17.639952
54.039017 -15.830998 -29.975279
39.165813 -13.653289 -29.978001
55.437393 -17.51759 -25.272806
55.437454 -18.161144 -25.461601
41.959663 -8.3749714 -29.978001
44.638771 0.68965042 -29.821701
55.435688 -20.402998 -20.318317
50.043518 -4.8831425 -29.976921
50.10881 3.3734417 -29.976894
43.520798 -6.8221483 -29.978001
45.05674 -0.44061136 -29.821699
47.824074 -8.5701008 -29.977837
44.532543 1.5184416 -29.821697
41.122597 -1.2734573 -29.821699
38.714905 2.0872209 -29.978001
39.359997 -13.143565 -29.978001
55.436089 -13.643773 -21.506916
55.435623 -5.4916406 -20.203358
55.438759 -4.2065663 -29.283026
55.434898 -4.4864388 -16.860939
40.331406 -16.731836 -29.978001
55.145927 -3.0920913 -29.974819
55.278599 -0.91048068 -16.267487
55.437492 -1.1744548 -25.62092
41.559792 -2.1158404 -30.234575
55.438759 -11.461315 -29.270588
55.438778 -0.39494407 -29.334879
55.438744 1.5768688 -29.235699
42.658195 2.0088587 -29.821701
45.905327 -5.252017 -29.978001
46.42252 -1.4658782 -29.821699
55.436905 -14.035847 -23.882013
49.322613 -8.5620584 -29.977219
55.437027 -20.380196 -24.225807
51.710529 0.48784733 -29.976234
48.903412 1.8259383 -29.97739
55.438377 -4.0205431 -28.17799
55.434898 -5.9972868 -15.269506
55.437378 -19.385094 -25.244644
46.477825 -1.7955785 -29.824482
50.515656 -19.241106 -29.97673
48.921185 -16.969912 -29.977386
54.083469 -20.67733 -29.975332
55.43856 -9.6468582 -28.709112
55.43676 -9.7230473 -23.502459
53.655464 -10.755988 -29.975437
55.438938 -13.84161 -29.79565
39.088017 -10.868984 -29.978001
55.437485 -2.8999112 -25.582197
47.977577 -8.5185146 -29.977772
55.438248 0.051301241 -27.803549
55.437466 -10.046563 -25.540459
48.721653 3.4209213 -29.977465
36.222931 -0.44366837 -29.978001
55.43792 -4.2985153 -26.846672
55.435997 -12.490404 -21.247276
55.437763 -18.417301 -26.373405
55.435032 -1.1508522 -18.496031
44.640179 -20.624022 -29.957199
55.434895 -5.7872171 -17.742012
55.43758 -1.4612761 -25.856598
41.689659 -16.036715 -29.978001
54.873398 1.9085941 -29.974936
47.84333 2.1170638 -29.977825
55.434898 -4.0911484 -14.669672
38.737541 -19.860161 -29.978001
55.437805 -10.982835 -26.508495
55.437401 -1.5270703 -25.355459
55.437866 -16.9781 -26.665659
55.278599 0.47501412 -16.909285
38.601292 -14.193525 -29.977999
39.85762 -21.101721 -30.184399
46.008259 -6.4634743 -29.978001
42.210472 -0.17610121 -29.821697
50.055004 -13.909032 -29.976919
55.439392 -19.523661 -29.712233
49.251839 -3.7803624 -29.977247
55.436504 -17.249578 -22.694256
52.460808 -21.431641 -29.975927
55.436905 -18.085014 -23.857944
55.438904 -19.49633 -28.971878
46.047478 -1.6762267 -29.821697
55.434895 -13.544328 -17.766043
55.186848 -2.7026415 -29.974806
54.223972 -0.37803316 -29.975201
38.380646 -14.839167 -29.978001
55.434898 -7.5965528 -17.943827
52.76799 -8.8053532 -29.9758
55.435265 -8.0291729 -19.131908
44.17321 -4.5203614 -29.978001
40.855087 1.33499 -29.821701
55.437115 -11.596752 -24.513445
52.556271 -19.276056 -29.975889
41.123734 -13.544319 -29.978001
47.076145 3.1100373 -30.234501
38.87772 -16.013872 -29.978001
55.437172 -18.693668 -24.643797
53.263275 -4.5805721 -29.975597
44.508759 -7.8028531 -29.978001
55.437759 -17.278002 -26.364429
55.43618 1.8850782 -21.819649
54.676613 -0.984658 -29.975014
49.963959 -10.170637 -29.976955
49.482414 -10.609679 -29.977154
49.119976 0.7865575 -29.977303
37.997772 -15.549795 -29.978001
39.618347 -5.4632959 -29.977999
55.438301 -5.3680062 -27.954025
49.862171 -19.552931 -29.976997
55.434898 -10.066549 -15.103939
55.435947 -2.4018939 -21.140274
55.438187 -4.181428 -27.605213
55.43734 -18.55217 -25.133541
55.436752 -5.5968819 -23.466803
55.435253 -18.489838 -19.047247
55.434898 -11.471724 -14.902458
55.310394 -21.326546 -29.97504
54.741146 -0.4296453 -29.974987
52.119179 -3.9530847 -29.976068
46.795933 -14.318339 -29.978001
55.437431 -6.9507136 -25.435001
36.717258 -10.097826 -29.978001
55.437996 -4.0958853 -27.078651
55.577301 -18.203377 -17.787931
50.659218 -5.8298597 -29.976669
55.434898 -13.886523 -15.45623
43.880157 -13.839664 -29.978001
55.680733 -1.9647388 -15.754107
55.438145 -19.168093 -27.478567
55.278599 1.8257403 -16.118084
55.437359 -16.222828 -25.197609
55.434898 -5.9387422 -14.591345
55.436638 -10.369899 -23.128197
44.832771 -13.187221 -29.978001
55.434898 -9.5732136 -16.02619
53.146385 -14.31345 -29.975645
55.434898 -12.855 -15.141598
55.434902 -13.772548 -17.479759
55.434898 -6.5006447 -17.719267
53.169369 -1.8285981 -29.975636
38.6548 -2.4586601 -29.978003
55.438919 3.3865275 -29.746012
35.508183 -3.7098341 -29.978001
49.720787 -9.9167385 -29.977057
43.98288 -16.665983 -29.978001
55.434898 -10.064314 -15.929895
38.033211 -9.192358 -29.977997
50.451859 -13.141646 -29.976757
55.43684 -16.686216 -23.693819
55.437916 -6.9432487 -26.849216
55.436897 -3.6612163 -23.883141
47.722408 3.9328525 -29.977875
42.802502 5.0400372 -29.821701
48.366211 -2.1095514 -29.97761
55.438377 -7.418777 -28.180931
42.456364 -5.0850153 -29.978001
43.136497 2.1035614 -29.821699
55.288185 1.7092739 -17.235361
55.278603 -1.2972634 -13.291231
55.278599 3.2004857 -16.252619
55.438145 -13.860221 -27.490305
46.736523 2.0902524 -30.234501
50.351631 -0.9629451 -29.976795
39.232544 -18.796413 -30.005264
45.904613 -22.006784 -29.957197
38.058929 -3.2200966 -29.978001
55.43716 1.0297551 -24.656374
42.625702 -5.9007812 -29.978001
55.43634 -11.964244 -22.263424
55.436508 -20.799084 -22.70826
37.668808 -11.851612 -29.978001
55.438225 0.70739508 -27.73876
55.437424 -0.19897151 -25.416571
55.435432 -17.644234 -19.567238
55.438438 -12.954394 -28.347094
55.435722 3.2510366 -20.495312
55.284473 -18.390331 -29.974819
48.5434 -6.2190471 -29.977539
39.233051 -18.054779 -30.005585
50.191116 1.2038214 -29.97686
55.437878 -17.910948 -26.697088
55.436081 -18.909208 -21.458485
48.527565 -13.001693 -29.977549
55.435013 -15.279121 -18.364201
49.16748 -16.347271 -29.977285
55.437569 -7.3192573 -25.834541
49.966103 -14.558725 -29.976957
46.796471 -20.765015 -30.184402
55.434898 -7.5673113 -15.776947
38.333633 -16.640583 -29.978001
55.438545 -5.3465357 -28.661446
55.634384 -18.563944 -17.69799
55.436211 -19.892628 -21.842197
55.436363 -1.3305802 -22.351194
51.124573 0.29152954 -29.976477
55.438759 -12.165512 -29.279217
52.058205 3.6591797 -29.976091
55.434978 -1.0849341 -18.342144
54.57605 -2.56303 -29.975056
55.436337 0.48149371 -22.266548
46.69014 4.1885767 -30.168951
55.436901 -2.8753674 -23.900616
55.438843 -6.4379802 -29.513311
55.278603 -1.6996694 -16.510387
38.187126 -11.543719 -29.978001
52.995598 -19.732712 -29.975708
55.584106 -1.9894603 -17.957085
55.438484 -2.2582698 -28.477888
55.434898 -5.4389939 -14.350807
45.095753 -2.0366158 -30.234526
46.690784 0.17408121 -30.170471
49.391769 -13.784585 -29.977192
46.043388 -7.9797072 -29.978001
55.434898 -5.5717926 -13.872168
55.435432 -12.33997 -19.603138
40.123878 -14.167015 -29.978001
47.293777 -8.1469641 -29.978001
43.162003 -12.58281 -29.978001
55.434898 -12.107174 -17.148956
55.278595 -0.82838881 -14.312011
55.434975 -9.2715111 -18.284618
55.435211 -17.274611 -18.921911
55.278599 -1.4476269 -14.709495
44.266426 -0.98750401 -29.821697
55.435535 -12.430984 -19.909323
55.435837 -13.035749 -20.772028
55.437553 -7.9236698 -25.79018
36.766243 -6.6899223 -29.978001
47.04813 -16.960258 -29.978001
55.437756 -16.279985 -26.354729
54.096516 -6.3876705 -29.975256
38.526184 -4.4761448 -29.978001
44.448883 -6.6633477 -29.978001
55.436852 -13.335182 -23.736725
43.785194 -1.5975906 -29.821701
42.134876 -8.293396 -29.978001
51.816948 -4.3331318 -29.976191
55.434898 -16.617104 -17.805189
55.434898 -7.0465655 -17.253956
47.924454 -0.86077726 -29.977793
55.43832 -18.677895 -27.987123
46.835857 -9.472641 -29.978001
44.497238 3.2820151 -29.821699
48.976181 3.5467539 -29.97736
55.436504 -9.4168606 -22.752941
55.435436 -16.687048 -19.582649
55.435143 -5.0413942 -18.811598
42.842472 -3.2064157 -29.978001
50.46328 -10.667512 -29.976749
37.80732 -11.110972 -29.978001
55.434898 -8.5472727 -16.130867
41.236656 -4.852231 -29.978001
55.437733 -11.88635 -26.300129
55.278599 0.43380052 -15.612609
55.436012 -2.0519137 -21.320122
55.436935 -5.0135241 -24.005478
55.438953 -2.2153752 -29.846186
55.438553 -9.9335394 -28.688498
55.434898 -14.797799 -15.996299
55.436119 -9.8873281 -21.620598
55.438972 -15.441181 -29.894823
55.438377 -9.7724094 -28.178249
