# .PCD v0.7 - Point Cloud Data file format
VERSION 0.7
FIELDS x y z
SIZE 4 4 4
TYPE F F F
COUNT 1 1 1
WIDTH 1552
HEIGHT 1
VIEWPOINT 0 0 0 1 0 0 0
POINTS 1552
DATA ascii
55.448677 -25.424227 14.564569
55.434898 -30.731377 10.55405
55.434898 -37.344765 15.441545
54.778862 -48.253098 -1.6556778
55.4534 -30.204344 3.8850865
54.778358 -46.714119 1.930666
55.435993 -37.789299 -5.434515
55.434898 -33.949692 -7.2243371
55.434898 -30.41507 -3.8938067
55.434898 -32.678856 -2.5071206
54.77914 -48.576706 -3.6714697
54.776196 -45.38028 17.567772
54.779213 -47.061928 -4.1620703
54.777409 -44.50753 8.7822676
55.434898 -28.513094 10.856863
55.4534 -34.134888 2.0650575
55.490139 -28.5327 15.653345
54.776188 -38.69191 17.595102
55.414101 -27.019049 18.25186
54.778854 -39.479012 -1.6181679
55.4534 -26.506699 6.5215378
54.776627 -40.914986 14.416273
55.434898 -33.726292 -8.238059
54.778648 -43.352921 -0.15957069
55.074375 -38.27129 8.0535154
55.434898 -37.956959 14.015797
55.640064 -37.053299 1.9096826
55.434898 -32.019417 -5.7877893
55.4534 -26.112694 1.4194381
54.777405 -48.534534 8.7988691
54.779274 -40.027199 -4.6347785
55.434898 -33.686905 13.812616
55.4534 -34.501663 5.7551951
54.778061 -40.498802 4.0924826
55.453396 -30.526733 -0.02344358
54.776566 -42.462681 14.848597
55.473095 -32.529106 -0.65357757
55.4534 -35.196533 0.38651216
55.661903 -31.624634 9.0448189
55.4534 -31.072966 5.0074043
54.778656 -46.939587 -0.21153164
55.434898 -29.164103 14.363698
54.777283 -41.79673 9.6886339
54.778946 -42.125172 -2.2885041
55.434898 -34.918983 17.001392
55.434898 -28.324371 -3.6164703
55.434898 -35.010342 10.666439
54.77916 -42.784225 -3.8195276
55.434898 -28.231703 13.114214
55.4534 -28.133219 0.092573673
55.434898 -29.814787 12.133319
55.434898 -35.145596 11.044718
55.434898 -34.594856 -6.3828745
54.778763 -45.561279 -0.98475838
54.77829 -40.758209 2.4433041
55.434898 -29.42733 -2.1214504
54.77774 -38.584023 6.409214
55.6413 -27.61278 15.421561
54.777328 -40.513062 9.3726368
55.434898 -27.389175 10.183629
55.434898 -27.324108 -4.1709075
55.414101 -28.396412 18.614199
54.77866 -46.007416 -0.22192383
54.777946 -46.577953 4.8900814
55.6413 -31.084946 16.94421
54.777985 -39.257423 4.6280289
54.776901 -45.092896 12.428493
54.777901 -48.428932 5.2406292
55.434898 -30.599951 10.525041
55.407265 -38.021809 6.0652108
55.434898 -35.825268 -6.8578715
55.641296 -30.226326 15.23158
55.434898 -33.986366 -5.9251366
55.414101 -22.841669 16.421974
54.778557 -40.699703 0.50977135
54.776382 -39.678036 16.158169
55.434902 -23.528545 11.797912
55.453403 -24.02696 8.2874804
54.778507 -48.450966 0.8667984
54.780003 -40.558857 -9.888361
55.591496 -37.099556 8.1157932
55.434898 -32.57576 -7.5698099
55.34444 -38.06889 15.674424
55.641296 -22.073174 15.482556
54.778973 -38.975899 -2.4655113
55.434898 -28.180386 10.934343
55.453403 -22.935715 8.4114361
55.434898 -32.60157 18.470087
54.776562 -43.067417 14.858076
55.434898 -21.110868 14.109219
55.434898 -29.073521 -7.2157917
54.777916 -47.248047 5.1500216
55.4534 -29.937105 0.88122904
55.414097 -26.303886 18.781782
54.777821 -45.540352 5.8195868
54.778847 -38.556625 -1.59231
55.434898 -35.019775 18.849812
55.414101 -27.812729 16.752449
55.4534 -24.0723 4.6306648
54.777702 -48.426239 6.6911974
54.778221 -38.956089 2.9564562
55.434898 -35.532845 -5.5758533
54.779797 -47.993828 -8.3958998
54.779755 -40.248978 -8.1037722
54.776474 -43.231533 15.516346
54.779175 -40.129734 -3.9030838
55.453396 -31.312733 8.5944624
55.434898 -33.81015 16.57555
54.776131 -42.838837 17.983246
55.434898 -37.442215 -1.710166
55.4534 -31.088905 3.8497767
55.434898 -30.262815 -7.1597829
54.777287 -45.965805 9.6594391
55.434898 -30.818487 12.394305
55.414101 -25.121059 18.785467
55.4534 -25.078798 -0.044988468
55.434898 -34.520061 -2.2412384
54.777786 -40.775517 6.0751643
55.434898 -36.854294 10.707322
54.779236 -47.460289 -4.3417063
54.778137 -46.447792 3.5466375
54.77636 -40.504955 16.313414
55.436283 -37.912247 -5.9874229
54.779648 -43.335514 -7.3205795
54.779461 -40.880943 -5.9673357
55.434898 -33.007862 -2.0752244
54.776737 -44.900028 13.613816
55.4534 -27.499825 6.1089792
55.4534 -32.325153 8.3889494
55.480774 -36.150894 4.1457181
54.776474 -40.473202 15.518822
55.4534 -25.794861 8.1450291
54.779572 -40.040298 -6.7927155
55.434898 -30.163185 -2.3969967
55.434898 -22.551407 12.396963
54.777931 -47.641281 5.0260811
55.4534 -27.165562 7.7166147
55.434898 -27.869637 -2.0854762
54.77924 -39.822838 -4.4095736
55.436161 -37.01746 -7.7638369
54.778885 -41.360771 -1.8303747
55.434898 -28.522717 13.206297
55.434898 -34.667206 -3.1538837
55.434898 -33.506306 11.713428
54.77639 -43.286045 16.128897
55.4534 -24.994583 6.4777851
54.777821 -39.560337 5.8126392
54.778748 -45.770882 -0.86953735
55.478058 -35.678921 8.7830448
55.434902 -32.277016 17.399096
54.778683 -41.557667 -0.39220095
55.434898 -37.979942 8.3391199
54.776852 -48.14547 12.771862
55.4534 -30.224478 8.3648205
55.4534 -30.940418 6.6801515
55.434898 -32.985683 11.515898
55.414101 -30.745853 17.935909
55.414101 -25.528755 17.136251
55.434898 -21.874012 11.018989
55.434898 -37.232246 -2.9081056
55.4534 -31.344889 6.7418928
55.641296 -29.328758 15.307745
55.434898 -30.404938 -2.2336321
55.4534 -28.25441 8.3487701
55.414101 -26.18541 15.857579
54.776779 -44.11314 13.310016
54.777565 -41.861477 7.6450605
54.777245 -40.84864 9.9738159
54.779884 -40.678043 -9.0595455
54.777611 -44.372341 7.3354626
54.775978 -42.618546 19.076561
55.4534 -32.682529 8.0776196
54.778854 -41.142071 -1.6529508
55.414101 -24.42359 15.844177
55.4534 -34.261898 4.1248274
54.777321 -40.44059 9.4109516
54.778488 -46.722519 1.0153122
54.777016 -47.263702 11.601702
54.776428 -40.731514 15.817807
55.644257 -36.30434 7.2033262
55.434898 -29.702358 10.594218
54.779808 -39.883286 -8.5027924
54.777374 -38.613281 9.0154104
54.776196 -41.976707 17.540396
54.776314 -42.018841 16.686909
54.779198 -43.89743 -4.1045427
55.434898 -21.847004 13.439111
55.4534 -30.536764 1.0022504
55.453403 -33.544048 8.0589027
55.6619 -36.321732 1.5027864
54.778259 -46.606514 2.6449509
54.777042 -44.286209 11.395972
55.4534 -24.889418 7.7899694
55.434898 -37.433563 -2.7407072
55.4534 -27.442005 -0.056879252
54.779434 -47.977974 -5.7952213
55.434898 -31.046627 -4.2158833
55.6619 -33.577354 9.245388
54.777782 -45.088482 6.0917978
54.777538 -42.215752 7.8532128
55.6413 -27.926413 15.030061
55.434898 -25.67062 10.647391
54.778561 -40.215363 0.48758221
55.042999 -38.296227 -7.209353
55.434898 -34.80072 18.396042
55.434898 -31.776815 -1.8516939
54.7784 -47.762234 1.6244431
55.435574 -37.812099 -4.1603193
54.777809 -45.512634 5.8745117
55.434898 -29.979315 -2.5102029
55.4534 -35.172031 2.263639
55.434898 -31.366943 -3.707927
55.6413 -27.52478 15.084173
55.434898 -37.739964 18.376801
54.777866 -47.883595 5.4864578
54.776917 -39.108986 12.348629
55.434898 -37.842209 3.4727991
55.434898 -32.660358 -5.657752
55.4534 -35.694267 -0.16869174
55.434898 -37.797077 -1.7343867
55.4534 -31.515951 -0.52284127
55.434898 -26.471497 -4.6804028
54.779995 -39.183731 -9.8270874
55.403008 -38.024998 14.713329
55.4534 -26.579636 -0.58318472
54.778854 -40.337811 -1.6062784
55.434898 -35.34127 16.035679
55.434898 -26.713461 -5.9276943
55.4534 -29.153419 7.0689716
55.434898 -30.412582 -3.9295597
55.43499 -34.845287 -9.5422039
55.434898 -25.266926 13.807256
54.779533 -44.900967 -6.4998274
55.434898 -35.957016 17.196222
54.778194 -46.223396 3.1221123
54.776997 -41.965805 11.769876
55.4534 -25.874973 2.1335764
54.776833 -38.6096 12.934112
55.4534 -25.507881 0.50891244
54.77993 -45.376518 -9.3699121
54.778408 -46.985531 1.5985794
55.434898 -28.834829 14.400483
55.115402 -38.241035 -3.6086175
54.778236 -39.618328 2.8145008
55.434898 -35.362465 15.20861
55.434898 -32.688812 -9.396244
54.775997 -41.132103 18.957527
55.4534 -26.847935 2.5674956
54.778488 -45.778435 1.0353603
55.4534 -31.58149 1.1890985
54.77718 -39.448128 10.429134
54.779137 -47.071487 -3.642231
55.49192 -33.404404 9.8291721
54.779179 -40.64098 -3.9659505
55.4534 -34.113083 2.7913668
55.414101 -20.751442 15.750914
55.414097 -21.668228 16.609169
54.776443 -45.17849 15.737373
55.4534 -32.596073 2.0937905
55.661896 -35.29007 9.5032663
55.434898 -27.431471 -2.0471716
54.778885 -46.059731 -1.8325357
55.434898 -33.258183 -9.6757774
55.434944 -35.482754 -7.8955107
55.4534 -35.02029 8.1959829
54.77985 -43.25042 -8.7845402
54.778473 -45.432823 1.0968761
55.434898 -29.249428 -3.4369502
55.434898 -37.191666 13.036576
54.777081 -39.215473 11.140235
55.4534 -34.666855 2.2451646
54.776863 -38.568386 12.706039
55.4534 -26.243183 4.4415145
55.4534 -25.683592 8.1946125
55.6413 -23.348881 15.363144
54.777916 -43.056896 5.1183767
55.434898 -28.157398 -4.098176
55.434902 -35.092369 -4.5811996
55.4534 -28.200977 4.8734484
55.4534 -31.562168 8.6390276
54.778442 -47.477165 1.3677053
55.434902 -27.058289 -3.5282087
55.434898 -29.672909 -8.8548069
55.6619 -36.336903 4.3812079
54.778587 -44.544754 0.32083607
55.434895 -33.642654 12.602531
55.414101 -28.421068 16.199183
54.778641 -39.223389 -0.065834999
55.434898 -29.974518 -7.9937863
55.434898 -29.164011 -2.8688359
54.776794 -41.809013 13.206483
54.779419 -41.128819 -5.6992159
54.779854 -46.043987 -8.8267546
55.4534 -24.095078 8.620553
55.434898 -26.626812 14.351731
54.778271 -39.194828 2.562438
55.4534 -30.18512 2.6756678
54.778099 -45.526672 3.7954206
55.4534 -27.817482 2.9437323
55.434898 -32.204395 17.678633
55.414101 -27.3871 19.008957
55.4534 -30.14957 3.2615724
54.779804 -40.307323 -8.4501133
55.434902 -29.631811 -8.958807
55.434898 -35.072166 17.785378
55.434898 -36.770531 10.011115
55.4534 -32.796349 -0.40534639
54.776463 -41.391716 15.611137
55.615089 -36.276966 5.2095752
54.776093 -47.252625 18.269249
55.414097 -26.609604 18.578735
55.434895 -31.248999 14.291239
55.444767 -37.239296 9.2036638
55.434898 -30.201866 -3.3383765
55.414101 -24.364979 17.886864
55.4534 -26.688541 2.8544917
55.434898 -31.376308 -6.1421943
55.436584 -36.985645 -9.0673227
55.520981 -28.480839 15.623992
55.434898 -34.301388 12.243134
55.414101 -27.011524 18.893728
55.434898 -35.415173 14.440939
55.661903 -36.633987 1.118432
55.4534 -30.862713 4.2549896
55.434898 -35.840641 -6.3799973
55.434898 -35.256302 -2.4779983
55.434898 -35.351685 16.395555
55.4534 -27.032803 8.2839241
55.600601 -24.773933 14.829998
54.776989 -39.223282 11.804149
55.434898 -34.889961 14.397453
54.778275 -44.622711 2.5451822
54.778011 -41.489334 4.4527254
55.434898 -35.813366 -5.911665
55.4534 -29.215534 0.650612
55.6619 -32.015438 -0.88801521
54.776375 -43.940178 16.216515
55.434898 -33.527691 19.071096
54.775993 -43.536568 18.943209
54.778797 -40.803055 -1.2357202
55.434898 -26.838856 -4.4122181
55.434898 -27.260283 11.461692
55.4534 -29.452204 8.5127621
55.434898 -31.613207 14.127533
55.434898 -31.321814 -3.6732988
54.778687 -43.767075 -0.4020319
54.776741 -40.506886 13.611683
55.453396 -30.065817 2.2619743
55.434898 -27.080667 -3.7565596
55.475929 -33.959656 -1.7195209
54.778831 -38.705101 -1.4349318
55.434898 -32.910263 -8.0927477
55.4534 -32.188717 5.1623154
55.4534 -23.580811 4.7711415
55.4534 -35.890816 8.1301155
54.777016 -47.908726 11.632047
55.4534 -29.87738 3.4176114
54.77779 -45.407402 6.0561829
54.776615 -43.457642 14.501178
55.434898 -28.482647 -4.7498245
55.181503 -38.192039 -5.7258635
55.434898 -27.898012 10.657293
55.434898 -26.727118 12.217233
54.779373 -44.088074 -5.3772907
55.4534 -24.097195 2.9756043
55.434898 -30.794674 -4.6775732
55.4534 -31.200319 6.1710987
55.013321 -38.317047 14.679916
54.979431 -38.343971 -7.5970011
55.434898 -36.486221 -4.1139078
54.779312 -45.717323 -4.9195356
54.779839 -44.336182 -8.7067537
54.778503 -43.603966 0.89187431
55.4534 -35.751167 6.9702435
55.538132 -36.204731 1.1849874
55.434898 -22.593494 10.493322
54.776463 -43.026558 15.597389
54.777809 -42.101887 5.9096794
55.147408 -38.216553 0.74840671
54.77932 -39.629219 -4.9735165
55.453392 -28.793728 0.12152189
54.779251 -46.961365 -4.519249
54.776623 -44.030643 14.432741
55.445229 -37.238857 3.2435322
55.434898 -36.489807 11.079823
54.779411 -40.315487 -5.6475549
55.434898 -31.142056 -5.0980434
54.779995 -42.386524 -9.832921
54.776447 -40.981995 15.707767
54.778656 -44.745209 -0.21909046
55.4534 -26.397369 7.1052618
55.394138 -38.031647 7.8463917
54.778751 -41.418587 -0.88571501
54.778557 -46.45657 0.50199032
55.434898 -26.306622 -3.3358459
55.414101 -26.872334 16.165073
54.779045 -47.914291 -2.9897528
54.778706 -40.334496 -0.57428646
54.776802 -42.565868 13.162764
55.434898 -37.996841 6.4468069
54.776352 -47.657101 16.405914
54.779873 -44.002907 -8.939786
54.778725 -38.598728 -0.68733883
54.778698 -41.601013 -0.50417709
55.4534 -33.11832 -0.30671915
55.4534 -31.7687 5.6340775
55.414101 -27.243933 17.634346
55.4534 -24.716679 3.8914089
54.779449 -40.981159 -5.885129
55.4534 -25.405743 1.0250839
55.434898 -35.161049 18.640587
55.485168 -26.396927 15.658073
55.434898 -30.825912 -3.9942756
55.4534 -31.698162 7.3731556
54.777939 -46.277245 4.976346
54.77663 -41.218758 14.411877
55.434898 -25.82172 10.480587
54.777065 -47.713711 11.278056
55.566887 -25.7159 14.77109
55.434898 -28.131628 -3.804565
55.579247 -29.530621 -0.75316083
55.434898 -31.89253 -9.3877516
55.434898 -27.847767 -8.6061468
54.778557 -44.717068 0.5030365
54.77932 -44.437164 -4.965023
55.434898 -24.762501 13.582346
55.4683 -36.139183 6.2163782
54.776413 -44.893742 15.939747
55.434898 -29.357849 -2.5181193
55.6413 -31.417889 16.217243
54.779755 -41.525143 -8.1262379
54.776405 -40.723698 16.013571
55.399624 -38.027534 0.48806369
54.778053 -44.846916 4.1512041
55.434898 -33.94989 12.966536
54.778732 -44.825836 -0.73838711
54.777565 -39.351341 7.6662664
55.50708 -29.661741 -0.68545705
54.779343 -42.224594 -5.1371508
54.779606 -42.248466 -7.0370665
54.798786 -38.477829 8.8382483
55.6619 -36.923035 2.1565208
55.588135 -35.136261 -0.76149833
55.4534 -34.013851 -0.56424516
54.77803 -45.145653 4.3194456
54.776539 -47.179184 15.053912
55.414101 -28.598255 17.500259
55.4534 -26.677906 0.9585892
54.777863 -46.871544 5.5057144
54.7798 -39.266338 -8.426939
55.6413 -30.941469 15.375607
54.777222 -43.940014 10.128606
55.166115 -38.202534 4.2443542
55.092682 -38.258759 -6.2974687
55.434898 -32.740116 -4.1470871
55.430401 -38.00478 -2.9502506
55.4534 -31.238205 7.2523251
54.777618 -47.720222 7.2529488
54.777279 -39.023151 9.7284107
55.434898 -31.061459 -9.0808363
55.434902 -32.198631 14.286288
54.777637 -42.951401 7.1314287
54.77924 -39.493874 -4.3710279
55.661896 -28.569967 9.0722942
55.4534 -32.843719 5.7036638
54.77681 -44.225056 13.109495
55.4534 -28.294538 7.6670074
55.4534 -34.115833 1.1613629
54.778923 -47.048012 -2.0841255
55.434898 -30.099493 -6.1129909
54.779568 -39.094933 -6.7660341
54.777557 -38.867199 7.6894588
54.778244 -39.216553 2.7663555
54.776337 -40.18824 16.511007
55.4534 -34.542107 1.030015
55.436089 -36.777477 -8.1237078
54.77832 -39.374844 2.211092
54.778431 -44.458294 1.4303379
54.779301 -47.570854 -4.844738
55.4534 -24.984892 1.8388933
55.434898 -26.733582 -3.2193244
54.779388 -43.943279 -5.4760065
54.778305 -47.843578 2.3417053
55.4534 -27.346199 2.0153539
55.4534 -26.470907 -0.24331294
54.778633 -40.035728 -0.04053688
55.434898 -32.129066 -8.3554993
54.779247 -43.550491 -4.4433594
55.434898 -30.78336 13.237778
55.434898 -31.846712 -5.2616038
54.778397 -48.367825 1.6497593
55.434898 -27.687115 -3.5656366
55.4534 -34.429729 6.6384273
55.6619 -36.944317 4.6363564
54.779373 -44.031971 -5.3608236
54.776958 -38.964207 12.048024
55.4534 -27.641453 4.6858578
55.434898 -28.173985 12.442744
55.434898 -34.461933 -2.6052859
55.434898 -32.409409 13.295958
55.434898 -34.985622 11.508491
55.434898 -27.682064 -5.1196241
55.434902 -37.824135 11.700871
55.414101 -24.855377 17.330194
55.4534 -33.515041 4.2474484
54.7799 -44.01701 -9.1545553
55.434898 -33.022903 11.375382
55.641304 -24.80859 15.029228
54.778397 -44.872917 1.6560965
54.778259 -39.996922 2.6610222
55.43708 -37.59631 -9.0544872
55.434895 -33.574997 -3.8181062
54.779049 -45.964722 -3.0161018
55.435234 -36.580528 -6.110981
54.778072 -46.443779 4.0110378
55.434898 -33.792698 18.829315
55.414101 -24.451996 17.73744
54.778458 -46.928436 1.2136488
54.77861 -45.421577 0.14357567
55.4534 -25.264311 0.1498251
54.776608 -45.672085 14.563486
54.778107 -44.545025 3.7440052
55.414101 -30.745802 17.019735
55.661903 -36.795822 0.39303559
54.778458 -38.770035 1.2142668
54.779808 -47.511108 -8.4945354
54.777054 -42.76812 11.345123
55.434898 -28.994223 11.673215
54.779564 -48.25732 -6.7375546
55.6619 -25.934555 -0.86768174
55.4534 -33.577812 0.49613822
54.77697 -43.733131 11.963537
55.4534 -32.901485 5.3900723
55.4534 -32.140251 4.2573991
54.778717 -47.264263 -0.66101742
54.779182 -43.623497 -3.9861727
55.434898 -26.568314 14.301498
54.779583 -44.539608 -6.8692493
54.777622 -42.565659 7.2444715
55.661903 -33.762405 9.4557056
55.6619 -34.263935 -1.4534684
54.872448 -38.422665 -1.801944
55.16251 -38.205238 0.83082014
55.4534 -25.901302 4.4119034
55.4534 -30.188404 6.9272819
54.778854 -48.620705 -1.634387
55.434902 -37.025852 15.79175
55.434898 -23.303919 13.893599
55.4534 -24.632572 2.9083216
54.776691 -39.55032 13.943892
54.776268 -42.280895 17.008125
55.414101 -24.308544 15.753924
54.776905 -44.411991 12.407592
54.77626 -42.153755 17.045208
54.777069 -46.575451 11.222313
54.776051 -43.244282 18.588692
55.4534 -27.530415 7.0423117
55.4534 -25.410217 2.0047519
55.434898 -34.944069 -3.2543583
55.283432 -38.114609 0.76658446
55.434898 -26.706018 13.882822
54.778084 -42.020824 3.9381051
55.434898 -29.166128 10.593372
55.4534 -28.506596 5.3802285
55.414101 -27.627209 16.367367
55.4534 -35.654594 3.3241534
54.77779 -43.964203 6.0242758
55.434898 -32.931229 -5.8001256
55.6413 -21.02887 15.373363
54.776875 -48.42186 12.618283
54.77977 -42.856346 -8.2046404
55.434898 -27.888985 -6.8262429
54.779125 -40.103432 -3.5631142
54.779224 -39.367741 -4.3052073
55.4534 -35.40258 4.7472978
54.778412 -47.217018 1.5739832
54.776649 -39.217129 14.274616
54.779667 -44.40918 -7.4865522
55.661903 -26.821827 -0.92655146
54.777649 -43.30954 7.0563431
54.779118 -45.488396 -3.5346327
55.434898 -32.759182 -6.4501619
55.414101 -25.830231 15.972841
54.77718 -42.608624 10.427414
54.779636 -42.50367 -7.2732611
54.777794 -48.205585 6.0240231
55.4534 -30.990713 3.3535049
54.776287 -44.705776 16.865635
55.6413 -31.499561 16.312836
55.434895 -37.904507 -1.5842501
54.778366 -42.123447 1.8844694
54.778618 -39.179886 0.062990189
55.434898 -32.555561 19.192541
55.4534 -34.736362 7.1254587
55.434898 -32.377018 -7.4557972
55.4534 -33.541897 6.8095551
55.434898 -30.813107 -7.0817542
55.4534 -32.846413 -0.34437731
54.777195 -45.08065 10.31154
55.434898 -32.48241 -3.8036301
55.434898 -36.024017 -4.5396833
55.434898 -37.591774 11.423395
55.257538 -38.134018 6.3254905
55.414101 -22.246454 16.390057
54.777039 -43.815052 11.461642
54.779816 -40.283958 -8.5464487
54.776394 -45.306938 16.087881
54.779171 -47.963242 -3.8933783
55.434898 -35.603897 15.18251
54.776581 -42.704449 14.74051
54.779549 -40.696514 -6.6331244
55.4534 -25.388483 4.934732
55.4534 -34.446896 6.8714447
55.4534 -33.5382 0.63305157
55.4534 -26.008568 5.8897491
54.779041 -47.992958 -2.9661322
55.434898 -32.514568 17.596478
54.776222 -39.209663 17.318787
54.777874 -39.516476 5.4520388
54.779858 -44.588913 -8.8575859
55.434898 -33.376686 -8.6798458
55.434898 -31.592861 11.022527
54.779671 -46.788239 -7.5284538
54.777222 -42.46698 10.127918
54.777 -44.00293 11.700819
55.400658 -38.026756 6.815906
55.434898 -34.210697 14.096153
55.434898 -37.000542 -2.2091219
54.777344 -42.300537 9.2838297
55.435497 -36.743523 -6.4886818
54.776382 -45.394096 16.17277
55.434898 -36.85006 11.880307
55.4534 -27.752584 7.014318
54.779598 -42.192047 -6.9859104
55.434898 -30.035801 -1.8875337
55.434898 -32.517281 -1.7699413
55.434895 -28.102421 12.054648
55.211178 -38.168762 13.776651
54.776337 -38.541603 16.512308
54.779228 -44.658356 -4.3353662
55.4534 -34.810612 -0.47186679
55.6619 -28.178347 -0.84578013
55.434898 -28.880007 11.497952
54.776028 -47.709381 18.709877
54.776943 -44.428143 12.116739
55.434898 -30.245785 12.817883
55.434898 -32.305508 -2.4469109
55.4534 -28.212013 2.7249055
54.776085 -46.471298 18.317165
55.434898 -32.223461 16.386616
55.4534 -35.390385 5.235271
55.434925 -37.903858 -2.0541818
55.4534 -22.982346 8.3722525
55.453403 -25.390514 5.9384913
55.6619 -25.448999 -1.2737042
55.434898 -28.789516 -9.1687946
54.777813 -44.073978 5.8650436
54.776283 -40.311104 16.904562
55.434898 -30.296215 -7.462173
55.414101 -28.637445 18.493521
54.779354 -43.435005 -5.2344761
55.4534 -35.001694 5.9041982
54.778862 -38.725262 -1.7105618
54.778526 -42.468906 0.73039293
54.779762 -46.921776 -8.1549482
55.434898 -31.238594 -8.2985115
54.778114 -47.177193 3.7151051
55.6619 -28.486526 9.2492828
54.776558 -40.586327 14.944876
54.777679 -38.878933 6.8440495
55.434898 -32.870026 -6.242774
54.779358 -43.010548 -5.2200642
54.777031 -41.832993 11.516549
54.776123 -44.411186 18.038765
55.414101 -29.30014 19.067436
54.778702 -38.517761 -0.54396915
54.776749 -38.81752 13.535299
54.778465 -39.8232 1.169323
54.779831 -44.077156 -8.6596727
55.453403 -34.723793 7.9536858
54.779976 -47.685593 -9.7093124
54.780037 -46.404072 -10.143748
54.879131 -38.417614 4.4708133
54.779163 -45.778816 -3.8334341
55.434898 -27.868368 -7.7752676
54.776428 -44.973003 15.863422
55.616966 -36.278721 7.3473582
55.251816 -38.138309 6.3569832
54.778904 -45.094452 -2.000473
54.77845 -43.284042 1.2805138
55.434898 -27.415304 12.183695
54.778378 -40.730881 1.8153191
55.6619 -36.04501 9.5889502
55.434898 -26.089096 11.250055
55.434898 -26.400953 -1.9613585
55.434898 -30.336313 -5.7904558
55.434898 -25.79851 14.272431
54.779129 -47.905975 -3.5971632
55.434898 -30.014328 -3.3425584
55.4534 -31.628977 2.9115953
54.778858 -41.603447 -1.6597755
55.4534 -24.2897 3.2392597
55.4534 -35.765854 2.9699323
54.777992 -41.784431 4.6225657
54.77932 -39.448509 -4.9802856
55.471329 -29.36742 15.671241
55.4534 -34.182766 6.947506
54.779083 -47.398743 -3.287178
54.777054 -42.770267 11.354955
55.434898 -28.65501 -3.9199688
54.77787 -46.787598 5.4496326
55.453396 -25.967918 8.219202
55.661896 -26.261604 8.9835224
55.661896 -34.549606 9.0061541
55.414101 -22.755554 16.335922
55.434898 -32.53484 -4.0310893
55.434898 -28.111996 11.589789
54.779106 -47.576508 -3.4550467
54.779755 -46.135242 -8.1016464
55.434898 -28.816978 -6.6408587
55.434898 -33.074402 -8.1896238
55.434898 -32.677849 -2.7071571
55.498787 -27.853683 14.652116
55.4534 -30.378254 6.8391685
54.779549 -38.652557 -6.647028
55.661896 -35.068321 9.278841
55.414101 -28.78138 16.770058
55.4534 -26.824986 4.9338489
55.43573 -37.261345 -5.9297466
55.434898 -30.76667 -4.3564916
55.434898 -35.401276 -3.1088698
54.777946 -39.620213 4.9229212
54.777611 -46.708157 7.3535652
55.434898 -29.662975 -8.3390102
55.4534 -28.191582 2.4568834
55.434898 -34.952896 14.300951
55.4534 -30.47579 2.0660806
54.778419 -48.585835 1.4924278
55.6619 -33.403057 -1.1563783
54.779694 -41.408752 -7.6867828
55.434898 -29.422085 11.372463
55.434898 -37.010429 18.180761
55.434898 -32.295219 18.018339
55.434898 -30.112343 -8.1887493
55.434898 -37.282845 0.81483287
54.7761 -42.961014 18.197952
54.777534 -42.091629 7.8864183
54.776436 -45.351669 15.828975
54.778252 -42.231335 2.7345362
54.776329 -45.803768 16.543701
55.434898 -30.434647 11.393847
54.777824 -38.958809 5.7870836
54.776794 -45.529552 13.21038
55.4534 -28.494244 -0.6103543
54.778687 -41.713245 -0.41432166
54.776665 -44.552395 14.152403
54.777752 -43.237812 6.3318491
55.434898 -29.918411 -4.8979626
54.778992 -44.36475 -2.6335154
55.434898 -35.648548 12.118422
54.779842 -39.092155 -8.7307148
54.778259 -43.557148 2.687645
55.434902 -31.46546 14.111039
55.641304 -21.076038 15.147364
54.778641 -42.979851 -0.089508057
54.77887 -39.04512 -1.7520933
55.434898 -35.136536 10.665028
54.779221 -47.380791 -4.2543459
54.777775 -44.454369 6.1498718
55.434898 -37.465393 10.42422
55.661896 -30.513325 -1.0271782
55.435581 -36.946609 -6.2436442
55.641296 -28.395971 15.201775
54.777321 -40.39901 9.4274979
55.434898 -28.968138 -4.9733725
54.779434 -38.559486 -5.8117285
55.434898 -28.010593 -1.8620517
55.434898 -36.450317 10.50902
54.778404 -43.030411 1.6217968
54.77948 -44.818153 -6.1067781
55.434898 -32.166748 -4.7699871
55.434898 -26.578676 12.487246
54.778206 -42.142776 3.0228064
54.780041 -48.021038 -10.158106
55.262234 -38.130501 2.0573363
55.434898 -34.202206 15.549791
54.779671 -41.089493 -7.5080557
54.778717 -47.746037 -0.62922001
55.661903 -36.556103 2.0900156
54.776985 -43.175819 11.819578
54.779621 -39.465607 -7.1426554
55.434898 -36.839104 15.419725
55.4534 -30.197392 4.0030804
55.434898 -32.195568 10.644496
55.656017 -31.2693 -0.82518351
55.434898 -37.362068 10.029094
54.779114 -41.934204 -3.5109775
54.779488 -39.86195 -6.1808367
55.4534 -33.131241 0.8147673
55.4534 -31.629927 2.5256126
54.776253 -39.815353 17.118502
55.434898 -25.65284 11.059517
55.6619 -34.404877 -1.2989841
54.778522 -41.277752 0.77590084
55.4534 -32.155037 5.2805719
55.434898 -34.118389 -3.2082996
54.778416 -42.058186 1.5522492
55.4534 -24.170767 8.1422882
55.434898 -24.866236 13.948092
55.596344 -24.92622 15.55228
54.779354 -43.388008 -5.2102985
55.608513 -31.964073 8.905488
54.779472 -46.825287 -6.0706425
54.779213 -42.905106 -4.1808834
54.777718 -45.490395 6.5761566
54.777836 -43.289867 5.6969881
55.434898 -35.96452 -3.9991918
55.434898 -29.679253 -3.5679929
55.434898 -37.927544 15.900797
55.641304 -24.641247 15.418982
54.779572 -44.095131 -6.7690887
55.434898 -34.58709 15.964005
55.434898 -34.70042 -4.561058
54.776821 -39.85939 13.021771
55.434898 -37.397579 10.615149
55.6619 -29.499706 9.5985985
55.434898 -32.85075 -4.7328682
55.434898 -24.168213 12.577089
55.434898 -23.975641 14.521091
54.777275 -47.698383 9.7432795
55.4534 -33.078205 5.6992135
55.434898 -37.94463 18.086674
55.4534 -29.350994 1.4133271
54.779297 -42.310074 -4.8075314
54.77808 -41.934101 3.9577301
54.974831 -38.345894 7.5742397
55.434898 -29.107203 10.979517
55.434898 -32.452019 -5.5131354
54.778564 -45.301964 0.47484303
54.776878 -43.535759 12.585239
55.414101 -24.339298 17.956261
54.776627 -42.359268 14.416199
54.776985 -39.298553 11.813861
54.780037 -46.045799 -10.167466
54.779945 -45.127762 -9.4562216
54.777275 -46.44857 9.7743053
55.615196 -31.288969 -0.78688514
54.776016 -48.071426 18.840851
55.434898 -34.227058 -9.2075233
54.776386 -46.406036 16.148176
54.779984 -41.335011 -9.7499371
54.776237 -44.606625 17.19133
55.436546 -37.404366 -7.9716144
55.434898 -32.39394 9.9722471
55.434898 -27.735773 -5.9731231
54.777077 -39.118095 11.143232
54.779846 -38.925591 -8.7845402
55.43647 -36.490307 -9.9291306
55.434898 -31.986658 18.290113
55.4534 -26.766775 1.3328903
55.434898 -28.307854 -5.3830805
54.779552 -45.311737 -6.6444387
55.434898 -22.102684 10.181519
55.434898 -26.582733 14.350726
55.4534 -27.964191 4.4041557
55.434898 -28.006344 -5.7920914
55.4534 -33.366161 8.2743797
55.4534 -32.216511 4.0302229
55.434898 -24.675943 12.519794
55.641304 -26.10235 15.024438
54.777771 -42.856335 6.1763039
54.77607 -42.482723 18.430807
54.903946 -38.399017 18.880165
55.434898 -27.365936 -2.0255311
55.414101 -28.227751 17.476002
55.4534 -27.576603 7.5004902
54.776913 -44.860725 12.350735
55.434898 -26.339836 10.991856
55.414101 -22.461552 16.025455
55.434898 -36.275658 -1.9012859
54.778862 -48.448425 -1.6700821
55.557636 -36.223034 4.6478925
55.434898 -33.191437 15.051317
55.434898 -36.717407 -3.1076391
55.434898 -27.073006 11.993044
55.4534 -33.637848 2.6780257
55.414101 -27.12285 17.401665
54.776173 -39.166145 17.679358
55.434898 -28.945551 11.236844
54.778458 -45.573174 1.2394505
54.777225 -41.948494 10.114231
55.434898 -33.02459 -4.5270381
54.777969 -38.70052 4.7660561
55.434898 -30.457825 14.083519
54.778 -46.319592 4.5153484
55.434898 -33.03582 13.501522
54.777279 -42.249096 9.7118998
55.4534 -33.35619 5.0710702
54.778824 -44.770393 -1.4152641
54.779305 -46.959316 -4.8646593
54.776157 -40.596535 17.775894
55.434902 -37.377693 9.2570343
55.434898 -28.139212 -4.4984174
54.778198 -47.676361 3.1096754
55.434898 -35.05545 -5.1818209
55.434898 -31.497993 -3.2080159
55.434898 -33.195427 -5.7786026
55.434898 -37.213005 16.211559
55.4534 -26.524353 3.7180007
54.779797 -44.531082 -8.4112377
54.777695 -41.529118 6.7229772
54.779644 -44.46508 -7.3098116
55.452656 -37.231785 7.7860751
54.778099 -48.549625 3.8034449
55.434898 -34.834141 18.602713
54.779457 -42.45826 -5.9510012
55.4534 -25.298922 4.5789251
55.434898 -31.073008 -9.1842852
55.4534 -34.342731 0.14399421
54.779144 -43.678833 -3.6988792
55.434898 -30.113997 10.382287
54.777523 -39.485775 7.9522038
55.434898 -28.166367 -8.6261702
54.778721 -46.397278 -0.65306187
54.778461 -38.602196 1.224966
55.435509 -36.117828 -8.0165434
55.4534 -27.009802 0.14629284
55.434898 -35.539776 -4.6403131
55.434898 -31.251879 -4.8334355
55.4534 -31.851158 0.7715168
55.434898 -25.874065 13.329923
54.778191 -45.458107 3.1393404
55.434898 -35.559052 14.500397
54.776497 -43.577976 15.355427
54.776424 -40.00724 15.886424
55.434898 -28.975578 10.786205
55.4534 -25.124363 7.1199679
55.434898 -34.024883 -1.9479525
55.434898 -26.874687 -5.210228
55.434898 -32.115154 17.055174
54.777458 -42.474277 8.4186926
54.779808 -47.286179 -8.4765129
55.4534 -25.360458 4.9760818
55.434898 -25.814571 -2.7976086
55.4534 -25.164478 3.8338935
55.606522 -35.183765 9.7199659
54.776871 -47.619339 12.675719
55.434898 -31.317478 13.134735
55.434898 -33.581665 14.265831
54.776268 -46.040466 17.026802
54.776119 -44.604752 18.056187
55.414101 -21.649588 16.481117
55.4534 -30.998322 7.6586876
54.87326 -38.423294 -6.6296968
54.778152 -48.155304 3.4246893
55.434898 -30.038866 12.230567
55.617081 -31.62911 18.032223
54.778145 -45.152203 3.4760723
54.778259 -45.018822 2.6771917
55.434898 -31.763388 -8.3486986
55.435081 -35.763542 -7.6132879
54.779129 -42.116333 -3.6010518
55.435337 -37.613934 -3.9427688
54.779045 -48.384232 -2.988162
54.778091 -44.909813 3.8627901
55.434898 -36.488186 -3.687264
54.777916 -48.497307 5.1552448
55.434898 -36.436386 -3.3860514
54.777374 -40.067543 9.0466614
55.4534 -29.805532 7.0973186
54.778343 -45.75592 2.0570698
55.434898 -27.105637 14.074226
55.661896 -29.138876 9.2592573
55.434898 -31.574177 11.032262
55.434898 -30.480598 -5.2618732
55.434898 -28.085371 13.824948
54.777451 -41.44265 8.474556
54.776772 -38.710369 13.376332
55.6619 -36.438644 1.7775789
54.778446 -43.210285 1.3163214
55.160576 -38.206684 9.4388027
55.4534 -33.796265 1.532887
54.777122 -38.928551 10.818277
55.435043 -35.400162 -8.3779469
55.434898 -37.363514 14.216155
55.4534 -34.54163 0.37045014
55.434898 -35.199963 -3.2576652
55.434898 -33.412884 -3.584187
54.776783 -43.622108 13.295481
54.776573 -47.144386 14.785465
55.434895 -33.342636 15.175659
55.414101 -26.012579 18.836145
55.434898 -21.292328 13.356803
55.4534 -33.088894 2.4758368
55.434902 -32.425117 16.463331
55.434895 -37.914501 15.693175
54.777855 -45.973724 5.58113
55.001499 -38.326077 -2.3197076
54.777138 -44.604294 10.747853
54.779579 -42.426456 -6.8561716
54.776672 -43.489296 14.051331
54.776955 -41.890778 12.040833
54.777115 -42.13089 10.890428
54.779747 -42.012295 -8.0242949
55.434898 -22.418743 13.107264
54.777023 -38.893978 11.547159
54.779175 -42.129059 -3.8900375
54.778542 -39.859043 0.64652061
54.777554 -45.215366 7.7454834
55.489815 -28.473646 9.8311682
54.777657 -47.661171 7.0142975
54.779388 -46.705585 -5.4635401
55.434902 -37.376675 0.27683657
54.778397 -48.045563 1.6881781
55.4534 -31.785004 4.6768055
55.434898 -28.787201 13.676368
54.778984 -39.067173 -2.5610247
54.776768 -44.570251 13.413733
55.4534 -28.722937 7.8598065
55.434898 -36.531353 16.250656
54.776173 -39.144058 17.677299
55.110004 -38.244587 2.7055206
54.778652 -41.050674 -0.15773392
55.661903 -26.039001 -0.86620253
55.434898 -33.127197 13.880733
54.779881 -47.566032 -9.0177269
55.434898 -27.759487 -2.8444061
54.777866 -47.743774 5.4851561
55.434898 -31.840017 -6.6729498
55.43581 -36.677757 -7.5574641
54.779732 -46.836159 -7.9438334
54.779186 -42.288155 -4.0251322
54.779163 -42.876572 -3.8436012
54.779804 -40.228298 -8.4605446
54.976585 -38.344582 18.211239
54.7784 -43.070625 1.6508818
55.6619 -25.414333 -0.89842886
55.434898 -29.465096 12.511978
54.777435 -48.56424 8.6079674
54.778534 -42.616993 0.65736908
55.434898 -28.711761 10.798951
55.434898 -30.978245 -5.2616873
55.434895 -33.590065 14.728804
54.779716 -45.444366 -7.8239164
54.779541 -46.774418 -6.5584736
55.434898 -35.264519 18.643343
55.435715 -36.757271 -7.0828638
55.434898 -29.904863 -2.0837607
55.4534 -28.25716 5.3096848
54.77639 -46.58564 16.152309
55.434898 -27.471724 -2.9161143
55.650932 -29.229866 -1.5528442
54.777027 -47.293114 11.551286
54.778748 -39.42606 -0.84997559
54.776752 -46.346062 13.49754
54.776451 -41.450333 15.703641
55.528469 -28.522882 8.8303614
55.4534 -35.834732 0.12576602
54.776814 -39.861958 13.049934
55.4534 -29.568249 4.1793551
54.779541 -40.187759 -6.5681286
55.434898 -34.950897 15.760292
54.778275 -48.379089 2.5427084
55.434967 -35.531971 -7.834507
54.777836 -41.041489 5.7210617
55.434898 -28.904427 10.99351
54.778637 -46.427231 -0.058401108
54.779102 -41.392456 -3.4190595
55.434898 -25.914457 12.422865
54.778114 -47.790756 3.7159481
54.874313 -38.421223 4.2749496
54.777138 -41.394585 10.71232
55.436138 -37.827179 -5.7682838
55.434898 -37.39909 0.29435509
54.780022 -42.849922 -10.021167
55.661896 -36.354889 6.1130948
54.776512 -42.58952 15.265596
55.4534 -26.450094 4.4193053
55.32626 -38.082516 3.3941236
55.309059 -38.095409 9.5033846
54.90836 -38.39571 9.1670742
55.653728 -34.650261 8.9479313
55.414101 -28.704803 16.581331
55.571068 -31.709501 17.939426
55.434898 -32.021725 -4.3176346
54.778908 -40.083984 -2.0063782
55.4534 -26.669052 8.5944271
55.572365 -30.238264 8.8715649
55.4534 -24.362633 5.5509491
54.776276 -45.965481 16.941067
54.778259 -44.841507 2.6643305
55.434898 -24.695929 10.860521
55.661903 -36.94109 -1.3473815
55.4534 -29.017113 4.8577223
55.4534 -34.150272 7.8722548
55.4534 -30.147844 6.220243
54.778564 -46.758228 0.45636463
55.434898 -28.212038 11.026822
54.777344 -41.264904 9.2631826
55.4534 -35.489315 0.42373353
55.414101 -21.328846 15.99601
54.777142 -39.062092 10.70125
54.777046 -44.726147 11.377332
55.4534 -30.959843 3.3564706
55.661903 -30.784201 -1.0430478
55.434902 -34.226322 13.551749
55.5243 -27.687159 9.7983112
54.777122 -40.666191 10.855546
55.434898 -29.459431 11.008859
54.776237 -46.118935 17.217115
55.434898 -29.356907 -3.7178886
55.434898 -34.236088 16.140831
54.776279 -43.918419 16.927267
54.779312 -45.304832 -4.9297514
54.777451 -48.232697 8.492547
55.4534 -35.553726 4.5889435
55.624859 -30.962746 16.745123
54.77829 -39.631882 2.4258108
54.832211 -38.452774 2.28227
55.4534 -35.026867 2.1982956
55.253239 -38.138905 -8.1894407
54.776672 -42.142124 14.123295
55.434898 -26.60137 -1.9238396
55.434898 -26.292046 11.430325
55.4534 -35.984333 0.74730957
54.77784 -44.449081 5.6980238
55.434898 -21.932306 11.729063
54.77721 -45.766121 10.206985
54.778885 -44.716286 -1.8535385
54.778297 -43.994217 2.3651419
55.252407 -38.138939 -5.8904057
54.779152 -47.42535 -3.7612553
55.434898 -35.657173 18.432325
55.434898 -30.043999 -4.2963233
55.60099 -32.799866 8.8984318
54.779968 -43.929466 -9.6329813
54.777962 -41.902348 4.7803254
55.434898 -35.019363 -6.5820236
55.434898 -35.95076 -4.9162087
55.4534 -26.280102 7.2693691
55.414101 -27.629562 17.139616
55.572594 -32.602623 9.7522974
54.776077 -43.156208 18.357512
55.4534 -31.101002 2.1487746
55.4534 -28.731709 6.3036571
55.434898 -36.213268 -5.0402403
55.4534 -25.686274 4.4682631
54.777756 -48.310699 6.3046112
54.776527 -43.640797 15.164991
54.777603 -40.191845 7.3999491
54.777042 -40.226433 11.435274
54.777485 -47.864815 8.2298851
54.777245 -41.126877 9.9955997
55.434898 -23.855844 13.664013
55.4534 -25.773132 5.6442728
55.634323 -36.295017 5.3983469
54.77961 -48.683571 -7.0797071
55.4534 -32.886837 2.9372892
55.434898 -33.328773 15.365787
54.776745 -43.197475 13.556273
54.777355 -42.326942 9.1864624
55.434898 -31.519342 13.642055
55.434898 -32.647511 18.592041
55.434898 -21.996874 13.443892
55.607445 -25.640198 9.7190876
55.434898 -32.652275 10.232424
55.4534 -31.239897 4.0587111
55.434898 -25.005249 13.964651
55.434898 -23.28318 12.278399
54.778732 -47.841751 -0.71957588
55.4534 -34.897923 -0.034090281
55.4534 -24.752253 6.9106822
54.77932 -43.723381 -4.9787178
55.493896 -28.150965 14.643576
55.434898 -33.145321 15.066174
54.776566 -45.665504 14.850386
54.779839 -44.497704 -8.6925039
55.436134 -37.759552 -5.9208612
54.778046 -47.05941 4.1883316
55.414101 -29.555433 16.754883
55.4534 -29.739895 1.8242511
55.434898 -32.791191 -8.1834002
54.777672 -39.789665 6.877346
54.778561 -38.843597 0.49460793
54.778786 -41.457687 -1.1684389
55.4534 -32.592224 5.5200543
54.776825 -39.716343 12.990402
54.776608 -43.101315 14.551874
54.777962 -39.815529 4.8268299
55.403843 -38.024376 11.102229
54.778469 -40.464584 1.1429787
55.4534 -32.598473 7.5297208
55.501457 -35.91938 -1.6952127
55.434898 -36.151569 -2.3382759
55.4534 -27.884283 0.98068941
55.661903 -22.674976 9.0066233
55.4534 -36.002651 2.4644475
55.434898 -34.001297 -9.0272827
54.776085 -47.927418 18.311277
55.434898 -37.86198 12.625307
55.434898 -23.779251 11.732643
55.434902 -29.84339 -9.5835314
55.4534 -28.849993 2.4374919
55.434898 -29.973986 12.166281
55.434898 -33.586971 10.348563
54.777752 -47.610512 6.2961206
55.4534 -25.626741 5.2835474
54.778568 -41.386993 0.44045734
55.661896 -24.447449 9.5782452
55.414104 -28.304945 17.771246
54.776588 -40.106945 14.69512
54.831963 -38.453259 -2.7813034
55.434898 -28.148705 -3.7402439
55.414101 -24.136181 16.719534
55.4534 -33.936127 2.0242066
55.4534 -32.548496 6.0734949
54.778709 -39.833866 -0.59257793
55.4534 -26.318554 6.4293385
55.480869 -26.715809 9.8396959
54.779278 -38.845371 -4.6666155
54.777122 -45.708988 10.854715
55.641304 -22.250862 15.140961
55.54826 -22.661285 8.8489332
54.777771 -42.24332 6.1892495
55.548801 -30.890339 18.489006
55.575928 -26.306889 -1.62428
55.434898 -28.514782 10.159786
55.434898 -31.765738 10.212188
55.4534 -24.719748 1.0403756
55.434898 -36.49054 13.632801
54.778992 -40.21217 -2.5940466
54.776928 -42.73719 12.256409
54.777348 -46.898972 9.2477083
54.779316 -40.063557 -4.9177389
55.4534 -29.694679 8.069725
54.778759 -46.669106 -0.9236908
54.778313 -41.436069 2.2511106
55.434898 -28.543526 10.390498
54.777603 -45.071762 7.3832788
54.777622 -48.046696 7.25811
54.776703 -44.69035 13.84209
55.434902 -36.981308 14.802067
55.4534 -28.351624 0.19509873
54.776306 -48.63842 16.710739
55.4534 -28.95435 0.5220114
55.5923 -31.165258 -1.6086848
54.776157 -45.317272 17.818729
55.4534 -26.641865 -0.27343735
55.434898 -34.61895 -9.2098503
55.364922 -38.053543 10.733645
55.414101 -29.577824 18.509602
55.564075 -28.861769 -1.6355689
55.4534 -26.68615 8.4909248
54.778091 -39.556778 3.8460875
55.4534 -31.352694 5.58389
54.779488 -44.296585 -6.2019901
55.483147 -29.386242 -1.7126441
55.434895 -36.230343 -2.7540579
54.779507 -46.794624 -6.3283119
55.4534 -34.195702 2.0731707
54.778313 -38.743195 2.2876043
54.778843 -47.735886 -1.5457029
54.779388 -40.825039 -5.4798479
54.778301 -38.834026 2.353858
55.453396 -31.373228 0.11744195
54.779709 -42.197315 -7.7918558
55.4534 -27.477886 2.7076182
55.4534 -34.424778 6.3463097
55.4534 -25.279701 8.1605148
55.6619 -36.996246 8.441431
55.434898 -26.806717 11.759674
55.434898 -37.787914 -1.4967443
54.779579 -39.292789 -6.8302584
55.434898 -36.151573 11.157759
54.777321 -43.769363 9.4207916
54.776268 -43.576763 16.970783
55.434898 -36.931976 17.892689
55.4534 -34.025688 0.38084555
55.4534 -23.822006 5.2297683
55.491699 -35.067875 -0.67103231
54.778706 -44.531643 -0.54894733
55.434898 -36.496307 14.737247
55.434898 -36.127361 17.026321
55.4534 -26.798391 4.9943428
54.776363 -43.125984 16.301804
55.641296 -31.206223 18.477049
54.778999 -43.295391 -2.6701546
54.778042 -40.142193 4.2157211
55.4534 -24.301489 2.9698749
55.4534 -31.502022 8.3429222
55.434898 -30.393753 14.031565
55.4534 -27.085262 4.2754302
55.337818 -38.074669 -4.8871431
55.434898 -34.740952 19.014219
55.4534 -28.931263 4.7177548
54.776676 -41.92382 14.064621
55.4534 -34.260578 3.7376661
54.7775 -41.458733 8.1198864
55.661903 -37.011745 4.9827814
54.776749 -48.188774 13.55883
55.661896 -33.128372 -1.2816788
55.434898 -22.441948 12.030528
55.6413 -26.065666 15.244
54.778347 -41.726379 2.0624962
55.4534 -27.294212 5.0685425
54.778893 -43.621346 -1.9058228
54.778542 -46.203873 0.62232971
54.778633 -40.010376 -0.042938232
55.4534 -33.8204 8.3895674
54.776665 -47.100742 14.110388
55.434902 -36.881889 10.924969
54.779762 -42.985409 -8.1404629
55.434898 -31.594807 -6.1466455
55.4534 -34.638519 5.7197485
55.434898 -35.664455 -4.7014604
54.779953 -38.71146 -9.524539
54.779297 -46.65712 -4.806344
55.4534 -25.276226 1.6360253
54.778236 -41.823162 2.8088865
55.434898 -32.323933 18.48583
54.778519 -41.106659 0.8016243
55.585514 -36.250076 -1.6151519
54.778595 -47.962067 0.23959351
55.414101 -27.628708 15.917082
54.77861 -46.343426 0.14237022
55.434898 -25.786734 10.416912
54.77726 -45.674347 9.8756657
55.6619 -34.192123 -0.8550418
55.434898 -32.250103 15.104285
54.777344 -45.881031 9.2438478
55.4534 -25.982353 4.9518833
55.435013 -36.430733 -5.8237801
54.77639 -46.163742 16.10062
55.434898 -33.564537 -4.8034916
55.4534 -29.168081 3.7508917
55.434902 -32.171322 13.992227
54.778294 -39.365982 2.4294491
54.77689 -43.767471 12.544329
55.4534 -31.498966 7.9652605
55.434898 -33.732941 13.122793
55.4534 -27.734619 1.6166013
55.414101 -25.935957 17.270851
54.777763 -46.389053 6.2342911
55.453396 -35.34388 -0.37003106
54.779343 -46.226166 -5.1649818
55.414101 -24.054817 16.157763
55.4534 -27.483952 0.32475752
54.776508 -39.326786 15.273207
54.77887 -42.323189 -1.7336917
55.434898 -29.407784 12.757532
54.777161 -41.476776 10.594091
55.4534 -24.721313 2.2599258
54.777069 -45.282516 11.265364
54.776287 -44.269348 16.875435
54.77829 -48.666801 2.4491243
55.414101 -27.845186 18.729176
55.434898 -24.928875 13.035439
55.414101 -29.006559 17.575169
55.434898 -29.077446 12.599419
54.776817 -44.390675 13.030691
55.611843 -36.273918 -0.29300237
55.414101 -25.187462 17.479927
54.778763 -40.589756 -0.96512222
55.587883 -37.102997 -1.4550122
55.169754 -38.201504 -8.2998009
55.661896 -24.942307 9.1407185
54.778923 -47.956787 -2.1142883
54.77869 -46.217224 -0.43955326
55.437592 -37.798157 -10.078432
55.434898 -34.277626 -7.4661913
54.77639 -39.361752 16.121035
55.434898 -24.698927 12.423094
55.003651 -38.326244 -9.2548761
54.776001 -39.961563 18.919712
54.776077 -48.335125 18.362686
54.779854 -42.700935 -8.7977877
55.453396 -25.134621 0.26138455
54.779716 -44.03278 -7.8479881
54.777161 -47.055084 10.572924
54.776932 -47.94529 12.207463
55.4534 -26.598721 1.8397145
54.778526 -42.499958 0.74802589
55.43692 -37.849361 -7.9862938
54.777264 -44.850788 9.8413992
55.4534 -27.914522 3.9842029
54.779377 -44.537071 -5.3715038
55.569172 -29.27697 -1.6307131
55.434898 -30.932653 -9.6149817
54.776386 -42.940849 16.143515
55.4534 -25.955143 5.2308512
54.779411 -42.096569 -5.6552629
55.434898 -37.279915 7.4293261
54.777702 -46.572701 6.6623592
55.4534 -33.461067 3.587131
54.777031 -43.137505 11.507898
54.778595 -39.499767 0.22465706
55.435623 -36.916027 -6.4453402
54.776497 -41.527023 15.364305
54.777306 -46.133999 9.5360966
55.414104 -27.258724 16.816124
54.779102 -46.12627 -3.4043665
55.434898 -37.379333 0.064949751
55.580704 -28.193233 9.7445679
54.778084 -39.412544 3.9535742
54.777203 -47.824913 10.261284
54.980637 -38.341537 17.381563
54.778702 -45.846657 -0.53898525
54.777046 -48.27491 11.393635
55.434898 -33.641571 11.235174
55.4534 -29.190958 1.2991743
55.434898 -36.081863 14.713015
55.4534 -26.794613 1.0695001
54.778534 -42.783195 0.69041318
55.434898 -34.100357 19.124336
54.779305 -48.199097 -4.8698263
55.434898 -36.042671 10.976631
54.77953 -41.884319 -6.4860268
55.414101 -26.285995 16.047466
54.777348 -46.670052 9.217145
55.434898 -27.258179 -6.2708302
54.77906 -45.489029 -3.1014748
54.776802 -41.873268 13.149055
54.778194 -40.771851 3.1305332
55.434898 -33.682449 -5.3993478
54.779007 -41.573238 -2.722084
55.4534 -25.767208 1.9000767
55.434898 -27.676594 12.381874
54.777763 -43.059273 6.2337217
54.777451 -39.557289 8.4902973
55.4534 -24.486759 3.8620253
55.414101 -25.463676 17.194607
55.4534 -27.9338 3.4511411
55.568531 -31.71393 17.668684
55.434898 -27.8941 10.579111
55.434898 -24.845659 11.079279
54.776905 -42.259426 12.417635
54.77787 -42.40123 5.4563041
55.4534 -35.942383 5.3544183
54.776382 -46.763111 16.175541
54.779938 -48.433319 -9.4467754
55.434898 -24.838844 12.151144
55.434898 -28.42766 10.617085
54.776608 -45.694904 14.54388
54.77626 -44.049194 17.053736
55.6413 -21.457405 15.028891
55.434895 -34.771992 -2.6470375
55.4534 -28.589714 7.6324434
54.777 -47.579323 11.687273
54.777138 -46.584377 10.758368
54.776794 -46.868099 13.178057
55.661903 -31.288696 -1.0075858
54.77684 -43.990532 12.878445
54.776566 -41.217121 14.828621
55.434898 -31.987366 16.266203
55.434898 -27.386513 -6.4434681
54.776318 -43.143566 16.626751
54.779785 -40.693138 -8.308465
54.777695 -45.260906 6.7601166
55.4534 -35.568733 4.4773026
55.434898 -33.633347 -9.5221443
55.435501 -37.44659 -4.8201375
54.776356 -42.306389 16.392036
54.77655 -39.130192 14.958061
55.436687 -37.826042 -7.3727713
55.434898 -26.915361 14.411268
54.779701 -47.977089 -7.70646
54.777191 -39.766602 10.347486
54.778267 -38.795013 2.5867519
55.6619 -22.53046 9.6002083
55.434898 -23.037903 13.555855
55.6413 -26.656586 15.168459
55.434898 -35.944382 11.090334
55.434898 -34.894993 -8.9919825
54.779137 -39.203857 -3.6505041
55.562187 -30.903086 18.344059
54.777504 -44.225792 8.0726681
55.4534 -26.135332 0.10269701
54.779861 -43.937656 -8.8990784
55.6619 -29.157248 -0.86208999
54.778702 -43.527336 -0.52754593
55.435318 -37.538456 -4.0699468
55.434898 -27.420807 12.705079
54.776924 -43.40807 12.278204
54.778427 -45.367409 1.46807
55.434898 -37.988815 8.3214617
55.6619 -30.293402 -0.905568
54.778763 -48.684113 -0.97187805
54.776974 -42.60183 11.941135
54.776962 -47.163589 11.964323
54.778931 -46.994919 -2.1784601
54.779411 -47.990288 -5.612771
55.545113 -36.211285 5.570425
54.778816 -45.91507 -1.3512306
54.779716 -44.760025 -7.8281202
55.414101 -28.012974 15.782368
54.777527 -41.279556 7.9496384
55.4534 -32.781586 0.015261769
54.779251 -40.658703 -4.4487233
54.777157 -42.724457 10.576083
54.777065 -41.645721 11.258121
55.434898 -32.973679 -7.3449364
54.776031 -46.519348 18.696106
55.434898 -27.145571 -4.3863544
55.434898 -27.488148 11.302258
55.4534 -33.387733 8.4235535
55.414101 -26.018179 18.895874
54.776466 -41.902481 15.585322
55.4534 -30.920191 5.6471043
55.4534 -26.2001 4.7566872
55.434898 -31.102016 -2.5750804
55.434898 -37.660046 18.139946
54.778534 -42.000137 0.69048429
54.776295 -46.770962 16.811111
55.434898 -28.952578 -8.6680145
54.777065 -43.900322 11.277719
54.779057 -44.823895 -3.0843439
54.776096 -47.659828 18.241249
55.6619 -26.021181 8.9753914
55.435734 -35.834877 -9.3434
55.4534 -24.571348 6.596879
54.780052 -43.325642 -10.255864
55.4534 -30.206406 6.4678288
55.4534 -26.803869 4.3623652
54.779713 -38.690262 -7.7996387
54.779438 -40.434437 -5.8300071
54.776054 -42.608818 18.525757
55.4534 -28.937634 5.1284533
55.434898 -35.375488 13.14357
55.499321 -23.671204 14.653046
55.434898 -26.286346 12.946938
55.414101 -22.698565 16.902422
55.434898 -31.712694 10.66257
55.434898 -33.892731 10.922518
55.4534 -23.449326 8.4601097
55.566467 -25.900049 -0.74117428
54.777122 -45.021721 10.836593
55.414101 -24.119341 15.927697
55.434898 -30.005455 12.969527
54.776833 -46.500843 12.919109
55.434898 -21.661526 13.106218
55.51992 -23.033821 9.8024845
55.436096 -37.08794 -7.4147921
54.776295 -48.070816 16.820961
55.434898 -28.887123 12.36515
55.388771 -38.035671 16.556477
55.414101 -23.42141 16.429537
55.414101 -29.026241 17.264639
55.434898 -33.51717 17.704592
55.146389 -38.217319 0.049529672
55.548931 -26.886074 -1.6499928
54.890366 -38.410721 -7.5654869
54.778839 -48.092323 -1.539175
