# .PCD v0.7 - Point Cloud Data file format
VERSION 0.7
FIELDS x y z
SIZE 4 4 4
TYPE F F F
COUNT 1 1 1
WIDTH 1536
HEIGHT 1
VIEWPOINT 0 0 0 1 0 0 0
POINTS 1536
DATA ascii
-14.302256 3.8951893 15.167591
-14.302145 2.8799136 15.466617
-14.304196 -1.4348795 9.6934042
-14.297638 4.8911176 28.136387
-14.301367 9.8766785 17.76104
-14.5373 1.2622615 27.31407
-14.296768 2.901195 30.504333
-18.695915 -7.2845154 21.447466
-23.254965 -6.5953274 14.260421
-23.853823 -6.4751511 23.754318
-14.240295 -6.9499416 22.934059
-14.266329 -4.9262137 24.981543
-14.265648 -5.2736788 10.213696
-23.146048 -6.8136525 13.518032
-14.1245 5.0080462 22.245689
-14.302282 -1.8736941 15.00607
-16.500427 -7.6110492 13.419094
-14.525261 -1.9641993 24.089678
-14.303858 4.7637277 10.728722
-14.301189 -0.67849267 18.225552
-14.304335 3.292423 19.377348
-20.673639 -7.9286518 8.6803341
-14.305359 2.8964515 6.5312786
-20.847399 -6.7731953 14.625217
-14.351887 1.5580716 20.152658
-14.1245 7.2142138 21.447109
-14.302927 6.0446296 13.335744
-14.246305 -6.1425686 22.975925
-14.301571 1.22207 17.094889
-15.93725 -6.6147408 7.636579
-14.1245 3.791182 22.020393
-14.302497 2.4547935 14.476936
-14.500669 -2.4517686 26.052242
-14.3034 5.3227186 12.00913
-16.618158 -7.1963601 10.081146
-14.30192 9.6808538 16.207518
-14.303353 8.8096848 12.193488
-14.303924 -1.6833158 10.449932
-14.1245 1.0008643 21.432108
-14.396898 -2.5632951 26.695904
-14.30525 2.8334122 6.8347664
-14.297275 2.5749443 29.12664
-14.1245 9.347394 25.011314
-14.303904 8.9170341 10.663597
-14.1245 7.8992581 23.624542
-14.258704 -5.8115931 24.752277
-25.755909 -6.2414799 24.506416
-14.1245 0.88294613 20.735176
-14.304121 -1.4966786 9.8996668
-14.321014 -6.1863747 7.3972073
-20.320072 -6.5578003 15.62307
-14.284683 -3.329802 21.689308
-18.858919 -7.9182529 11.160868
-14.417288 -7.4548187 14.673225
-18.502851 -7.3013954 8.0555305
-25.551188 -6.0263443 15.353708
-14.234227 -5.58531 16.787718
-14.1245 -1.0944226 24.913879
-14.301119 -1.2355412 18.430948
-14.5373 10.351744 23.41889
-14.303978 3.0782623 10.371201
-20.49765 -6.6632166 15.168372
-17.14657 -7.696239 12.261688
-14.255072 -5.4237299 11.642419
-14.1245 4.157856 22.085691
-14.303711 8.0862951 11.189953
-14.303503 8.7334318 11.775961
-14.1245 6.575397 26.122208
-14.251366 -4.7748518 21.301136
-14.242187 -5.881248 12.106831
-14.305183 9.1112194 7.1134753
-24.668152 -5.6745749 18.558697
-14.527944 -2.4224558 26.31938
-25.137539 -6.3668718 24.901741
-14.26134 -5.1149311 24.337082
-22.826981 -6.6109252 23.085539
-18.019726 -7.6707897 10.89026
-14.304369 9.3063459 9.3811064
-14.537301 10.36305 23.991194
-14.304551 5.1634569 8.8103952
-14.299234 5.4622135 20.174967
-14.301285 3.9548545 17.942627
-18.97484 -7.2597084 21.728909
-14.521182 6.5251656 27.456924
-18.212822 -7.511488 22.480621
-14.124499 -1.4631618 20.702776
-14.1245 3.924161 23.354387
-14.1245 -0.52926385 23.717159
-17.410229 -7.8427839 23.818676
-17.266674 -7.3831601 13.921136
-24.080923 -6.901938 12.808496
-14.1245 4.0503964 22.333256
-21.550108 -6.2806573 18.129446
-14.30286 0.077641249 13.429414
-20.076149 -6.9089828 20.75124
-14.304939 4.0915384 7.7179747
-14.304519 1.3858757 8.8416262
-14.290394 -3.0225141 25.586535
-20.306751 -8.078372 10.140932
-14.60149 -7.3823423 13.991831
-14.302723 7.6546679 13.927467
-17.877682 -7.365458 20.689384
-24.397873 -6.1285124 21.838575
-14.30228 -2.4225554 15.002743
-20.322706 -8.0784369 10.046884
-20.761074 -6.3205175 17.082785
-17.544416 -7.8860626 24.410345
-14.303237 9.6180973 12.528502
-20.645563 -7.8287687 8.1360903
-14.1245 6.3991785 22.153652
-14.302791 1.5019722 13.643551
-14.30098 4.7377663 18.844759
-14.202679 -7.5483642 17.031559
-14.260489 -5.9795632 7.9719772
-14.301764 -1.2446802 16.524078
-14.27855 -4.146965 12.85418
-23.130348 -5.9934273 18.511738
-14.281319 -4.2272205 26.750446
-14.263439 -4.9979658 11.938393
-16.442345 -7.6028113 12.702024
-14.297164 3.6853766 29.425856
-25.874121 -5.7006149 16.394222
-16.948301 -7.3973818 10.79328
-17.985111 -7.1208596 7.7257843
-18.152935 -7.1154094 7.45893
-14.303229 0.89578319 12.416083
-14.1245 7.467 26.094395
-20.443979 -7.7621508 8.0291653
-14.304184 3.7519016 9.807169
-16.342236 -7.5720997 12.662785
-22.103512 -6.1660399 18.147396
-17.312471 -6.9611502 7.7346354
-14.248575 -5.4780569 22.536724
-14.1245 -1.7713497 23.409294
-14.5373 3.3611593 27.307079
-18.770573 -7.1889586 13.993151
-14.1245 4.2892385 24.536964
-23.794682 -6.1159277 20.682634
-15.020055 -7.4495597 16.400755
-19.122772 -7.5545268 24.42321
-23.729191 -8.0193882 8.922719
-14.301351 4.772481 17.748409
-14.238604 -6.4532838 22.005875
-14.1245 9.0679369 21.922796
-14.305391 5.1276073 6.4758253
-14.1245 9.1421995 24.01689
-14.5373 -2.065866 25.846029
-14.185144 4.9378443 26.847279
-14.302994 6.3131123 13.154753
-14.124501 0.03328526 22.831762
-14.265596 -4.2583685 14.94033
-20.70607 -7.3167291 25.21933
-22.414009 -7.9973478 6.6146674
-14.303545 4.0544839 11.587366
-14.1245 6.8660007 25.628962
-20.438103 -7.2989769 12.898828
-14.302718 1.6527803 13.849112
-16.608921 -7.1129475 16.390013
-14.295549 -2.8377752 23.152039
-14.1245 4.9340043 26.090031
-14.1245 9.2731895 23.549837
-19.77552 -6.6331482 17.94751
-15.343236 -7.8173847 20.004002
-14.289791 -3.0765443 23.789881
-14.302597 4.9549799 14.2334
-19.320774 -6.8093748 18.610756
-14.316492 -3.3855276 8.7659979
-14.301057 4.6544895 18.616434
-19.590984 -7.1546941 5.6746349
-18.429508 -7.7575436 24.891865
-14.303724 7.8285561 11.149551
-14.1245 0.53590602 26.514645
-14.304241 1.3851314 9.6132803
-18.410213 -7.0583611 14.615159
-14.1245 8.912529 22.952799
-14.293505 -5.0081921 5.848547
-14.1245 -0.29675376 20.744728
-15.671851 -7.4001961 12.597231
-26.520006 -5.448493 17.034052
-14.30198 8.2053165 16.013309
-26.261898 -5.4826632 17.01866
-14.300494 -2.7276204 16.327503
-23.665806 -6.6551304 24.913725
-14.5373 -2.3188536 27.178637
-14.1245 5.0791645 21.464529
-14.1245 8.3779097 25.612593
-14.212042 -6.5434995 16.791756
-16.117708 -7.0241499 9.7758312
-26.867413 -5.3832359 19.986589
-14.3016 6.7308426 17.059244
-14.1245 1.1131988 25.796955
-21.364155 -8.0933075 9.6448822
-17.439596 -7.7364416 12.086225
-20.841013 -7.7689438 7.5128584
-14.267604 -4.0316138 23.992384
-14.51449 -7.1025147 12.47878
-15.766483 -7.2363424 11.507403
-14.300988 6.788444 18.818233
-14.408363 3.91432 19.49057
-14.270596 -3.9123654 23.356066
-26.061813 -6.970602 11.754015
-22.981781 -6.7940178 24.868542
-15.841253 -6.4648285 6.895154
-14.30294 2.8248715 13.252072
-14.1245 -0.14124441 23.314388
-14.303335 5.4527063 12.192441
-14.285012 -3.2648282 24.950392
-16.202612 -7.577836 19.523153
-14.304723 7.438221 8.3698092
-22.312315 -8.032712 6.9935441
-14.310926 -2.8167062 6.1212173
-14.302042 -2.2159908 15.705518
-23.134949 -6.5440693 23.070143
-17.587633 -7.0414996 17.506426
-14.250482 -5.8358836 23.327168
-23.424189 -5.8758802 16.786129
-25.913326 -5.4188061 18.616631
-14.302612 5.8360758 14.205114
-18.110088 -7.059649 14.73601
-14.303116 0.47397113 12.726018
-25.84561 -6.9329786 11.958573
-14.124499 -0.30904168 22.38722
-14.498713 6.2370296 20.090448
-22.767824 -7.8697343 9.864809
-16.939297 -6.7799063 7.1983089
-14.124501 2.7763457 26.26248
-18.729328 -7.1479177 6.8416915
-14.284233 -3.9323072 26.892998
-26.663418 -5.6900334 16.102371
-14.30254 8.3741474 14.447549
-22.774246 -6.8938694 25.331755
-14.252322 -4.7369928 21.081654
-14.375736 -2.5860391 27.457142
-14.304283 2.8975809 9.5224524
-14.272391 -6.6567302 10.213331
-14.5373 -2.3482022 23.509007
-19.211437 -7.4531298 23.739922
-14.265797 -5.4973059 25.609997
-25.673256 -5.8999705 22.174196
-14.1245 0.59244227 21.534321
-21.286678 -6.5483446 19.882139
-15.406013 -6.2551765 6.2797718
-22.745905 -7.9283457 5.5805316
-25.162998 -5.4787292 17.803276
-14.304904 -1.4308255 7.7282734
-14.304775 6.0142107 8.2015352
-14.2523 -6.5274057 24.524364
-25.546789 -5.6843896 20.172127
-14.224129 -6.1929297 14.287992
-18.971891 -7.2032056 13.857554
-21.934244 -6.6403246 21.77158
-14.1245 0.67298818 26.7241
-14.1245 9.9594698 20.850098
-23.773806 -7.4710531 10.882994
-14.303502 8.3406725 11.772793
-15.674725 -7.9734321 21.871647
-15.204181 -6.9437804 10.585558
-14.303522 9.5546618 11.734699
-25.644657 -5.748117 20.869431
-14.266672 -4.1476641 19.12859
-14.303446 -1.9540095 11.773693
-16.822519 -7.6940546 21.564661
-19.403416 -7.5949917 12.263166
-18.782633 -7.2983575 7.6459804
-23.594788 -8.3399725 7.8567057
-14.5373 -2.0923383 20.396551
-14.303091 0.2802484 12.791191
-14.838718 -6.2119927 6.8218989
-27.312164 -5.475668 21.526062
-15.222054 -7.4626069 13.591751
-21.474638 -7.3592534 12.247865
-18.77739 -7.1645498 14.078396
-18.113213 -6.9755249 15.038305
-20.103508 -7.0597353 22.044744
-14.5373 -2.3382812 22.396572
-14.1245 0.10278943 25.390015
-14.232594 -5.6587567 16.60272
-14.301661 9.8940535 16.938967
-14.1245 -0.87613213 23.107811
-14.314299 -3.374054 9.2599688
-14.1245 3.6227582 21.983425
-14.1245 1.3924673 22.141022
-17.069151 -7.9999313 24.52248
-23.448969 -6.6920695 24.840828
-14.304173 6.1801705 9.8789177
-22.837681 -7.0179424 12.909698
-14.1245 7.2447457 20.548079
-14.302153 4.3395166 15.46685
-14.1245 7.5680475 23.407452
-14.30472 0.66389418 8.2727776
-24.308943 -6.4718256 24.52055
-14.305167 4.3015995 7.0842957
-14.198496 -7.4090352 16.114565
-22.877867 -6.2871037 20.498289
-25.596523 -5.710217 20.47229
-14.247839 -4.9785223 18.00515
-14.301266 -1.924648 17.999985
-14.302237 6.9894075 15.273195
-21.754169 -8.0351076 7.789155
-14.455212 -6.0366268 6.334383
-14.1245 3.3991556 20.501476
-25.282274 -5.4375134 17.670685
-14.302946 5.3232918 13.273497
-14.300868 3.7070236 19.174185
-16.416693 -8.045229 23.758938
-21.134502 -7.815053 10.745123
-14.303865 4.5424528 10.70684
-15.535742 -6.9032793 9.8846207
-14.305428 2.0384693 6.326642
-14.5373 5.2996616 27.36821
-17.477121 -7.2595072 19.115265
-14.301208 1.8582222 18.166983
-26.315022 -7.0530424 11.386135
-14.302702 0.24242091 13.872649
-14.42329 7.3294754 19.506815
-20.70023 -7.7410159 7.5468454
-22.602003 -6.6091857 22.678806
-19.523453 -7.4840202 24.539339
-18.194691 -6.8695655 5.9641147
-14.301057 4.1935635 18.614031
-14.304332 -1.9190816 9.3088417
-26.944981 -6.1267529 24.144712
-17.410873 -7.9415302 24.635822
-14.302336 5.9030924 14.976414
-14.305233 6.7230148 6.9403725
-16.535017 -7.4990597 11.966084
-14.305113 5.2515879 7.2484055
-14.304813 3.3557847 8.0541687
-14.304483 3.9299912 8.9814034
-14.1245 9.7891817 24.582199
-14.302481 5.392056 14.566208
-18.68524 -7.9079833 11.344087
-14.343956 -6.9031482 11.552799
-14.305216 1.2631495 6.9028444
-14.265465 -4.3979812 14.318072
-14.240236 -5.3475189 15.298822
-14.263891 -5.937706 7.4822373
-14.1245 7.0477772 24.486368
-14.348014 -2.6172121 22.490974
-16.279217 -7.6544957 13.23243
-14.302333 -1.6491485 14.867827
-14.53672 2.2396593 27.440224
-18.973188 -7.3252678 7.5363531
-26.062292 -6.0364618 23.860048
-14.30355 -2.4846663 11.476033
-16.547867 -6.9537964 8.7624083
-14.304466 0.39795923 8.9737053
-15.921232 -7.9784255 22.342819
-14.302645 3.9135602 14.088266
-25.95787 -6.3251867 14.105142
-14.234192 -6.3428988 21.084896
-17.106356 -7.5123725 11.243771
-14.301973 10.111411 16.06337
-21.977161 -6.4400797 15.355016
-14.401774 -1.0170989 26.939013
-16.117981 -7.2190742 16.410831
-18.074656 -6.8745818 16.976412
-18.522369 -6.9044161 18.003759
-14.1245 0.75980973 22.410603
-14.303901 6.1729059 10.633268
-25.720411 -5.6922393 20.539782
-23.724211 -6.75703 25.857662
-18.265678 -7.6430883 10.383991
-14.246626 -5.9862585 10.72675
-24.959532 -6.4515743 25.168785
-14.5373 2.8278153 27.213749
-14.302191 6.8983707 15.398758
-14.1245 8.6470785 21.989616
-21.287689 -6.4955182 19.447353
-18.976921 -7.6132536 12.375597
-16.381853 -8.1107244 24.239418
-14.1245 8.348834 20.713194
-17.989353 -7.6486788 23.224607
-14.370767 -7.9055839 19.036896
-14.228354 -7.1814747 21.112873
-14.302423 -0.60855591 14.633286
-14.250748 -5.805378 23.335596
-14.301374 1.0537596 17.674757
-14.30491 5.8462877 7.824152
-17.661308 -7.6455727 22.626841
-16.083258 -6.9233441 9.235117
-14.302707 7.087326 13.963409
-16.074236 -6.8110285 8.5915537
-16.663969 -7.6878476 12.888488
-14.257329 -5.08531 12.76034
-14.317477 -3.335284 8.8011904
-14.340528 6.3108563 26.913074
-24.523886 -6.6692395 13.463076
-14.30463 4.4758139 8.5785284
-18.982336 -6.8496366 18.353239
-14.537299 -2.0811946 21.133099
-23.88061 -5.9020691 19.065208
-14.290733 -4.5634494 8.4711761
-24.291418 -6.6157637 13.753275
-20.522682 -6.7944765 20.583729
-23.942238 -7.2866521 11.478062
-20.324348 -6.9375925 21.420521
-24.782198 -7.4843311 10.413416
-17.478106 -7.3735981 20.059807
-14.303123 8.1616783 12.821673
-25.360697 -6.0436206 22.816196
-15.723836 -6.4598732 7.0306315
-17.776875 -7.4328671 9.8402834
-14.295486 -2.8158631 24.734514
-14.304173 1.3053186 9.7985439
-14.304893 8.1171942 7.9039655
-14.449918 9.7420521 20.111124
-14.302123 0.33774757 15.487478
-14.1245 6.0280013 21.626839
-24.176056 -6.0011144 16.01977
-14.301903 2.2026477 16.13736
-14.1245 3.5164046 24.568851
-14.265782 -4.2816901 14.794217
-14.1245 5.7137928 25.271828
-14.301155 1.5999457 18.325405
-14.302526 5.6726103 14.443047
-14.240276 -5.7375088 21.395817
-14.709319 -6.2213874 7.0579929
-14.303118 6.5260658 12.813715
-14.301449 -2.3857973 17.457905
-14.304381 5.843627 9.2943335
-18.413403 -7.7107601 24.477173
-21.249733 -6.7942047 14.381158
-22.429478 -7.2703857 12.169324
-14.1245 9.5163059 21.921957
-14.216825 -6.4503083 18.146111
-14.217578 -6.8650284 12.482641
-14.1245 2.8592958 26.057671
-14.1245 7.2346201 20.30794
-26.357576 -6.2687287 14.14176
-14.289453 -3.193903 17.082211
-14.288822 -3.0767064 26.468956
-24.997883 -5.7355776 19.637852
-14.301902 -2.4410913 16.118414
-14.1245 1.683292 22.952423
-27.421223 -5.5001655 21.918699
-14.302503 9.4108124 14.565998
-14.340079 5.0883441 27.651562
-14.30343 1.9921952 11.877089
-14.1245 4.9672241 25.82781
-26.033463 -5.8135881 22.088535
-14.304451 2.7687631 9.0511789
-14.301073 9.2905722 18.579369
-14.303194 3.4274309 12.553621
-14.211929 -6.8337564 13.763144
-14.212613 -6.6728697 14.372995
-14.301986 1.5199958 15.889577
-18.805 -7.3582373 22.246933
-14.271771 -5.182476 26.269299
-14.304417 7.0112534 9.2145205
-24.541332 -6.4670339 24.886236
-14.38812 -2.5727308 25.827301
-16.794062 -8.0565777 24.510841
-20.51379 -6.8741989 14.400194
-16.675791 -7.3555012 18.51104
-14.1245 -0.51527601 21.627703
-14.5373 10.453104 22.407515
-14.296989 3.4516747 29.900139
-14.30246 0.52860212 14.548769
-23.109142 -6.8316526 25.401667
-17.487183 -7.584466 11.131677
-14.303572 7.3688483 11.567828
-14.275183 -4.6612482 11.142187
-24.41259 -6.3511791 23.704309
-14.1245 2.648103 24.265285
-19.174465 -6.7496357 17.861919
-14.1245 7.7742553 21.326344
-14.301802 7.9304748 16.508663
-14.304497 -1.8726017 8.8537397
-14.303439 2.9797621 11.86516
-26.476814 -5.387177 19.337967
-14.317286 6.3511024 26.903236
-14.301996 5.6143699 15.926479
-23.516422 -6.1663828 20.614304
-14.302277 9.1209698 15.191173
-21.540089 -6.8833952 13.93786
-14.304471 2.6397662 8.9952908
-22.50647 -6.8480582 24.486198
-15.277387 -7.1959238 11.956178
-26.95816 -5.236793 18.934681
-14.1245 3.2067378 25.311365
-14.1245 9.8067875 20.626787
-14.304272 4.6737356 9.5765676
-14.302439 5.6962824 14.688288
-14.304568 1.2476077 8.7014542
-21.108337 -6.6144743 20.117599
-25.97884 -7.0852613 11.386692
-14.304437 4.8756404 9.1210518
-20.251032 -6.4837914 17.542545
-14.303252 9.6121969 12.489807
-14.301425 8.8573732 17.582924
-16.580185 -7.3869047 18.603817
-18.889519 -7.158597 14.052992
-25.133198 -6.2587986 24.197622
-25.423189 -5.918005 21.887119
-14.337456 -6.0215039 6.4109306
-20.403021 -6.4449606 17.486721
-14.297783 1.2686652 27.744356
-14.307528 -2.3797028 27.686546
-14.30517 2.3361554 7.0463839
-24.967346 -5.7413182 16.626493
-14.305279 3.1748819 6.7602406
-14.30139 0.90737367 17.633026
-16.757116 -7.3437223 10.747509
-22.295176 -6.9623709 25.062357
-27.351383 -5.1484909 18.890738
-14.301811 8.8420324 16.495758
-25.314287 -5.9466858 21.934208
-16.498249 -7.3481169 18.140381
-14.301124 3.2497363 18.419821
-14.617415 -8.0242195 20.447428
-14.1245 1.1789308 25.425083
-17.121212 -7.5831299 13.260272
-14.1245 -0.47882622 23.302851
-14.24074 -6.0749793 11.497612
-14.309563 -2.9161816 12.338524
-18.394947 -7.6915565 10.486139
-14.289488 -4.8438911 7.4188471
-14.305006 7.4240475 7.5837517
-17.277252 -7.5330353 21.027069
-14.257113 -5.1754971 12.384912
-14.280115 3.9568694 20.183067
-14.30471 5.286087 8.3706999
-16.297142 -7.6816425 20.545849
-14.228232 -6.3609138 20.052612
-24.403673 -6.4254823 24.302788
-14.303299 9.2088814 12.351606
-14.266334 -4.1869354 17.512934
-14.1245 0.81304359 21.30064
-21.969269 -6.7085342 14.389471
-26.263422 -6.2455988 24.519402
-23.86462 -6.6421814 25.153444
-14.366191 -1.8968024 24.43207
-14.304963 4.4779568 7.654047
-17.342648 -7.5611386 21.37336
-24.055336 -8.1627474 8.3142424
-14.296413 -2.9083507 16.032017
-15.655603 -6.3198447 6.308075
-20.229841 -6.8957815 20.910191
-14.303513 8.1110706 11.740818
-14.297745 5.4708662 27.848349
-21.701866 -7.8852224 6.9866972
-18.892326 -7.8475089 10.700767
-22.844379 -5.9212132 17.416252
-14.302004 9.790103 15.969912
-14.301929 6.3575139 16.130045
-14.208132 -6.7332077 15.439772
-14.732433 -8.0055895 20.494064
-14.305403 5.9965048 6.4596567
-14.1245 7.3437009 21.037632
-16.577877 -7.084794 9.4857311
-14.301099 10.445606 18.525965
-17.982838 -6.9056377 15.345044
-14.303752 3.6638279 11.00701
-14.1245 -1.3445559 20.254894
-20.635601 -6.2987075 16.683735
-14.1245 2.8952811 25.339338
-14.30201 4.5519066 15.872916
-14.305123 4.0209231 7.203146
-18.88805 -7.4925523 8.632926
-16.838614 -7.881741 23.14373
-27.151432 -5.5271235 21.670965
-14.1245 3.2894413 22.220541
-14.301752 -2.5044441 16.561684
-14.305451 5.3179255 6.3125415
-14.1245 2.1435182 25.771297
-14.255218 -4.7044525 14.985312
-21.860521 -7.0669942 25.168913
-14.301812 8.9951944 16.500572
-22.966328 -7.5914817 10.786012
-14.30398 9.5073414 10.46311
-14.46007 4.2189074 26.963697
-14.301056 7.8821168 18.617514
-14.281781 -3.5214112 17.361885
-27.23667 -5.1181097 18.439621
-14.304577 -0.051534653 8.6573467
-14.5373 0.80554003 19.959316
-23.260925 -8.1865301 8.5153112
-14.304625 5.4855642 8.608511
-14.1245 5.8741765 24.910139
-16.062599 -7.9091854 22.017174
-18.053413 -6.8131428 16.431646
-14.1245 9.9150772 21.753777
-14.5373 7.6565657 20.005501
-14.302873 5.5109887 13.478006
-14.254766 -6.3157835 24.693375
-20.243908 -6.7540951 19.763851
-20.262714 -6.647397 18.914921
-22.865498 -8.1745396 8.7239351
-14.254607 -6.2453408 24.575949
-14.300855 -0.042478316 19.214735
-14.301853 6.0252905 16.334301
-14.303844 7.8639808 10.816288
-14.303175 4.3365698 12.623425
-14.732053 -7.4916067 16.245956
-14.30127 -2.6356843 17.989325
-14.302673 6.3650227 14.045952
-14.1245 4.0725126 25.99666
-21.630245 -6.5473156 20.472807
-21.857023 -6.0799599 17.006176
-23.950924 -5.8655691 16.603086
-17.787828 -6.9821038 17.364731
-23.427219 -6.2551012 21.191887
-24.609213 -5.8322597 19.758982
-16.128794 -8.0451012 23.255795
-14.301935 2.8925886 16.05653
-14.301414 5.8557129 17.568403
-14.23443 -7.9353685 23.143044
-14.1245 3.5427222 23.401894
-20.15764 -7.8091021 11.175073
-14.1245 6.8173747 23.28985
-17.963276 -7.680995 12.554976
-14.293098 -3.0066223 19.106432
-14.1245 6.3878441 26.453997
-14.304567 -1.6779513 8.6587114
-14.297937 -4.6926374 6.4233637
-14.262218 -4.9481921 12.414644
-14.305102 -1.2352762 7.1805305
-14.302572 -2.3666501 14.191482
-26.18919 -5.3057303 18.1633
-20.423395 -6.3723664 16.92235
-14.315307 -3.1982651 9.8739414
-15.0187 -7.0215392 11.299602
-14.304766 6.9841127 8.2437763
-14.301552 1.4791713 17.154013
-14.302517 1.6191847 14.404917
-24.980595 -5.7953129 20.101343
-14.304617 3.2996039 8.5994053
-15.598394 -7.5898495 18.568695
-14.297711 -0.74171722 27.937317
-14.297318 1.0886723 29.009531
-14.1245 -1.5193644 23.9438
-14.301247 -1.9586806 18.057487
-14.20949 -7.3930697 18.040924
-14.301423 2.6340957 17.533142
-14.304173 8.2102757 9.9062376
-14.1245 4.3546486 23.466515
-14.302801 3.8667579 13.650664
-14.302992 -0.15938926 13.059825
-14.1245 -0.27198863 23.509212
-14.304649 7.9403906 8.5785179
-16.476971 -7.6613808 20.692024
-14.1245 -0.67769444 20.349045
-14.305149 2.5924385 7.106926
-14.303839 5.6022844 10.794796
-25.073059 -6.8234687 12.676834
-18.348087 -7.3030391 8.2818632
-14.297095 3.9681177 29.612898
-19.219952 -6.5663896 16.426941
-14.301586 6.4029756 17.092999
-26.117126 -6.518796 25.380714
-14.234331 -7.7962918 22.949486
-21.768913 -6.6434517 21.509092
-14.247953 -6.3790779 8.6353359
-14.1245 3.3924103 21.091667
-14.286666 -4.4601145 9.7688227
-14.301233 1.5881401 18.095015
-14.296923 3.3265872 30.079323
-14.225321 -6.8489518 20.154633
-16.708508 -7.4361467 19.234535
-14.305549 -1.7041178 5.9345427
-14.303985 6.8893237 10.409634
-17.625671 -6.9057541 15.493971
-14.304144 7.480794 9.9805965
-21.158346 -6.3150978 17.730827
-14.1245 1.3934923 23.571024
-24.170547 -6.2407432 15.157259
-14.1245 7.2104878 24.519091
-14.1245 1.2667372 23.428883
-15.572682 -7.3555837 16.587931
-20.552668 -7.1819205 13.273376
-22.438391 -6.2138252 15.978701
-14.1245 7.0514841 24.640953
-14.304965 3.5672758 7.6370258
-14.238653 -8.425251 24.510647
-14.279815 -3.637641 15.227865
-14.301479 -2.508806 17.369093
-25.911236 -5.4889956 19.19302
-23.88106 -7.8928266 9.3159771
-14.1245 4.5258064 26.505367
-14.273011 -3.9080727 16.845703
-14.1245 3.4112589 26.612358
-14.303072 0.013805151 12.83882
-26.181576 -7.1792369 10.995835
-14.266548 -4.1492333 19.366823
-14.303411 -2.5632877 11.857291
-23.987238 -5.8748288 16.554485
-14.47947 -8.4862785 24.0252
-14.304587 5.5200295 8.715909
-15.733733 -6.6150389 7.9233241
-26.29796 -6.9110422 11.880787
-15.750288 -7.2177854 15.758932
-14.300806 9.6247053 19.356707
-14.1245 3.7464201 23.311686
-14.471757 -6.9642835 11.731011
-14.304269 7.1088171 9.6245031
-24.651356 -7.3937922 10.794881
-22.160948 -6.5392342 21.331558
-14.436453 4.1732473 27.547985
-14.262691 -4.328392 18.562908
-14.302444 6.8361168 14.689643
-14.1245 5.0591021 22.112446
-20.091105 -7.3339968 24.289547
-14.304407 -1.7803297 9.1036863
-14.304959 8.0787497 7.7228899
-14.301992 8.5193729 15.985079
-14.1245 2.306885 26.57749
-16.375637 -6.4536037 6.0812383
-15.447915 -7.5833626 18.252659
-15.323652 -6.4703965 7.652524
-14.26342 -5.9788136 25.798964
-15.010115 -7.7571707 18.925447
-14.302106 4.3639736 15.598181
-14.1245 0.37782669 20.671705
-26.333836 -6.9412403 11.7649
-22.816923 -6.2752671 20.294191
-26.398188 -6.2514124 24.537731
-16.704136 -7.97402 23.671772
-14.1245 8.6014223 23.652985
-25.362675 -5.9612722 22.139133
-25.738569 -6.4503565 25.164946
-19.865412 -7.9466877 10.800726
-14.297434 4.8647933 28.693199
-26.53513 -5.4740462 20.157536
-14.297457 3.4240758 28.628468
-25.245806 -6.1471357 15.045467
-14.304581 -1.8510203 8.6208439
-16.128828 -6.4765306 6.5608101
-14.298624 -4.7238626 6.1405172
-14.304085 5.4347172 10.112809
-16.979794 -8.0596113 24.859825
-15.109092 -7.4162035 16.28039
-18.778084 -6.75284 15.563955
-14.1245 -1.2743871 23.129282
-14.304987 2.2485304 7.5557241
-14.304372 -0.58977985 9.2197809
-17.07445 -7.0414453 15.234755
-14.259119 -4.5337896 15.123488
-20.084816 -7.0573921 13.918428
-14.304788 -0.57329643 8.0663157
-14.1245 -0.94470668 21.366238
-15.14255 -6.9466581 10.688672
-14.302159 0.20918465 15.384829
-14.297211 0.57345843 29.297346
-14.1245 6.9559917 25.529772
-14.954638 -7.5166636 14.282057
-21.634705 -8.1784201 8.7937469
-14.304176 2.3683751 9.8072605
-14.304588 9.4595118 8.7736273
-14.30367 1.7739766 11.208012
-14.242556 -8.1716547 24.880524
-14.221956 -6.9647813 19.705872
-14.233193 10.143127 20.330372
-17.862953 -7.1177359 18.616577
-17.87167 -7.3280411 20.369694
-22.274433 -8.2145672 8.1090631
-14.195469 -7.3471484 14.68627
-14.1245 8.0888548 26.036175
-14.283529 -3.6352782 14.230245
-14.287949 10.166311 23.407917
-19.7155 -6.4669528 16.469442
-14.1245 -0.70540887 21.300896
-16.082752 -7.7870369 21.042915
-14.279972 -3.4886875 24.555504
-14.305087 5.9895096 7.3363981
-14.2369 -7.969245 23.623287
-14.302143 3.6859965 15.482489
-14.207022 -6.7790136 15.589628
-14.223677 -6.6896925 12.07144
-14.29747 2.9163871 28.592442
-14.304111 -1.5287669 9.9300261
-21.23217 -7.0507765 23.939064
-22.543083 -6.6592474 14.327406
-14.304303 4.2069068 9.4850903
-16.17799 -7.2035151 10.73935
-14.305256 6.115242 6.8646722
-14.304646 8.2503252 8.5983038
-16.7563 -6.55898 6.1638227
-21.541916 -6.3431082 15.88698
-14.1245 4.5193267 25.367414
-14.304169 0.61931562 9.8027229
-14.302057 5.3640594 15.750999
-14.302579 6.5745959 14.310547
-14.304935 0.12165904 7.662302
-14.273296 -5.2889256 8.6057215
-14.304408 -0.039083719 9.128355
-14.255827 -6.7227297 25.396175
-14.304534 5.7836604 8.8666458
-20.87035 -7.6145577 6.5697813
-21.587296 -7.3169751 12.35334
-20.632355 -7.964282 10.416529
-18.979984 -7.4970651 23.699339
-14.303777 3.341629 10.933911
-23.240475 -6.994863 12.824564
-14.292093 -3.8870492 11.33972
-14.281578 -3.5358584 16.971027
-14.305197 4.8738155 7.011117
-21.594934 -7.6867933 11.015482
-19.403257 -6.5138803 16.312698
-16.99085 -6.7812967 7.134243
-19.896198 -7.4954824 12.416239
-14.1245 -1.6515291 25.514362
-19.599346 -7.4948606 24.761276
-14.303108 1.9149261 12.7685
-14.30299 4.9043951 13.144688
-14.29565 -2.8413897 22.638456
-18.236977 -6.7631359 16.338526
-24.560751 -5.8747263 20.025398
-22.798779 -7.9598584 9.5266132
-14.252232 -5.1351867 22.749918
-18.220387 -7.7500052 24.464869
-23.467995 -5.8404727 17.836603
-19.622799 -7.208993 22.439835
-17.828327 -7.50774 13.236678
-14.1245 7.3508925 21.192379
-14.305137 -2.6459987 7.0642509
-14.1245 5.3934994 25.972368
-14.304791 8.1528645 8.1891003
-22.743439 -8.100276 6.7141933
-25.386683 -7.136291 11.416723
-24.932091 -7.0312824 11.985783
-18.330746 -7.2522621 13.948608
-27.105827 -5.3381052 20.029428
-14.1245 6.3780818 26.754293
-14.303757 5.581387 11.02419
-15.128841 -7.006752 11.058969
-14.291802 -3.701623 12.25954
-14.301386 -1.5170904 17.647766
-14.303894 -0.53323221 10.550521
-14.303144 7.6425881 12.758383
-14.238644 -5.3565836 19.229179
-14.30389 -1.8410952 10.535461
-14.304996 5.0556393 7.5742788
-14.281519 -3.4344034 23.750742
-14.1245 8.6527948 20.787586
-14.303084 6.5697241 12.906374
-14.297526 -1.638068 28.441921
-14.31019 -3.7903254 8.1518459
-14.304064 3.0371764 10.130784
-14.1245 1.963827 22.283756
-17.003286 -7.7457714 22.307287
-14.207094 -0.7194742 20.214005
-14.274761 -5.3579965 7.9904947
-14.29776 2.239665 27.803753
-14.301277 -1.1691909 17.965866
-14.267157 -5.3062153 25.608938
-14.269171 -4.3052149 14.004154
-14.231556 -5.7741718 19.898396
-14.304848 6.3483272 8.0049086
-15.188992 -6.3014002 6.8537426
-14.1245 5.2008748 22.136879
-23.129246 -6.2407308 20.553476
-14.303875 4.3952718 10.67351
-21.831337 -6.4086061 15.52958
-14.304219 1.1483772 9.67103
-14.303966 -2.5646591 10.320331
-15.298511 -6.9685507 10.598178
-18.361824 -7.2708173 20.751629
-14.302565 0.62527084 14.262333
-20.517826 -6.9705095 22.029961
-14.291985 -2.9537108 25.595074
-16.299427 -8.0282431 23.414061
-14.302647 8.6480207 14.155306
-15.349918 -8.3536444 24.447193
-23.396292 -6.7411623 13.675011
-17.759418 -7.6614223 12.710857
-15.153419 -7.4873977 13.832705
-14.302631 6.1671925 14.159998
-16.358006 -7.0985708 9.8741226
-14.302286 2.8615193 15.069338
-14.531721 -8.2726374 22.350845
-14.244493 -6.8238459 23.517658
-14.304334 0.21780944 9.337265
-14.301298 1.4341319 17.903181
-14.289993 -3.1955471 15.371661
-17.190714 -7.8193884 23.242514
-14.218569 -7.8857822 20.271961
-21.892008 -8.0987177 9.4046345
-14.297293 0.91420531 29.076502
-14.792938 -8.2457523 22.584229
-22.069773 -6.2447844 18.739279
-27.340618 -5.4610577 16.645567
-14.782862 -6.5340481 8.7817144
-14.258173 6.5987148 20.192364
-19.550282 -7.1050615 21.454494
-26.088358 -6.1521101 14.675207
-14.305239 3.5013461 6.8733296
-22.696987 -8.1197338 6.9232998
-14.258993 -5.1574459 23.975365
-14.303284 -0.85722351 12.23525
-21.381517 -7.5213585 11.701775
-14.305417 7.1086893 6.4350138
-14.303573 2.0260201 11.481658
-16.805962 -7.3217402 18.459061
-15.245611 -7.2752151 15.155809
-24.05794 -8.2682896 7.9499345
-23.21928 -6.3723726 15.079979
-14.1245 0.6558423 25.297419
-22.097298 -6.4154429 15.393694
-22.694923 -6.4589462 21.599312
-14.303122 0.61799908 12.713635
-19.179251 -7.0345888 14.379383
-14.305477 0.53408623 6.1687956
-14.301548 0.24554145 17.163542
-21.397045 -6.7771101 21.965084
-14.302366 9.7278471 14.952204
-24.656143 -7.181097 11.560492
-14.303288 7.7730412 12.360653
-18.200623 -7.8432083 25.200605
-14.287601 -3.2654257 17.663574
-14.23522 -6.2323842 21.126842
-19.794754 -7.4497819 24.729548
-17.740147 -7.32271 13.941317
-14.454036 -0.58036792 27.529089
-18.445244 -7.5232458 9.4323578
-16.661201 -7.483078 11.696005
-14.304778 3.4175103 8.1537704
-16.828835 -7.4580307 13.834012
-14.297527 1.0115993 28.439478
-15.469854 -6.5631428 7.9896493
-25.060061 -5.8334103 16.255363
-14.300957 3.6461747 18.911003
-14.303408 9.2096434 12.050525
-14.20425 -7.4816632 17.225456
-24.058788 -5.777216 18.344193
-14.301722 2.2516375 16.652304
-16.98748 -6.5899897 6.0212555
-14.303321 1.0217648 12.163828
-22.370981 -6.5624905 21.890036
-14.254541 -5.5379581 11.218399
-16.539515 -7.6115565 12.617044
-14.312916 -3.0702662 10.949059
-25.003492 -7.27986 11.058815
-14.302462 2.1726022 14.573073
-27.151396 -5.6224184 22.458399
-17.444864 -7.0412455 8.0171909
-14.1245 2.4319224 21.517586
-14.5373 6.9207258 19.858358
-14.718817 -8.3896437 23.644051
-14.1245 2.845516 24.960361
-14.297362 3.6186066 28.888382
-14.26609 -4.1664634 19.535183
-14.299662 -4.0644865 8.9944229
-14.5373 1.3523678 19.69376
-14.304201 6.6990299 9.8070202
-19.227945 -7.9304996 10.715638
-23.761246 -6.0272665 19.891644
-17.025303 -7.414875 19.611229
-14.305395 9.3995762 6.5304937
-19.043083 -6.6180515 15.939596
-14.25148 -4.8343806 17.148571
-14.304085 3.6533203 10.083966
-14.300936 6.8960776 18.974348
-20.673519 -6.3484936 16.230661
-14.30435 -2.6699436 9.262022
-24.170759 -6.2178373 22.180656
-14.1245 6.9290514 25.009464
-14.1245 7.7861562 25.827707
-15.131963 -6.8447437 10.108068
-14.302419 5.8457952 14.745824
-22.001965 -6.5076113 15.100925
-14.301466 9.6879892 17.481609
-14.217218 -7.6201229 19.696661
-14.300933 5.3878431 18.980911
-14.1245 7.7715745 22.08667
-14.303627 -0.26540351 11.294122
-14.223955 -6.0103631 17.984444
-14.237848 -5.4730701 20.631371
-25.581547 -6.0462065 15.269333
-26.089655 -5.71205 21.347452
-14.238623 2.4919641 26.869925
-14.304338 -0.2765162 9.3159552
-14.1245 4.7651696 22.156672
-14.277977 -3.6235185 21.432476
-14.1245 1.0076654 25.151873
-14.302084 2.892333 15.638006
-14.1245 7.3802061 25.709286
-14.302939 -0.042416096 13.205626
-14.302598 10.027555 14.313765
-14.252368 -4.7484708 20.216984
-14.292374 -2.9617336 23.999342
-14.301142 8.3528767 18.370922
-14.301819 4.7399263 16.411997
-14.1245 -1.4477887 25.677046
-17.737194 -6.9705415 15.21352
-14.301068 2.8146405 18.582569
-14.305098 4.8196468 7.285655
-14.5373 0.23294044 19.854258
-22.339323 -5.9813457 16.859138
-16.601944 -7.3387256 18.243622
-14.302763 2.4146099 13.736362
-19.165245 -7.3623638 7.4841361
-15.411781 -7.5929489 18.268856
-24.235415 -8.5235262 7.0121284
-23.099226 -6.6859007 13.998664
-22.406452 -6.8237381 24.110788
-14.203987 -7.1758342 13.770293
-20.095207 -6.547071 17.793716
-14.301123 10.276507 18.453667
-14.27872 -4.5038066 11.162688
-14.253415 -5.068047 13.627229
-14.28003 -3.7393572 14.449924
-18.195414 -7.7301006 10.990754
-17.420069 -6.9306927 16.298515
-24.260704 -7.2406492 11.510921
-14.248949 -6.8982353 24.400539
-21.12991 -6.7403836 21.195707
-14.303378 -0.72117448 11.977906
-14.301473 0.68200755 17.387165
-14.300887 10.086117 19.116261
-23.255695 -8.3336601 7.3506317
-21.858561 -6.946753 24.171852
-16.998379 -7.7129583 12.566899
-14.1245 0.044511914 20.408245
-16.014599 -8.0082483 22.752092
-24.127163 -6.4890246 14.279358
-14.303283 1.9047141 12.28583
-14.304089 5.4009409 10.098811
-21.010925 -7.1377006 13.241346
-14.1245 0.28801209 26.65048
-21.759495 -6.9100175 23.695501
-14.230982 -5.745688 15.425123
-14.300921 7.1268048 19.013966
-14.25293 -4.7265654 20.06572
-14.230535 -6.241787 20.30937
-14.305151 6.2492318 7.1601377
-22.12921 -6.5398731 21.281487
-14.1245 1.7334368 21.585953
-15.349611 -7.0675368 11.104939
-14.301041 3.0855021 18.663485
-24.601725 -5.8567548 19.948347
-15.033781 -7.4947014 16.797735
-14.1245 3.5574744 26.377983
-14.301015 10.113586 18.756033
-20.476276 -7.1585999 23.511833
-19.492943 -7.9884224 10.68296
-14.304003 7.3928685 10.36713
-14.266473 -4.2126646 15.345552
-24.820114 -6.1984549 23.152945
-19.601171 -7.177022 22.137909
-14.1245 -1.4429908 24.4261
-14.1245 5.7417564 23.935738
-27.113649 -5.6257119 22.41979
-14.24791 -6.9889741 24.331533
-14.300976 6.9383388 18.853275
-14.305459 9.3201599 6.3533044
-15.78271 -7.484621 18.020548
-14.297004 1.9302984 29.862793
-14.303346 5.7951427 12.168026
-18.264799 -7.3247929 21.028469
-14.303333 5.0904274 12.194372
-14.301026 6.1960831 18.706852
-14.297003 2.8026907 29.864758
-14.5373 -1.9961269 22.277832
-14.529339 -1.9659269 26.086555
-14.249079 -4.980752 21.996212
-14.1245 -0.93748009 23.958838
-14.302407 3.4522238 14.738353
-14.303435 -0.1270237 11.826945
-14.312868 -3.9299603 6.9652815
-14.265362 -6.031878 6.7494884
-14.297098 0.92652214 29.605656
-27.379091 -5.2187924 19.520016
-16.008726 -7.4396276 18.042898
-14.1245 2.5374527 21.935879
-19.733631 -7.1696081 22.307648
-14.1245 -0.16452253 25.670877
-14.303259 3.8412054 12.379604
-14.182135 5.0487189 26.846004
-15.363625 -8.1176338 22.520752
-14.774451 -6.7382927 9.986784
-14.319177 -3.8924017 5.8720207
-14.1245 -1.626485 21.542707
-14.303076 2.0581124 12.862614
-14.305445 9.108882 6.3865166
-14.302618 3.5401568 14.155617
-14.297412 2.7750993 28.752869
-14.298064 -3.7168019 10.930573
-19.904924 -8.044136 10.431535
-20.259254 -6.7512817 19.767365
-14.294029 -2.9781396 18.305433
-14.1245 6.4083195 21.428802
-24.23278 -5.906209 19.713594
-14.2555 -5.0005612 23.158276
-21.430473 -6.8262734 22.429659
-14.297517 -0.41188514 28.465725
-23.680849 -5.9212027 18.874943
-14.303299 8.91891 12.34667
-14.424244 0.5301944 27.561106
-14.302031 3.4282062 15.794985
-14.296157 -2.7638795 26.212006
-14.1245 -1.1180737 26.332314
-14.300916 5.4753108 19.034561
-14.375218 -0.31708407 26.927767
-14.296911 2.5014157 30.114513
-14.256741 -4.5985641 17.713732
-14.5373 10.326054 22.627466
-19.537527 -7.193994 22.167173
-23.22702 -7.1744614 12.182024
-14.303055 2.3475912 12.925076
-27.26339 -6.0499716 23.902641
-14.297622 -0.13790393 28.181908
-14.304226 1.7281525 9.6583881
-14.302319 6.6604018 15.035627
-14.275272 -4.3630204 12.509315
-14.1245 7.7369609 23.354498
-21.523806 -6.7141371 21.665756
-14.305086 7.3195496 7.3564939
-14.297563 0.32521582 28.342678
-14.305273 9.3677101 6.8703322
-14.1245 7.6414084 21.679409
-15.468572 -6.1820536 5.7649474
-23.167868 -5.9881029 18.533173
-14.25121 -4.7710423 21.978304
-14.281206 -4.2943368 11.635998
-14.273174 -4.1814098 25.250443
-14.304806 7.6672845 8.1436644
-14.302876 4.8817091 13.461416
-14.302771 -1.4673425 13.652511
-14.26733 -5.0600872 25.328091
-14.254583 -5.2903099 23.362829
-26.07416 -5.3410187 18.254305
-14.429852 2.6705403 19.513956
-18.615408 -7.7189078 10.337209
-14.374027 -7.4531102 14.723823
-14.275462 -4.2786856 25.778696
-14.1245 -1.1804214 24.443899
-19.835609 -6.8630629 19.952271
-20.116701 -8.0509052 10.17452
-15.149364 -6.8842978 10.314797
-18.653439 -6.9205527 18.365685
-14.240238 -6.1956568 21.968956
-19.132988 -7.299089 7.159626
-25.028152 -6.4595146 14.009111
-23.156603 -7.1934276 12.143021
-18.583345 -7.5507307 23.451099
-20.907593 -6.8380857 21.615377
-23.17091 -5.8310499 17.240623
-16.244658 -6.9459615 9.1412392
-14.51486 -8.1260796 21.110317
-14.228521 -5.792695 19.298397
-14.1245 8.6733351 24.204809
-14.303182 1.3749189 12.557555
-14.1245 7.548707 23.49715
-20.601316 -7.2036853 24.102478
-14.1245 5.9696002 26.219666
-15.288994 -6.5706215 8.2866211
-14.238352 -8.012455 23.934765
-14.1245 2.1176202 25.752476
-17.228155 -6.8902783 7.4386473
-14.304676 5.4344382 8.4665174
-24.62414 -5.7176485 16.855427
-18.230738 -7.4775581 22.231476
-14.270615 -5.2490549 26.148653
-14.303722 -2.6407154 10.995494
-14.30327 -0.21397138 12.288715
-14.303576 0.88855958 11.45359
-21.435415 -6.5672436 20.297705
-15.682462 -8.3278437 24.813919
-14.297661 2.1170506 28.074085
-14.274598 -3.8374016 16.986752
-14.302872 0.55362391 13.406912
-23.997591 -6.519496 24.371498
-14.63747 -7.6324716 17.245083
-14.265076 -5.1363955 25.025375
-14.30213 0.64283442 15.472111
-18.501724 -6.7096138 16.357952
-14.302931 4.0401449 13.294688
-14.305136 -0.31336546 7.1017499
-14.300805 0.28114003 19.359812
-14.304584 -2.3197691 8.6041555
-14.302485 7.8594184 14.594256
-25.607311 -7.7427917 9.2456398
-14.29821 -4.0861902 9.1855907
-14.302551 -0.62181544 14.277773
-18.099594 -6.8057022 16.450691
-14.205428 -7.3335891 17.246523
-16.964502 -7.4419303 11.030864
-14.297617 4.34834 28.196064
-19.652578 -6.4783869 16.188782
-14.305324 7.9312806 6.7077765
-14.304215 -1.4687614 9.6397858
-14.1245 3.464659 26.318817
-14.304131 9.0724421 10.039303
-14.304056 2.0357871 10.139511
-14.302245 7.0443587 15.249246
-18.333485 -7.5676317 12.809299
-14.301357 4.5449696 17.728046
-14.201872 6.1919107 20.216219
-21.186136 -6.8384523 14.248061
-14.304462 4.1382809 9.0405416
-14.303804 6.1515455 10.899311
-14.1245 -1.7142171 22.460037
-18.026554 -7.2872858 13.949401
-22.855806 -7.0720544 12.706833
-14.304768 7.5227318 8.2457962
-16.759703 -7.4483194 19.424412
-14.218245 -6.4424863 14.311347
-25.859768 -7.2863665 10.733658
-14.249637 -4.9120755 17.282455
-14.303658 5.3422933 11.292124
-21.412167 -6.1787271 16.534483
-14.241507 -8.0154667 24.497276
-14.303799 0.82650447 10.832364
-14.305254 4.9127665 6.8534956
-17.236847 -6.7755189 6.7559924
-14.1245 5.5248828 21.184855
-14.22312 -7.301405 20.337973
-22.384596 -6.1724415 18.690498
-20.550453 -7.0241771 13.843596
-22.937536 -6.8999362 13.293827
-14.374668 -8.2776747 22.11858
-14.259474 -4.4040699 22.626476
-14.303023 3.7453551 13.031395
-14.297651 0.64604902 28.100983
-14.304279 6.527494 9.5871487
-14.1245 5.5459008 22.179316
-14.302143 9.3634863 15.570444
-17.789984 -7.3773079 20.634369
-14.1245 5.0792522 21.692833
-24.697083 -5.7728524 19.421299
-14.1245 3.3429449 24.262007
-14.1245 4.5000229 20.645098
-23.1903 -8.235033 6.8172493
-14.1245 5.8961372 26.610092
-14.261922 -4.3520103 19.176172
-14.301762 2.0900259 16.533211
-18.36466 -7.0946383 19.300669
-14.301922 2.1289413 16.083872
-18.544258 -7.5442219 23.329147
-14.37262 -7.5629539 16.208714
-24.85535 -6.2914543 23.98292
-15.789654 -7.3077278 16.570852
-16.554741 -6.5326648 6.2923346
-14.301823 -0.72201276 16.351999
-14.316547 -2.976264 6.9529471
-14.303584 4.141263 11.479876
-19.317333 -7.5095301 24.390678
-14.263498 1.9232001 26.880459
-14.1245 2.6301587 24.376129
-14.302689 -0.8382684 13.893446
-14.257921 -4.5814438 15.405407
-21.72859 -7.7089329 10.879691
-14.486208 3.6729991 20.095749
-14.189958 -0.70036614 26.849318
-14.5373 10.499977 23.20673
-25.678818 -5.9464068 22.567629
-23.642248 -7.0287313 12.534334
-14.300898 3.1694429 19.084984
-20.522503 -6.6253471 19.185768
-23.521305 -6.6426411 13.978298
-14.2338 -5.606216 16.629709
-14.1245 8.1804333 20.298965
-14.301491 -0.22028244 17.335356
-25.206545 -6.2457685 24.217857
-14.214915 -6.4189548 16.819176
-14.303955 8.7063742 10.520494
-23.560947 -7.6819105 10.21102
-14.276751 -3.7457283 16.893984
-18.153326 -7.3890944 21.365429
-14.908012 -7.7055101 18.320477
-14.302616 6.8799534 14.214126
-21.232464 -6.3329535 18.007645
-14.301627 3.927865 16.939276
-16.67861 -7.0180941 8.9549742
-25.067533 -7.9877067 8.5812845
-14.302515 8.9642344 14.526276
-14.202619 -6.9592252 16.22979
-17.894892 -6.8920488 16.807247
-14.303432 3.5948529 11.893435
-22.031412 -6.7748942 14.123993
-26.456562 -6.7115841 12.515038
-14.303335 6.1508136 12.202202
-14.231119 -6.3379598 20.534496
-21.706654 -7.4064159 11.980644
-14.301982 3.1446433 15.927828
-14.304768 2.3107762 8.1644344
-22.567358 -7.4280086 11.542813
-26.611128 -5.6112218 21.423658
-21.319248 -8.1001606 9.6389246
-20.50526 -6.4040508 17.326954
-22.79393 -8.2303896 7.4740243
-15.639393 -7.6927319 19.490395
-26.902292 -6.1757016 14.249721
-14.305099 5.2734699 7.2918625
-14.239624 -5.3610225 16.181444
-26.052235 -6.4781709 25.252636
-14.302893 9.7971172 13.486947
-14.297779 0.47467899 27.751818
-24.49081 -6.0368395 21.243099
-14.1245 4.1566262 21.925922
-14.1245 3.9498711 21.278009
-20.782164 -7.5391846 6.252912
-19.663441 -7.8885565 9.8607302
-14.840167 -8.0621939 21.149715
-14.303676 1.5482709 11.187341
-27.119844 -5.7925572 23.091085
-23.437365 -6.1829557 15.672391
-14.1245 -0.14159763 23.237373
-14.1245 5.76476 20.671547
-14.334696 -1.1726381 20.159943
-14.301704 7.7128754 16.778536
-21.54492 -6.1245089 16.830017
-26.331112 -5.9023166 15.475197
-17.209824 -8.0246439 24.972025
-14.1245 4.5216751 25.994179
-14.297604 -0.52501237 28.231834
-14.30327 9.7770977 12.438391
-17.33037 -7.5225892 13.391308
-14.302334 9.9347191 15.045097
-14.1245 3.623492 21.718716
-20.825989 -7.7814131 10.995537
-18.560001 -7.1635299 20.210651
-14.1245 9.6355762 21.364214
-26.808895 -6.3126163 13.794654
-24.300169 -6.0961428 15.624916
-14.354856 -1.8919997 23.755693
-14.303485 -0.52978599 11.685323
-14.30208 1.3949295 15.624744
-14.228996 -6.3599992 20.186832
-14.303996 -1.7793188 10.243691
-14.273193 -3.8890591 17.605864
-14.230944 -5.7006788 18.490604
-15.353579 -7.9089499 20.778711
-14.286874 -3.2535269 20.517344
-14.304981 5.4290786 7.6192989
-21.784925 -7.1004591 25.313623
-15.045757 -8.1619959 22.332996
-14.301394 1.4530984 17.622299
-25.458063 -7.8659258 8.8711185
-15.896255 -7.3841953 17.38867
-24.276606 -7.0688643 12.124239
-24.044168 -6.4472408 14.464857
-14.300874 1.903017 19.1581
-14.1245 2.272419 20.88377
-14.1245 10.02991 22.482571
-23.304897 -6.0951886 19.657078
-14.202657 -6.959784 16.087132
-14.245926 5.0460186 20.197554
-14.301617 -0.85554576 16.96204
-20.448305 -7.3895435 25.371521
-15.17835 -6.6832376 9.099515
-21.258644 -6.5750446 15.168376
-14.303165 4.0252099 12.643802
-22.436228 -7.9283242 9.792017
-14.297432 2.2025695 28.694134
-14.30422 -2.3864837 9.6135607
-14.297339 2.1436751 28.948502
-14.258768 -6.4545131 25.577469
-22.912836 -6.9104414 25.7104
-14.304796 3.5859303 8.1066952
-14.300836 2.9680426 19.271332
-20.473448 -8.0848293 10.047922
-18.428617 -6.9636812 14.949162
-14.1245 3.1846528 26.453022
-14.294245 -4.2346048 9.2930498
-14.303387 1.6395867 11.991879
-14.304413 9.0070915 9.254673
-14.124501 1.402824 21.461576
-15.376396 -7.6879363 18.992102
-22.083754 -6.4474955 20.438824
-14.260991 -4.4161186 17.63344
-21.630653 -7.7019463 6.0156322
-14.533262 0.2128849 19.626505
-14.285114 -5.0982428 7.1164012
-14.1245 6.7284327 23.597198
-14.1245 6.9560499 22.978905
-14.1245 0.78800607 20.465431
-22.048687 -6.5585351 21.295277
-14.363131 0.1642065 27.626787
-16.391502 -6.6307859 7.0941982
-14.311678 -6.5604744 9.5959415
-16.943077 -7.128881 14.974133
-14.231311 -5.6870279 18.348392
-14.207491 -7.8317637 18.242388
-14.302595 6.0704112 14.260239
-24.912542 -7.0475826 11.935127
-14.261347 -7.6842613 17.017117
-18.463642 -6.9002686 17.867058
-14.297203 0.2715838 29.320116
-14.301779 0.094833374 16.484591
-22.50786 -6.321516 20.137383
-14.301436 5.2117658 17.495647
-20.630451 -7.3359356 12.685015
-25.314432 -5.6364279 16.859903
-20.031485 -7.3321657 24.170444
-14.305416 5.6362042 6.4153843
-23.383224 -8.0972061 8.7865458
-14.411612 0.27766359 20.127354
-14.300906 -2.0916772 19.061016
-25.506109 -5.9455881 22.259666
-14.249972 -6.2295132 23.735331
-14.1245 2.9235194 24.353481
-14.30364 9.2882814 11.40719
-14.305295 7.5272551 6.7800546
-14.1245 -0.45933625 25.002613
-14.305023 0.010511875 7.4198623
-14.149963 10.107882 22.465736
-14.1245 -0.86965185 25.493881
-14.304121 2.4343274 9.9631691
-14.297016 -4.6068821 7.0067902
-14.1245 4.40236 23.727068
-17.196011 -6.9576011 16.130125
-14.342793 -7.998692 19.757542
-14.851202 -6.5381255 8.7098341
-14.301602 8.8247433 17.082973
-14.1245 6.7499132 23.68737
-14.278415 -4.140327 12.912331
-14.5373 -2.1225529 25.131859
-14.246984 -7.3995771 24.687143
-14.1245 0.77484614 24.667868
-23.9883 -7.0620828 12.269268
-14.315475 4.4470015 19.389471
-14.375166 2.1594174 19.454437
-15.409498 -7.5489531 17.9013
-14.276829 -4.4586458 11.752489
-24.067856 -7.8326921 9.4548903
-14.304241 8.8789864 9.7288303
-19.164894 -6.9796829 19.746286
-14.304662 -1.1628209 8.4065228
-14.414373 10.219847 23.586807
-14.304951 1.2152667 7.6402645
-16.705559 -6.7213397 7.1834569
-14.260046 -6.2458763 25.539448
-14.303738 7.8578806 11.1106
-14.262403 -4.3032212 20.978008
-14.240396 -6.8353519 22.806767
-21.68685 -6.5460272 20.560873
-14.285114 -3.2723489 24.188147
-14.212437 -6.5826826 14.827415
-15.490264 -7.0562601 10.842089
-14.302773 10.083525 13.82806
-14.300743 -3.0802212 13.349077
-14.305339 1.7128696 6.5697312
-22.739395 -6.4284906 21.425194
-14.268918 -5.0686302 10.508956
-14.302143 0.22343326 15.42951
-14.1245 -1.0272276 22.651184
-14.1245 9.6197567 22.833998
-14.1245 9.7498713 23.896187
-14.297342 2.4474368 28.941841
-14.301455 -1.6718832 17.438538
-14.1245 3.0905924 21.598637
-14.268226 -4.836297 11.727229
-14.5373 2.8011968 27.328386
-24.046883 -5.6584859 17.342266
-14.270502 -5.2921076 26.183552
-14.1245 9.6742344 23.726902
-18.639 -7.5203934 12.852031
-20.819481 -6.6806173 20.160427
-14.301687 3.7841468 16.767221
-14.303057 5.5712652 12.968687
-14.303275 6.9290953 12.382145
-23.300089 -6.4916515 14.615715
-15.015962 -7.2438745 12.602421
-17.82782 -7.2418909 19.581293
-14.301504 3.1536021 17.293875
-20.608004 -7.990005 9.1306982
-18.630732 -6.9733052 5.9595957
-14.30169 2.1595628 16.74324
-14.297727 0.40897417 27.895874
-17.01889 -7.3124471 14.279948
-14.262099 -4.28125 23.2288
-14.249247 -4.8789163 20.497374
-14.397857 -6.8244381 11.017459
-14.304169 1.9956092 9.8231125
-21.533854 -6.4829636 19.772915
-14.210651 -7.2873564 18.112724
-23.462475 -6.7072048 13.769888
-14.300881 6.1505117 19.133835
-17.344198 -6.8765707 15.718946
-24.504074 -6.5526657 13.892076
-25.453938 -5.8431349 16.055571
-14.30472 -1.210946 8.2432318
-14.301221 3.9830611 18.131832
-14.1245 6.4981251 23.301476
-22.677794 -8.2425623 8.5569315
-14.304298 6.9055047 9.5403175
-17.253752 -7.2591429 18.722702
-14.297348 2.773499 28.92503
-14.304724 7.3159075 8.3620529
-14.1245 8.6578951 24.106884
-19.539728 -7.8499651 9.8085117
-16.884014 -7.4537473 11.21262
-20.960651 -8.1233988 9.4162092
-14.24449 -5.9003077 11.555131
-14.303794 9.6952009 10.985546
-23.265211 -7.355402 11.513044
-14.302009 -0.75321209 15.805969
-14.1245 4.3318424 25.529903
-19.323877 -7.4191704 23.655384
-18.271568 -7.0327253 18.626686
-14.1245 -1.5378067 20.661266
-22.547117 -6.1683092 18.939781
-25.080948 -5.8904686 21.062698
-14.1245 0.3462925 21.794971
-14.301042 -1.7639679 18.660076
-14.1245 -0.18103141 25.537758
-14.1245 6.1740584 22.441311
-14.275253 -5.2753878 8.2753115
-15.631374 -6.6773291 8.4305887
-17.166424 -7.2405066 14.47789
-22.149897 -8.2597618 8.7155981
-14.1245 4.9117327 21.676525
-14.435393 -1.9261229 22.129944
-18.697716 -6.6403675 16.003471
-19.560295 -7.511694 24.832275
-19.165081 -7.3586826 7.4628601
-18.219162 -7.8094754 24.954178
-14.301081 6.4096327 18.545591
-14.30431 -1.1220828 9.3841963
-14.303202 4.6098223 12.550844
-14.253105 -4.7883177 15.495441
-14.302549 9.017374 14.430416
-16.339022 -6.8274159 8.3164988
-14.3055 0.49185014 6.1043882
-20.507002 -7.3267045 12.769949
-14.235796 -6.5857868 10.118579
-14.304203 -0.78573763 9.6883335
-25.568977 -5.9207668 22.16419
-14.311622 -2.8796341 10.675765
-19.223133 -6.8010502 18.371677
-25.930395 -6.8770094 12.125115
-14.303764 9.152113 11.056334
-14.300801 7.9358797 19.370312
-20.065071 -7.419786 24.953091
-14.249592 -6.8447018 24.446821
-19.089113 -6.5956364 16.001244
-14.313797 -3.2869554 9.7653065
-14.322193 -3.4943221 7.1147451
-14.1245 8.152626 23.051386
-14.277557 -4.246912 26.109344
-14.29737 3.074985 28.86762
-19.577034 -7.4753466 24.561104
-14.1245 5.3287745 24.260433
-14.303856 2.4037867 10.699224
