# .PCD v0.7 - Point Cloud Data file format
VERSION 0.7
FIELDS x y z
SIZE 4 4 4
TYPE F F F
COUNT 1 1 1
WIDTH 1563
HEIGHT 1
VIEWPOINT 0 0 0 1 0 0 0
POINTS 1563
DATA ascii
-13.230314 31.032928 10.111804
-20.749508 17.674192 11.840312
-14.655285 23.246048 24.173023
-15.529095 22.446838 21.206686
-17.863548 15.2293 23.161713
-13.956841 23.882866 10.348057
-14.299631 14.917089 22.626501
-14.304953 10.814626 7.7815695
-19.004864 19.269331 19.127754
-19.075243 19.204514 11.790998
-20.883284 17.55192 7.1603174
-14.299344 12.568577 23.416824
-16.839045 23.608309 9.4048519
-11.141045 29.641224 15.682003
-14.904567 15.22099 12.164395
-14.305447 11.872107 6.4232497
-13.692443 24.124531 12.549185
-16.127064 28.164154 12.870918
-10.654043 26.902569 17.800707
-6.2400684 30.937698 19.954502
-10.069565 27.438232 26.71809
-13.35236 24.435379 7.5511131
-11.259501 26.349617 20.952951
-9.9692993 28.923365 16.81048
-16.479401 23.821436 6.6786194
-11.946239 25.721601 19.235008
-21.073999 17.315649 12.639895
-16.120565 28.186615 6.3664017
-17.019083 27.664499 18.279457
-21.074284 17.198891 18.58695
-12.879168 31.255262 11.975781
-11.071621 26.52173 23.351513
-15.065002 30.481907 10.198828
-14.301268 13.036252 18.079346
-16.535536 29.202257 13.136058
-16.130074 25.871927 16.6534
-17.260098 15.2276 11.610394
-16.281059 29.162094 16.177975
-19.39537 18.911909 12.002251
-9.1847658 29.260895 16.279879
-15.422785 28.870754 8.499486
-16.292868 21.749441 26.078831
-15.685478 27.449369 18.092911
-14.861809 23.055702 8.2190237
-12.86613 24.879803 6.4128885
-13.739464 24.081892 15.829223
-20.614487 17.797607 12.365818
-14.966515 22.959999 6.8620086
-17.888945 27.93689 15.225965
-15.714623 22.27685 18.654518
-10.681085 26.876995 11.636692
-16.213305 15.224672 24.82688
-17.829092 27.664497 11.43405
-12.90609 24.845264 25.996241
-20.919809 17.518532 12.414843
-17.891201 27.95936 14.35196
-14.303361 13.003812 12.237983
-16.839087 22.109982 7.3290057
-12.244485 25.448006 9.2771177
-11.918268 25.746178 6.1772838
-18.835388 19.423748 10.642382
-11.880583 26.815109 17.653
-12.541007 25.176975 8.4129143
-14.532123 28.646662 16.493343
-6.822742 30.405382 21.876818
-17.018446 15.226925 18.979546
-15.900805 29.750973 13.490749
-16.180191 29.045439 16.615685
-17.856342 20.318621 12.884357
-11.510679 26.119846 19.8699
-16.479401 24.836718 6.2007141
-15.378877 22.583088 7.489603
-17.683823 27.664501 17.353523
-9.9728031 27.526016 22.478077
-15.064467 30.48822 7.5801001
-10.447738 29.638584 15.686152
-19.684805 18.647358 9.064641
-15.058442 22.875973 8.6302605
-15.350057 30.227776 13.488698
-21.073999 16.834248 5.5534654
-16.725079 21.352627 6.1668463
-7.6573582 29.641216 13.927579
-18.786093 15.231882 14.921186
-13.093436 24.672041 13.142933
-14.301635 10.849283 17.027939
-16.839056 21.759703 5.1882248
-15.750176 28.122526 17.113831
-19.022926 19.252335 14.452841
-14.301376 10.902305 17.753965
-7.5200057 28.429577 27.806328
-10.510741 29.136703 16.475109
-7.9328032 29.389975 17.379175
-13.282337 30.983719 9.2237234
-16.839033 26.128983 11.902987
-16.603571 25.323997 12.573116
-14.461186 23.423534 24.562542
-12.816727 25.724072 16.6534
-17.870388 28.059793 7.2447367
-16.149109 15.224489 22.373158
-7.7147799 29.589912 21.490784
-11.824366 30.024509 15.08062
-15.127428 29.167202 6.6197052
-14.827214 29.444534 14.438493
-13.711823 29.45332 15.201538
-15.109909 15.221575 24.409418
-13.761137 31.60881 11.046396
-16.479401 25.12129 5.0421095
-18.872997 19.390509 23.212381
-10.122364 27.388506 17.386425
-17.693863 28.210161 8.3440218
-17.265102 27.73085 18.285515
-19.9683 15.741972 17.270594
-14.269355 23.597221 12.109531
-9.064167 28.416214 16.62995
-15.433728 22.53302 14.854821
-14.054908 27.792564 17.727425
-14.305101 12.658532 7.3997269
-16.839079 21.913116 14.850497
-9.5450811 27.917351 24.747887
-15.819775 29.824932 11.785089
-17.144875 20.970428 24.808754
-19.415913 15.233652 25.055504
-17.522137 27.164122 11.060344
-16.479401 23.068626 5.3898458
-15.100361 22.83766 9.3169765
-11.086203 26.509048 27.496128
-15.899447 29.757511 11.089835
-20.547121 17.85918 15.022137
-20.844751 17.587139 11.553482
-8.4160013 29.436621 16.003641
-17.521152 26.609144 11.448343
-15.016586 15.22131 20.069735
-13.409849 28.617598 17.316101
-15.115448 30.444813 7.2537227
-19.9683 15.510439 12.523047
-17.499866 26.419001 16.48122
-18.120649 20.077038 8.345376
-14.303782 10.460109 11.028812
-20.314585 18.071724 12.431938
-17.508568 27.643677 16.412643
-16.839062 21.573839 14.063705
-20.376314 18.015301 12.170603
-14.303712 13.829939 11.273148
-19.627787 15.234246 17.909882
-15.550022 22.427883 22.302649
-14.305127 13.429733 7.3386278
-8.153224 29.18841 16.863453
-16.479401 24.477699 5.8721008
-19.22826 15.233126 18.2803
-19.9683 15.87782 13.360968
-16.639618 21.43074 14.906029
-16.126762 28.169235 10.931325
-14.304843 10.49474 8.0798073
-16.8391 22.141052 8.5798473
-13.676675 28.007847 17.36684
-20.419998 16.424492 13.343596
-12.018225 27.372429 17.937099
-16.797333 28.979958 11.19061
-16.699881 29.055321 15.221417
-10.361106 27.170004 15.650541
-20.732311 17.689909 5.9146581
-13.39024 24.40271 26.019686
-20.860615 17.572638 15.506842
-16.711632 29.059052 8.995882
-12.111972 25.569817 17.386961
-14.426837 15.219658 23.554077
-16.451504 15.225332 10.350737
-20.609787 17.801901 14.726399
-11.965892 25.702646 8.8241119
-16.311628 27.485811 17.95528
-20.873657 17.560719 6.1143284
-16.32708 15.224981 14.060031
-11.270169 29.351463 16.13751
-14.302176 12.544188 15.528405
-15.255367 29.034168 16.717697
-17.393988 15.227982 21.260811
-16.075027 21.946789 10.232167
-12.617517 25.107042 12.886451
-19.764664 15.23463 5.6759577
-15.186428 29.109982 6.1859598
-14.299692 11.750959 22.447941
-16.907326 28.891525 8.1491747
-15.574603 28.543394 17.491085
-14.301093 15.10307 18.570568
-19.103401 15.232775 16.596733
-9.0124521 27.848251 17.511696
-10.659032 28.444157 16.586569
-15.470427 28.813805 12.506648
-7.8707209 29.446136 13.6071
-14.304647 14.179472 8.6804047
-15.296521 22.658365 6.9264927
-16.200733 29.498549 10.252259
-8.833807 28.566792 20.054243
-13.670282 24.144789 6.2610931
-9.9037628 27.587486 11.8818
-12.380394 25.326019 27.394661
-18.415146 15.230841 15.613778
-16.839081 21.254467 13.779479
-15.60275 25.743547 16.6534
-19.510771 18.806431 16.240053
-14.674747 15.220341 9.1144266
-21.073999 17.212721 12.647802
-11.568826 26.067554 25.385218
-14.305547 13.151052 6.1690607
-17.651056 15.228698 8.3025894
-15.0382 30.499432 12.742457
-10.388068 27.145498 16.53331
-15.826468 22.173977 6.1435113
-14.30312 12.468882 12.899761
-12.414739 25.292488 13.714972
-17.90995 27.67342 7.0843263
-17.51889 27.427607 12.340972
-16.740593 15.226151 23.477051
-17.827982 28.093811 8.450635
-14.293 23.576235 17.92939
-15.310719 15.222127 8.3549852
-9.0224791 28.393167 12.639714
-16.481518 26.67972 16.6534
-14.229481 30.04327 11.120537
-10.941752 29.528875 15.858616
-16.193888 21.840027 26.76556
-12.549203 25.171316 24.861977
-15.409194 22.55714 25.684414
-16.289108 21.751114 12.286389
-11.487848 31.487587 12.791901
-17.894104 28.018015 13.22633
-12.70054 25.033344 27.184973
-17.034319 21.069969 12.402002
-15.742209 22.252928 26.923723
-16.630047 25.326448 6.5670495
-6.9528689 30.285641 16.825598
-8.7674837 28.627054 17.721027
-14.394035 23.392921 16.6534
-13.373326 24.418381 27.386896
-15.640884 22.345261 25.090384
-20.115086 18.25461 19.962351
-19.935574 15.235107 7.2043114
-12.747298 24.989906 22.739197
-14.586504 23.308098 18.887014
-14.811332 30.704121 9.0330267
-21.074156 17.051952 17.836906
-16.933899 15.226685 8.0656261
-16.149323 15.224483 12.672587
-17.681227 20.478964 17.236183
-18.277237 19.933912 15.546126
-12.903799 24.846684 21.664228
-14.30359 10.791037 11.568233
-20.337666 18.050631 14.057793
-15.533804 22.442835 23.125782
-14.765137 23.144062 12.718963
-21.074322 17.164467 18.799242
-15.636267 28.644547 14.699415
-13.210471 26.861526 17.688173
-9.4107971 31.010019 13.530251
-19.9683 16.273348 9.1662493
-12.517002 27.256266 17.937099
-17.672049 27.664497 13.52022
-17.895212 20.283092 7.7249117
-7.4745579 29.335608 25.394125
-16.83901 26.183477 9.0196114
-14.303891 11.768537 10.745586
-12.502174 25.213352 18.762871
-18.933769 19.33395 16.766754
-14.300951 13.381372 18.957169
-14.302946 14.501248 13.412747
-15.150183 22.793726 24.559181
-8.518919 29.6726 14.679445
-16.839024 22.803556 9.7172756
-7.9697218 29.915676 15.250566
-17.996567 20.190453 10.225076
-19.723091 15.234513 21.136604
-20.026644 16.337938 10.585153
-20.346172 18.044132 24.775068
-14.301528 14.072748 17.359207
-15.491158 30.117001 8.3943005
-17.989754 15.229656 24.969589
-14.021725 31.38398 10.703266
-18.332472 15.230614 20.1283
-18.458923 19.767849 8.5488977
-14.298979 15.124888 24.443459
-10.378334 29.502825 14.943019
-16.177879 23.397848 16.6534
-16.839079 22.369534 6.8741765
-16.670074 15.225946 17.368092
-17.147461 27.530718 9.8943386
-11.676682 25.967173 13.917415
-19.9683 15.39292 22.449226
-20.776999 16.503046 6.5399117
-8.967577 28.444416 19.434078
-12.605325 30.777069 13.929548
-17.76907 15.229031 18.012268
-17.482204 15.228224 12.872407
-16.839024 22.821375 9.7257652
-11.406695 29.746361 15.516729
-16.479401 24.409691 10.403454
-21.073999 17.112499 8.9172134
-17.145786 27.283955 10.568476
-10.770127 26.796125 15.674831
-14.301867 11.854369 16.387871
-12.718967 25.014317 10.253609
-20.602461 17.808598 8.3412228
-21.074535 17.313042 20.055292
-10.228589 27.292339 23.314322
-20.194876 16.374956 9.3709745
-20.256634 18.125092 19.132326
-16.839043 24.474932 8.9845839
-21.073999 16.95694 14.591157
-7.0942874 30.15663 18.47023
-14.96649 26.534504 16.6534
-18.225605 19.981104 13.943452
-14.302774 14.094015 13.885267
-20.697203 16.485489 6.1257949
-20.349394 18.040203 18.486767
-10.127485 31.278133 13.108776
-19.9683 16.172661 24.420773
-15.433446 30.1633 10.035175
-13.359209 31.95785 10.563872
-14.304742 11.941964 8.3854122
-17.912836 27.928419 5.9657545
-14.299382 14.145577 23.317226
-19.728189 15.234528 20.625713
-14.300401 13.634504 20.485882
-19.69339 18.640255 21.066473
-19.861813 18.486814 24.347034
-10.287199 27.23702 12.191369
-18.639328 19.602951 4.9874644
-14.302462 14.827114 14.766076
-17.303621 15.227722 5.0443387
-17.911526 27.849232 6.4742718
-17.188524 26.418999 7.2516026
-14.000671 31.403395 10.170288
-19.426113 15.23368 17.23856
-16.451765 28.890244 16.753201
-13.380011 24.411602 23.098305
-12.999058 24.758305 12.194846
-20.072069 16.347933 4.9495783
-19.209618 19.081692 6.7650962
-13.958753 23.881119 11.83391
-11.728134 27.325762 17.653
-15.476549 28.82534 5.3770361
-14.305162 12.311756 7.2227812
-14.656712 30.832897 11.309035
-15.873306 15.223708 8.9945812
-13.940865 24.403681 16.6534
-14.303152 13.118835 12.81848
-12.065671 25.613529 26.265373
-13.300243 26.982552 17.695906
-17.232018 20.889833 18.833055
-12.499102 30.143166 14.046011
-16.808285 21.276573 12.343518
-16.282875 29.020792 16.572247
-9.5515814 30.285051 14.669906
-21.073999 16.688885 15.162298
-13.40621 26.420044 17.705034
-16.839077 21.304298 11.049444
-15.146513 24.764378 16.6534
-15.963426 28.318371 15.893996
-14.390238 23.486732 7.0377388
-17.070837 21.038134 24.989567
-16.839027 26.047722 7.2616024
-14.303139 10.986392 12.823964
-17.151295 26.44075 8.3508663
-10.169084 27.346985 24.941938
-14.299717 12.589037 22.380573
-13.403149 30.189117 14.867472
-11.016958 31.314075 13.052275
-12.808496 32.077278 11.809511
-11.373424 27.77828 17.620327
-6.8585787 30.372639 22.007147
-14.302682 13.992103 14.139115
-8.6763735 28.143412 27.427856
-20.914989 17.524193 24.871979
-12.914464 24.836416 18.366028
-16.63629 25.32703 10.300736
-16.589243 29.170929 6.3459501
-8.3237238 30.37002 14.536334
-19.821898 15.234789 6.9752097
-19.565264 18.75798 24.941206
-17.395739 20.739883 16.935497
-12.706454 25.027752 26.003876
-16.293224 28.00024 12.768005
-17.039742 21.066463 24.397224
-14.944142 29.333759 12.510895
-15.867403 22.137901 23.165333
-18.982418 19.289358 6.7952957
-14.30472 14.886268 8.4910727
-20.469906 16.435474 20.769125
-13.555504 24.249701 5.8581367
-14.923326 30.599804 12.328232
-20.971884 17.471214 18.66431
-10.420289 27.117661 26.871178
-14.303988 11.942118 10.482432
-12.329391 31.811558 11.104692
-18.460844 15.230976 22.618759
-18.322449 19.893826 23.600796
-19.730856 18.605268 13.188375
-16.479401 25.070169 12.104666
-13.580855 24.226528 13.313322
-15.618116 22.364418 13.740558
-11.377789 26.240189 7.8660631
-11.74231 25.907681 17.093727
-18.45273 19.773506 10.962369
-15.225033 29.064425 9.1928444
-17.142033 26.501259 12.079189
-14.301138 14.008063 18.441212
-16.413811 21.638134 21.264015
-16.585442 21.480259 13.87624
-21.065536 17.385544 18.255993
-15.678783 28.620884 7.2615042
-15.633994 28.651873 12.63926
-16.198179 29.511658 5.3734922
-20.507973 16.443851 8.1536798
-17.52689 27.089298 9.1855812
-18.470888 19.757492 19.477055
-13.680189 31.284725 13.076525
-21.073999 16.777451 12.737787
-12.460705 25.25255 27.008862
-15.38172 15.222332 17.941067
-17.310976 20.818819 26.249132
-14.643609 15.220263 20.151688
-16.479401 24.477482 6.9889002
-19.688515 15.234415 9.2394276
-7.8941174 29.706551 15.579311
-11.457802 26.64262 17.653
-13.119724 24.648012 10.287395
-14.302646 11.04691 14.19415
-7.6160722 29.679714 18.768826
-13.517111 24.286669 25.580742
-13.173934 24.598465 11.760482
-12.697558 25.035751 25.157001
-14.932461 22.992949 25.868183
-19.198746 19.091629 5.7104745
-16.416254 21.634899 10.483848
-14.304544 11.284611 8.9217072
-20.69244 16.48444 23.437336
-10.726304 29.832451 14.43128
-16.627069 27.721966 11.389546
-13.408401 24.384155 7.3852801
-15.194328 22.75177 12.219569
-13.085077 24.681301 23.751955
-9.7617207 28.075104 18.143951
-14.304611 13.90237 8.7799149
-14.299038 13.946959 24.271828
-14.248583 30.030495 8.6468973
-17.530914 20.617044 21.58115
-8.2961512 29.058044 18.691433
-17.032742 21.071415 14.652923
-14.407919 15.219605 24.755909
-13.027925 24.73192 5.1460843
-21.073999 16.918436 8.4077444
-11.279724 26.330656 17.924976
-16.839096 22.399944 8.7850323
-13.96068 28.84988 16.13166
-16.260803 28.026207 15.227591
-12.573148 25.149345 24.342604
-16.839064 22.858568 9.1900444
-9.2344313 28.95458 15.794152
-12.128815 25.55373 12.208715
-20.976191 17.466999 9.3646469
-20.567865 16.457029 22.668015
-13.902418 31.487415 10.636634
-16.988867 21.111551 15.329617
-14.658502 15.2203 13.875331
-14.479151 30.987633 10.853946
-19.9683 16.08263 17.513901
-16.479401 23.797222 13.164503
-16.372282 21.675091 13.138615
-16.839079 22.158543 6.6805911
-16.630466 24.300232 8.0679941
-10.947272 26.63578 25.808002
-20.895348 17.540892 4.8359022
-20.783936 16.504574 22.973471
-19.921646 18.43088 6.6723919
-12.097893 30.822987 13.84409
-14.304598 10.050813 8.7526741
-8.8681774 28.535122 18.437475
-16.479401 24.673975 10.083713
-8.3131981 29.041443 12.158429
-16.5506 15.225609 12.105392
-14.299927 11.648594 21.796066
-16.097004 21.927277 18.390577
-13.064739 24.699787 23.079304
-15.449532 30.14028 14.174597
-19.962017 18.393982 7.5566134
-7.5115547 29.776066 23.968361
-10.496906 31.540874 12.695745
-17.154858 26.911531 6.9168901
-14.30357 10.691195 11.623426
-14.745312 23.16371 23.871851
-13.644318 28.402691 16.771196
-20.571415 17.836975 15.67446
-16.008249 28.16288 18.095833
-12.754276 24.983627 23.373692
-12.884275 24.863779 16.873497
-16.790554 21.292906 15.832499
-12.273528 25.42366 27.110477
-14.303073 13.251152 13.040753
-10.794824 26.773031 8.1483679
-10.049994 27.455929 25.502781
-17.859104 28.057356 12.70987
-14.707801 15.220431 6.6447482
-16.671276 27.716877 12.013247
-14.304605 14.7126 8.809762
-14.628286 15.220223 23.52013
-14.304611 13.939748 8.777132
-16.496521 21.561533 5.9052382
-18.367401 15.230709 4.7835636
-14.638891 23.259457 14.080442
-19.9683 15.918154 20.341396
-15.928253 28.249474 16.590937
-14.300834 14.741638 19.289085
-10.520355 27.025883 24.916313
-14.305518 12.977957 6.2451844
-14.302258 13.235814 15.31128
-18.523071 15.231144 6.2614679
-14.299613 13.547464 22.672729
-12.851755 30.756104 13.161391
-19.9683 15.247053 17.056423
-11.125329 26.471127 13.687284
-19.9683 15.379738 7.2626791
-20.202795 18.173901 15.814392
-12.661531 25.067337 16.541834
-17.51338 26.450363 14.515133
-18.464123 19.763632 19.203091
-17.798264 27.664499 9.8777189
-10.667834 26.89057 21.683193
-19.419107 18.890856 20.293791
-16.524748 22.43549 5.9296894
-9.7083683 27.766779 16.357498
-15.210405 29.074671 10.897752
-13.566163 26.657747 17.718811
-18.546812 19.688988 25.216141
-7.9920034 29.33606 18.633516
-20.156925 18.216406 20.208174
-17.840334 28.076031 11.623466
-10.882294 31.01593 12.593958
-17.784555 20.384592 17.7258
-17.24497 26.419001 8.7837629
-15.129447 15.221616 6.9555421
-19.280033 19.01733 4.9996309
-7.4309998 29.848198 14.359337
-14.302732 14.734641 14.011012
-16.641468 21.859035 16.6534
-19.586304 18.738657 24.35585
-11.76782 25.884789 19.830803
-16.459702 21.595188 14.082163
-10.205054 27.312096 10.52502
-17.47438 20.668774 21.903305
-18.830095 15.232006 12.472726
-16.479401 22.904858 11.925312
-12.175409 25.511917 17.937149
-17.231304 28.612457 7.5184045
-19.809635 18.534082 21.612125
-19.659678 18.671873 26.18655
-16.834581 22.652332 15.745224
-18.821962 19.43602 14.359754
-14.299873 11.780293 21.942984
-15.265476 29.026085 8.5380993
-17.838249 20.335159 5.4727068
-19.971888 16.32589 5.7744379
-15.151817 30.410725 8.4186211
-12.729502 25.004688 10.681207
-14.258873 30.751038 13.938803
-10.92609 26.653812 17.304703
-14.303395 12.108962 12.128544
-12.371749 25.332747 19.871803
-17.927069 20.253975 11.176175
-15.353251 30.234386 9.2912426
-12.431319 25.277233 5.7147851
-20.674656 17.742609 11.726964
-19.033276 15.23258 20.288273
-9.2380772 30.327402 14.603333
-10.930166 26.651182 24.312851
-11.407602 26.212936 11.689703
-8.2776709 29.075932 25.053585
-15.510782 22.463711 22.051615
-16.479401 22.566793 13.808392
-18.939756 19.328354 14.348907
-17.147177 27.196383 10.00853
-15.424622 22.541279 6.8466387
-14.598278 15.220129 12.537281
-16.479401 23.86426 12.833055
-8.1353512 29.204079 12.593904
-17.503498 20.641918 20.381214
-15.487915 23.022881 16.6534
-18.769781 19.483715 13.474542
-10.796285 26.771698 11.219341
-11.656374 27.416794 17.653
-20.452332 16.431606 7.0973625
-16.109779 28.177578 14.350163
-15.24891 26.515137 18.069319
-11.831187 25.826353 16.548506
-10.920472 26.65863 15.256304
-14.982786 22.945127 6.7539191
-17.248631 28.599001 6.8261385
-19.894173 18.456144 17.365179
-14.301336 13.750952 17.888245
-9.4007502 29.327337 16.175436
-14.304568 14.699476 8.9098425
-12.759636 28.759201 16.148401
-16.856947 21.232094 5.6937084
-14.300934 13.63129 19.004801
-9.0870647 27.924109 17.393934
-17.156475 27.200399 6.2664852
-20.900116 17.537613 23.749823
-16.70261 29.072041 6.6785889
-17.151489 27.603745 8.272377
-16.632832 15.225845 21.488232
-16.479401 22.527702 12.57321
-16.839083 21.21698 11.992743
-14.305658 10.034173 5.8090835
-12.298691 29.483459 15.015929
-20.011688 18.349953 25.217863
-12.858778 28.304867 16.839935
-15.11989 15.221592 10.071434
-9.7095289 27.93272 17.380562
-14.518581 23.370119 18.488184
-8.9663124 28.446085 22.704866
-19.382977 18.923618 18.600742
-14.299788 12.259747 22.186764
-13.329103 29.492857 15.104193
-10.496731 27.047504 25.081844
-14.301184 13.459505 18.311237
-11.179382 26.423271 23.640823
-16.418606 21.632751 12.829761
-15.584159 15.222906 22.659126
-15.872132 27.884443 18.305511
-13.483855 30.165857 14.109793
-14.383208 29.896626 8.997509
-14.305637 10.47354 5.8776884
-19.299335 15.233323 5.4181204
-8.6104689 28.712444 17.142052
-18.060051 20.132425 7.1632724
-17.921181 20.259359 9.4664412
-13.105373 24.662577 22.633818
-10.383011 27.150742 20.507202
-15.463135 22.50696 20.091131
-16.915581 28.869034 15.019765
-9.556531 27.906439 21.871998
-18.553579 19.68133 15.586111
-16.479401 24.485802 10.089399
-15.730554 22.261646 11.463895
-15.068022 29.224518 7.1783509
-14.540289 26.340847 16.6534
-16.104023 21.921345 21.476067
-17.508163 26.767328 16.573128
-17.927238 15.229479 22.568142
-20.471733 16.435875 14.493725
-9.0459185 28.372368 16.652592
-17.235138 20.887947 24.996696
-16.888237 27.694057 7.2122951
-14.305387 15.140041 6.64009
-15.108421 29.183208 7.7441559
-17.653826 28.22538 17.048727
-17.44562 28.411934 14.226655
-16.776512 27.909201 18.330318
-12.599773 25.123262 10.684705
-14.304908 11.945028 7.9209204
-16.568451 24.121204 10.006971
-15.758679 22.236221 16.372177
-17.191568 15.227407 6.1160412
-16.542259 21.520189 17.875099
-19.832739 15.234819 11.567266
-16.398914 21.651482 19.547726
-14.302473 12.796396 14.701687
-14.742084 23.167185 27.23451
-13.639278 24.173611 16.724585
-13.686701 28.298416 17.820984
-12.61487 25.109884 15.863811
-16.42152 27.874905 12.193282
-11.146761 28.291222 16.823999
-14.64522 24.136427 16.6534
-14.304649 10.260422 8.6183109
-15.277641 27.021667 17.866222
-20.942425 17.497862 11.252652
-19.9683 15.810445 14.380317
-16.479401 23.014103 6.1668544
-14.301085 14.695944 18.590096
-18.332794 15.230616 20.578682
-10.355092 29.489983 14.962955
-19.504459 15.233897 9.1009874
-18.741856 15.231758 15.90986
-19.580282 18.743589 20.691185
-14.302815 13.518476 13.760155
-9.2382259 28.195969 12.743917
-16.852219 15.226465 24.459185
-17.668085 27.819307 17.843769
-17.118216 28.700363 11.993921
-16.839001 26.636057 8.42836
-15.86722 15.223692 14.207832
-13.814226 24.015142 26.01276
-11.24626 26.360409 6.1066575
-16.479401 22.539036 15.463937
-18.16326 20.03809 6.3318934
-9.0411282 27.870726 17.476807
-16.769217 29.001888 12.268884
-12.202384 25.488314 24.680815
-12.310987 31.776554 11.218698
-17.141632 26.937119 12.240726
-16.479401 25.206928 11.546312
-9.6752224 27.796377 9.3213892
-14.996552 15.221251 17.184265
-14.55743 15.22001 7.0333776
-11.42287 26.198978 10.317884
-16.839066 22.215057 5.9475627
-8.7872324 28.610136 24.998043
-14.3057 14.551618 5.7654581
-17.730511 15.228924 18.875103
-12.917038 24.83527 26.075804
-17.513678 26.655415 14.397622
-17.564665 28.304531 16.170156
-10.297871 29.829515 15.386006
-20.22167 16.380852 19.806074
-19.118753 19.164745 10.123881
-12.172024 25.516102 24.908705
-17.399744 20.737423 24.609064
-17.159618 26.901688 4.9999609
-21.074501 16.739826 19.858027
-20.694826 17.724335 17.786497
-14.30318 11.312304 12.719238
-12.523663 25.19434 22.800587
-12.370132 25.333374 14.432112
-11.640062 26.000462 10.651258
-15.391687 29.540073 15.933233
-16.837526 24.009729 15.746003
-15.993119 15.224042 5.8066759
-16.782534 28.992977 11.098749
-18.09724 20.099537 22.647669
-20.173416 18.201838 23.437904
-19.954218 18.40111 15.819245
-16.700497 21.375093 11.866364
-16.479401 24.224648 15.644061
-17.33707 28.522324 6.8768024
-18.934677 19.333191 17.222809
-20.798988 17.63036 25.719028
-9.7064791 30.954767 13.617107
-20.005703 18.35405 15.956406
-16.041161 29.64769 5.3299274
-19.9683 15.323578 20.578434
-15.948903 15.223923 17.454742
-17.285543 15.227674 19.046375
-11.579913 26.055439 9.6851244
-17.433544 26.418999 4.8410878
-17.649317 20.508657 20.581068
-9.340066 28.104582 23.641079
-13.344353 27.988554 17.362774
-14.30434 13.039772 9.5174246
-15.939494 29.720963 11.930645
-12.329364 25.372517 26.438789
-18.218061 15.230291 18.94006
-14.259693 29.108021 15.774054
-17.53511 27.584373 5.9417667
-15.641811 29.989815 6.9442048
-14.300286 14.864194 20.807915
-15.74287 15.223348 20.244503
-14.305364 11.693106 6.6514502
-18.406111 15.230816 15.203274
-16.667168 27.582468 18.145958
-16.073153 21.948503 5.1796679
-14.30349 11.134056 11.849921
-16.143169 15.22447 19.61344
-14.614657 29.662086 11.37629
-16.479401 24.163094 13.237176
-17.78178 15.229064 14.213638
-13.107101 24.660442 19.088924
-19.9683 15.359932 24.712427
-16.264378 15.22481 17.681381
-21.073999 17.07456 6.42658
-14.300401 15.219302 23.860594
-15.810286 28.481916 10.929802
-19.9683 15.998184 21.719906
-16.602581 22.428261 7.403893
-12.951966 30.290264 14.697502
-12.535976 25.183235 23.768665
-16.536322 15.225569 13.017628
-14.075808 23.774128 8.4227905
-12.176263 25.512394 25.987251
-10.941051 26.640015 16.519878
-17.895399 27.950308 12.724314
-11.659252 28.697392 16.193428
-15.202567 22.746098 26.190216
-16.446598 21.607164 6.2753401
-19.637964 15.234273 15.100316
-14.316031 29.951694 13.774431
-12.721567 25.01194 7.5056963
-6.3703346 30.818949 22.027279
-9.9218788 27.573299 27.166136
-12.934309 25.992973 16.6534
-16.479401 24.432659 6.179203
-17.344362 28.510971 9.1330652
-16.839073 23.077837 15.827979
-14.300529 14.707005 20.13809
-6.585227 30.621843 17.734039
-19.9683 15.780203 13.981598
-21.074333 17.166918 18.869175
-14.30004 13.323174 21.485786
-10.104068 27.406031 22.491547
-16.146973 15.22448 19.8102
-18.389088 19.83168 4.920064
-15.123325 29.167927 7.9699411
-13.100653 24.667259 24.991283
-14.449186 15.219722 23.201799
-13.425318 30.839676 10.350708
-16.839056 26.662325 13.325781
-15.642549 22.342583 17.685951
-10.692743 26.866337 9.4489441
-16.721272 21.35787 26.282957
-15.712978 22.279442 25.609238
-15.065529 30.477375 12.023552
-15.118227 29.16629 10.676271
-14.305328 13.742752 6.779304
-16.479401 23.708874 6.747303
-16.83906 21.556683 11.37042
-16.839027 25.710773 12.700761
-15.851022 22.151539 11.06161
-14.304987 11.405252 7.694531
-17.915562 27.836531 4.9103384
-13.061871 31.19627 11.358971
-14.304492 11.271289 9.067873
-12.658955 31.460287 11.674393
-16.372137 24.29953 16.6534
-17.25906 28.587593 7.8914542
-19.553539 15.234037 22.156445
-15.728915 26.813557 18.095259
-10.718921 28.391315 17.646864
-14.080499 23.76984 11.932947
-20.867056 16.52284 22.328375
-15.861704 22.142323 18.130003
-14.668873 15.220337 24.162466
-13.443296 28.080986 18.153063
-11.46848 26.157652 14.952436
-20.877798 17.557381 19.704163
-17.444153 20.695374 5.1193647
-18.077345 20.116619 10.561076
-16.149288 29.538446 12.329718
-14.299263 13.005135 23.644539
-17.906481 27.995207 8.4296799
-17.696159 20.466782 26.613234
-14.379059 15.219515 15.101483
-10.516791 27.027195 12.4604
-17.835516 15.229215 15.20373
-19.9683 16.150393 10.237245
-17.747047 15.22897 17.934605
-13.060561 29.686203 15.641621
-14.743488 23.163853 12.109084
-19.357935 18.946125 12.616406
-13.004198 24.754562 19.464226
-17.695362 20.467497 26.518269
-15.639306 28.644295 13.583803
-14.247231 23.617441 13.073284
-19.9683 15.748631 22.467712
-16.839006 26.552979 9.6456766
-16.839096 21.041872 13.094317
-13.651536 30.230326 14.810081
-10.561781 26.986055 12.379116
-17.513515 27.235655 14.461292
-14.598063 23.29847 24.905666
-18.511337 15.231112 14.997839
-11.973923 30.102776 14.05444
-18.70274 15.231648 6.1296802
-14.303983 14.107234 10.528354
-21.073999 16.937674 7.6610713
-16.475864 29.263546 8.8251734
-14.299646 14.14015 22.584045
-16.509247 21.5499 14.036715
-21.074785 17.309738 21.517963
-16.147697 28.147909 11.190981
-14.299166 14.544643 23.923332
-16.135605 21.891418 7.5955734
-13.087399 29.387445 15.238342
-16.007048 15.224084 10.661717
-16.535643 21.52606 16.719831
-15.410275 15.222418 23.3706
-18.288977 19.923183 11.941564
-14.303542 12.490302 11.725797
-17.503307 20.641724 18.015722
-16.600853 27.724529 12.672178
-14.477928 29.622232 15.780163
-16.479401 23.177387 12.031187
-13.174976 24.597511 9.0603399
-10.574316 26.976034 21.556168
-16.088486 29.598188 9.1494865
-16.554527 27.738155 14.356407
-9.1466837 28.279476 11.452112
-17.146006 26.641943 10.47992
-16.839054 21.557316 5.1937146
-17.777435 28.141495 6.6930842
-16.839006 25.620667 10.124529
-7.3167295 29.553062 24.970749
-17.900019 27.664501 5.7197399
-11.681404 29.555731 14.860885
-13.132436 24.636395 10.205332
-12.658555 25.069532 7.2598376
-14.305327 10.277892 6.7328072
-19.19488 19.095901 20.805136
-16.565472 29.190224 6.9216013
-14.304394 13.153814 9.3732424
-16.798752 22.410046 15.359543
-17.559361 20.590073 5.1915455
-15.057814 15.221413 5.0373921
-11.349945 26.267603 25.177588
-10.276092 29.436102 16.004456
-13.770013 30.170856 14.905983
-17.742588 15.228956 17.529682
-13.996135 23.847075 14.577286
-14.303824 12.785875 10.94942
-19.379429 18.927902 25.282488
-16.764912 25.33894 11.596172
-20.762714 17.662123 15.165119
-21.073999 17.334368 15.313715
-21.073999 16.711706 13.102921
-14.301329 10.944947 17.888998
-18.122311 15.230022 18.235008
-11.569229 26.065205 6.0644083
-19.9683 15.498579 8.4216194
-19.9683 15.685768 25.318291
-10.385647 27.147747 16.765728
-21.075573 17.289486 26.120325
-7.8023896 29.310926 15.240932
-16.874468 15.226519 11.345384
-19.077192 19.203703 22.233585
-16.839045 23.531582 9.5007296
-14.301365 13.080488 17.811245
-21.026024 17.42145 16.179115
-17.490984 20.654276 26.253946
-14.301268 12.936255 18.079554
-13.8507 30.416279 11.616878
-10.597359 26.955297 23.650375
-17.679825 20.479963 11.220057
-19.940834 18.413342 14.25791
-10.899693 28.176025 17.985302
-15.478582 15.222603 16.867685
-14.304946 13.747402 7.8475394
-14.301906 14.260481 16.31115
-16.506559 22.437176 12.979092
-20.701109 16.486349 22.670906
-16.290594 29.421286 10.013268
-14.033201 31.376743 9.4948244
-9.3743773 28.332481 17.739351
-16.227571 21.808302 20.795475
-14.299706 13.418468 22.414791
-14.951462 15.221124 17.636915
-16.032963 28.252281 14.835093
-14.301704 11.779246 16.845112
-13.819578 29.210056 16.40428
-16.80938 15.22634 20.099304
-9.1059093 28.318933 25.621876
-19.540813 15.234001 16.424763
-17.522589 26.954597 10.882174
-20.813232 17.615948 14.669885
-17.137426 26.913416 13.933532
-15.814089 28.486664 7.480382
-16.094841 21.92868 11.575603
-17.886642 27.753836 16.118406
-19.226147 19.067299 20.668205
-18.202606 20.002735 19.543383
-19.9683 15.265863 4.9794865
-17.157282 26.741209 5.9418011
-14.303802 14.547379 11.036026
-19.442875 15.233727 10.349131
-19.158482 19.128433 12.023235
-15.254869 29.041992 6.3370094
-13.70693 31.423677 12.657551
-16.839085 21.871244 7.3671722
-16.479401 24.123903 14.086473
-6.9506102 29.982811 24.181087
-20.553402 16.453846 21.502697
-15.199676 22.747953 21.15979
-13.045762 24.715651 13.582805
-17.942249 20.24017 15.967907
-13.809074 24.019592 24.347687
-13.582219 24.225811 16.984398
-17.221224 20.899137 6.2998481
-9.678894 27.794041 18.395414
-18.198008 20.00633 5.5538177
-9.1463795 28.280817 18.4547
-6.4178152 30.774946 18.182301
-14.071632 30.204235 9.0872583
-16.638321 25.327217 13.381605
-14.823841 24.470566 16.6534
-17.141542 27.46212 12.276483
-14.300402 14.957994 20.490948
-16.158356 28.144249 8.4055681
-15.581049 22.3983 11.159291
-13.069625 31.190388 10.637802
-13.423547 24.370312 12.486162
-14.30262 14.426451 14.317288
-14.305058 14.216911 7.5430155
-14.302267 13.352677 15.286724
-19.8417 15.234846 25.66116
-15.467992 22.501991 16.722305
-14.305564 15.112422 6.1509366
-20.541435 16.451214 6.1093092
-7.3151121 28.559845 27.655958
-19.534943 15.233986 24.193008
-9.282383 28.211 17.930321
-19.592897 18.731365 11.972309
-11.308002 26.304007 12.804657
-13.703437 30.992687 13.623734
-12.615417 25.110096 20.422878
-17.01965 28.800196 5.5022273
-16.288174 21.751968 5.5841665
-19.37952 18.926895 19.34873
-12.38205 25.322313 13.381959
-9.4662209 30.688375 14.035878
-17.846222 27.664499 8.0325022
-16.321438 21.722851 23.045519
-17.695751 20.465469 15.825435
-14.305777 12.653599 5.5214291
-16.620962 21.447813 15.081573
-16.479401 24.352264 6.5458136
-12.426643 25.282568 19.870907
-17.530176 27.230003 7.8884969
-16.183071 21.848034 6.3501616
-9.3509502 28.765808 16.087217
-15.772092 22.225378 25.430761
-16.479401 25.22014 13.483988
-16.479401 22.944099 6.2594471
-11.046086 26.545135 23.774006
-18.132124 15.230053 21.353884
-10.932343 26.647484 13.375284
-16.839027 24.806873 9.360363
-16.839003 25.947973 5.261066
-14.367526 15.219474 5.5603671
-9.4090214 28.911541 15.86097
-13.310629 29.214073 15.520641
-16.805592 27.701395 13.97907
-8.3867989 29.424286 15.064948
-18.909386 19.356113 15.436394
-13.750979 24.072374 22.270834
-20.0275 16.338127 22.576756
-7.9897962 29.337999 18.157087
-19.946671 18.408009 12.925818
-12.453186 27.891329 18.2213
-14.744078 25.283504 16.6534
-14.30427 11.250089 9.6854744
-14.376243 29.349302 16.2026
-15.946047 22.066185 24.276676
-14.306353 28.116062 18.122086
-13.407185 24.385269 11.680246
-14.303796 14.536182 11.054308
-15.008788 22.922571 21.974352
-15.391882 28.89073 12.781137
-15.728046 22.265291 23.203804
-10.968221 26.614632 13.002666
-12.624088 32.263779 11.48865
-13.596382 24.212336 7.2694144
-17.908054 27.957916 7.8190336
-14.855294 23.062551 19.883436
-19.273373 19.023422 10.249343
-11.695652 25.951527 24.761679
-8.0623913 29.272268 22.17277
-16.926044 21.169033 15.676399
-16.839027 26.059998 11.474396
-16.184553 28.117765 8.6489058
-11.111265 26.483795 8.053134
-20.041903 18.320963 14.240076
-7.311101 29.942696 23.97159
-19.41431 18.895086 19.311813
-8.8058968 28.591011 11.794455
-9.4695883 27.984333 9.7394314
-5.845736 31.297792 17.623444
-14.300873 13.016237 19.172899
-14.196312 30.07856 10.099882
-10.027338 27.474758 13.459538
-10.562283 26.986845 20.346554
-15.297443 22.658064 17.845108
-18.25798 15.230401 12.319113
-11.366335 26.251112 15.533643
-17.131985 27.072777 16.124273
-17.507328 27.13657 16.902983
-14.304026 10.846531 10.356157
-16.479401 24.523106 14.594362
-9.3352165 29.729252 14.591495
-13.238865 28.505154 16.577185
-14.305101 14.379498 7.4221101
-15.308406 15.222126 19.056147
-16.546438 23.290586 16.6534
-16.479401 23.023979 6.7092423
-20.65435 17.762289 23.9063
-8.2658272 29.062675 25.410694
-14.62694 23.270378 7.9068608
-15.801331 22.196955 12.338887
-16.608517 21.459167 7.3230619
-16.976349 15.226804 6.619885
-16.83901 25.026304 15.762851
-17.527205 27.283962 9.0615349
-19.583323 15.234121 22.549345
-18.633587 15.231454 13.751205
-14.577174 15.220066 9.6535244
-9.1205254 28.304523 18.918375
-13.997766 23.846939 23.25749
-10.931593 26.650303 27.007648
-11.588111 26.049818 24.687681
-16.492544 29.240303 12.767411
-13.631562 24.181595 22.67263
-10.9373 26.643616 17.611092
-16.504101 29.236841 9.8365307
-17.145208 26.582689 10.801117
-11.130336 26.467989 22.909691
-14.299267 12.471155 23.626484
-19.322857 18.978189 8.772913
-17.593073 27.664499 5.8338914
-16.274288 21.765903 22.749096
-20.11952 18.250019 10.060887
-17.138704 26.654053 13.418804
-9.9957848 27.504143 16.908615
-10.758156 26.807526 18.591606
-14.554689 28.221487 17.133516
-18.794228 15.231905 8.5758133
-15.655291 22.330439 6.2145081
-9.8188181 27.665163 12.175107
-19.837994 18.507339 7.7515087
-16.075638 21.94623 11.644214
-16.235886 21.801474 25.728552
-14.3029 13.730842 13.524202
-14.304296 9.8112469 9.5893402
-19.842905 15.234848 5.4017076
-15.052067 30.416279 14.012898
-9.8246765 27.661182 20.96003
-14.304163 11.161508 9.9802589
-14.299662 13.404743 22.537172
-11.700515 25.945206 10.747219
-13.312608 24.471712 10.458184
-14.299544 11.15921 22.860987
-14.305634 14.134565 5.9396906
-13.761713 30.541691 14.327988
-10.072252 30.940992 13.638763
-18.891506 15.232179 7.6402617
-16.423227 21.628525 12.039767
-12.726074 25.007923 13.893491
-21.062477 17.38813 5.0706353
-19.039095 19.237556 5.293891
-15.625448 28.668987 9.1231899
-15.950994 28.33794 12.938982
-17.115356 20.995903 8.8501883
-11.820299 30.562466 14.24237
-14.992548 30.540224 12.172773
-12.651909 25.075607 7.6044207
-20.511303 16.444584 12.970658
-14.93001 26.624195 16.6534
-9.4416294 30.20026 14.803194
-16.954512 21.144257 23.66378
-13.643764 29.386255 16.124935
-15.144592 15.221661 7.9308853
-10.31564 27.211018 8.6779728
-17.154121 26.9403 7.2132721
-14.480275 15.219796 11.224233
-16.479401 24.267134 13.303995
-14.305089 11.359343 7.4123158
-19.709291 15.234474 17.966518
-14.122042 25.495071 16.6534
-14.353175 10.914351 22.352787
-12.431189 25.277355 9.3275623
-16.255754 28.029079 16.085354
-16.83909 21.587402 16.433598
-20.471115 16.43574 13.844268
-16.858683 28.921463 13.600391
-14.335135 26.769844 17.785042
-17.889156 20.290077 24.766342
-6.842042 30.387478 20.206263
-13.861799 23.971375 24.202555
-16.479401 23.156675 15.232249
-14.3018 12.683185 16.592371
-16.479401 23.474182 15.041281
-14.698027 23.205626 15.513724
-16.839003 26.437332 9.352212
-14.310535 26.90576 17.782925
-13.313832 24.471634 20.126656
-15.500475 15.222664 16.619663
-14.299498 11.437453 22.988003
-9.5601749 27.902525 18.14875
-13.911541 31.479837 10.493212
-9.1248894 27.788467 27.948608
-16.648716 15.225883 13.630602
-16.479401 23.578091 7.7121234
-11.301722 31.237652 13.176193
-11.808537 25.84647 8.1463289
-20.515749 16.44556 10.025409
-21.07058 16.567646 16.461342
-11.83707 25.82192 22.597549
-14.304068 15.005979 10.30464
-17.532309 27.107052 7.0478878
-10.621317 26.931622 11.207603
-14.304387 13.019869 9.3850136
-18.996769 19.27664 18.540531
-19.947495 15.235142 23.131815
-14.685913 15.220376 12.796061
-20.300369 18.084717 7.3888006
-19.9683 15.721586 17.569763
-14.300177 12.657188 21.105524
-14.300711 13.472383 19.625294
-14.870484 23.049015 22.113422
-16.647404 26.58013 18.14489
-17.158808 15.227316 6.1872835
-9.4390345 28.86264 16.905941
-14.305971 14.456676 5.0073371
-13.909946 31.478626 11.653363
-15.360422 22.599958 5.9665055
-16.839083 23.046017 16.490444
-14.076427 23.774845 22.027447
-10.880124 31.063644 13.445955
-14.30011 11.446643 21.290396
-18.094208 20.101206 5.6506987
-16.421452 21.63015 12.701452
-14.302191 11.350478 15.469849
-13.768443 24.055067 5.6287885
-19.414328 15.233646 23.984409
-14.303861 15.179482 10.88168
-7.6558151 29.643841 21.669226
-14.406603 26.753979 18.023802
-15.548433 22.429483 23.261948
-14.813139 29.469093 10.117102
-19.9683 15.960653 4.7897868
-17.528919 27.551437 8.3842087
-9.914134 27.578003 9.9240255
-7.3936787 29.883636 22.817844
-19.9683 15.861944 23.116501
-16.983303 27.681784 13.407789
-10.273471 27.251617 25.277134
-14.305298 11.583731 6.8356285
-19.96981 18.386858 11.237888
-19.9683 15.436561 11.933012
-16.479401 25.142761 12.141248
-16.839031 25.456333 8.9225407
-12.868894 31.347858 13.047478
-14.94018 29.348927 7.9482989
-14.772776 23.138113 20.723764
-16.0793 28.211845 12.666986
-17.53027 26.510355 7.8514762
-14.914097 15.221017 12.661923
-16.098309 29.583933 11.724777
-20.465202 16.434439 8.3201408
-15.47797 22.492516 11.9636
-14.603654 15.220146 15.191088
-21.055607 17.394409 6.1233463
-7.8936987 29.426731 23.854784
-14.67593 28.823696 17.029726
-18.688662 15.231615 24.027632
-12.427619 25.282066 22.373009
-6.8313713 30.397648 22.880217
-9.3664131 28.681589 17.190554
-17.380417 15.22794 17.125523
-14.516367 29.401522 16.125088
-16.848408 21.24111 22.781704
-10.066084 28.093185 18.115528
-14.302522 14.346735 14.591455
-19.636772 15.23427 15.804128
-14.302332 13.036574 15.096168
-13.236187 24.543522 25.970392
-12.775784 32.283176 11.268239
-16.515539 27.780312 12.883389
-11.167818 26.432432 14.623408
-13.196062 25.196003 16.6534
-19.9683 15.906683 16.978292
-11.195897 26.407202 17.408239
-14.304141 12.747623 10.065645
-14.303556 12.42531 11.684289
-20.087126 18.279627 14.882621
-8.7654743 28.627911 11.289417
-17.157635 26.998892 5.7990026
-16.163925 21.866318 19.738533
-12.771658 29.997227 14.292055
-14.443863 29.824989 13.745256
-16.839062 22.805117 16.301584
-9.6494732 27.821272 20.560484
-8.6559315 28.620399 26.211813
-17.421829 20.715778 11.785675
-18.343744 19.873926 20.826519
-11.53694 27.664497 18.074348
-16.839006 25.40173 9.6448574
-14.454721 31.010181 10.2265
-16.946667 28.848257 12.271756
-21.074183 16.794088 17.990997
-19.9683 15.706148 20.365097
-17.155615 27.206802 6.6124597
-8.0553722 29.277351 13.654146
-18.787634 19.467396 11.530303
-15.954195 22.057238 14.680272
-20.44651 16.430326 11.833304
-11.875549 25.78656 21.404446
-17.601124 20.552923 21.928699
-16.8391 22.049486 8.4067802
-14.870907 23.048223 19.522144
-14.305174 14.25507 7.2218542
-17.064121 27.674351 7.7665529
-10.481228 30.242153 13.795229
-15.073644 15.22147 20.430752
-12.725923 25.008886 19.156372
-16.019646 21.99741 5.2558756
-16.754906 15.226182 9.0411539
-14.301516 12.358263 17.380453
-15.229992 22.719175 11.410065
-13.628721 24.184402 24.028633
-7.6823435 29.618357 13.779294
-16.680214 22.421047 10.664127
-13.837915 23.993347 25.093983
-11.20324 30.02993 15.070956
-19.9683 15.302729 18.198879
-15.50588 29.44874 16.078663
-16.288332 15.224882 24.657394
-13.446199 30.46175 13.449667
-14.301701 10.383898 16.832289
-16.479401 24.561987 7.6702652
-16.632915 21.436867 10.430559
-13.306849 24.47805 20.342953
-11.31803 30.716675 13.068182
-15.912716 27.664499 18.300064
-16.479401 24.901821 10.974939
-13.537691 30.661621 12.825119
-17.535576 26.658098 5.758729
-17.135176 27.17606 14.839157
-16.479401 24.876652 14.295929
-17.133793 15.227245 8.9588375
-17.518082 26.654236 12.660245
-17.130602 27.068518 16.680807
-16.479401 23.527702 7.9330187
-21.075314 17.020695 24.596376
-16.8391 24.833868 8.1695976
-18.894419 19.369793 14.971318
-21.063049 16.565989 16.505503
-14.513512 29.759581 12.364924
-12.240141 25.451973 10.136221
-19.115456 15.232807 6.0660119
-18.775709 15.231854 7.5253716
-14.304953 11.69384 7.7965207
-16.218008 29.48597 9.1874466
-14.70578 29.577435 9.1966829
-10.531331 27.01387 9.3475485
-13.232212 24.5474 27.544819
-11.576448 28.178352 17.981642
-14.302946 10.611105 13.349722
-12.545456 25.175152 27.471416
-21.070499 17.380798 9.8531618
-21.073999 16.985065 11.518677
-17.383568 15.227956 25.141731
-16.071547 21.949972 10.73463
-14.502941 29.768017 13.178104
-17.159588 20.955475 12.802963
-14.231931 31.198307 12.461391
-20.691181 17.728582 23.645428
-16.682224 21.391796 6.5004663
-16.519878 21.540859 19.225368
-9.1903009 30.867811 13.753803
-19.9683 15.587795 15.913753
-13.752658 27.817148 18.247375
-17.133568 26.554007 15.486219
-10.480459 27.060411 12.500822
-15.083239 24.629105 16.6534
-14.302681 13.135594 14.127406
-7.7831206 28.994164 26.006189
-15.073416 30.468246 13.053847
-16.34667 29.375462 8.7950668
-12.481598 28.048964 18.185041
-14.751478 15.22057 24.364513
-18.793278 19.462399 16.934433
-16.701853 21.3745 19.11186
-17.202524 15.227442 18.128298
-16.479401 23.978933 14.586777
-17.986404 15.229643 19.707998
-15.402436 15.222383 7.8241291
-15.318628 15.222158 20.691311
-17.61907 15.228615 23.535892
-16.839066 21.470665 11.66251
-14.30337 11.644672 12.189967
-16.291422 29.430849 5.411459
-16.470198 21.585594 10.859374
-16.479401 22.811069 11.926266
-11.101116 26.493074 10.89662
-12.238947 31.453154 12.054655
-19.186441 15.233005 15.593117
-13.863552 31.522202 10.127093
-14.302534 12.732758 14.528165
-15.644924 22.341864 26.986464
-15.236614 22.713985 19.857893
-13.491087 24.310078 23.16135
-16.839058 21.572624 12.067845
-14.710004 29.580824 6.1299067
-8.285346 29.068237 20.711508
-14.304747 14.837535 8.4190702
-14.276929 23.591095 19.007967
-11.134763 26.4645 26.473379
-16.0737 21.948555 18.24337
-14.302097 13.800845 15.77048
-15.639513 28.643255 13.922789
-14.305164 13.532152 7.2353344
-17.903511 27.721235 9.580183
-14.652023 23.248602 21.434641
-13.807403 30.134193 14.964132
-9.77841 27.702061 10.901183
-14.301423 14.88817 17.654032
-16.787359 27.70532 7.0636959
-16.8391 21.848518 8.3600016
-14.299242 11.378604 23.695366
-12.986099 24.770149 12.316515
-18.210245 15.230268 5.6805863
-14.974037 22.953121 13.658916
-13.770792 26.600454 16.6534
-15.807535 28.473356 15.501818
-11.531949 26.099676 15.215545
-19.276009 19.021847 21.481579
-9.9655476 27.532448 21.175137
-16.858599 15.226474 9.8803463
-14.301098 13.037035 18.550646
-16.746586 29.030922 8.0427313
-10.843448 26.729214 16.380919
-18.710526 19.538982 22.944984
-12.581563 31.13098 13.377501
-16.806957 21.277786 6.4192472
-14.300087 11.022827 21.353205
-8.9031906 28.503164 18.758106
-18.399204 19.82337 21.739468
-15.437082 29.515417 15.972894
-12.78854 27.514935 17.653
-14.567241 30.911282 10.89333
-11.258501 26.350824 22.833122
-15.790688 29.856804 8.7888317
-19.258221 19.03727 12.110206
-10.992304 28.842476 15.968186
-16.002483 22.014072 20.908997
-15.400293 15.222383 17.70039
-13.034447 29.634102 15.722075
-13.001273 27.412273 17.947861
-16.934965 21.160784 5.4018669
-14.305496 13.371611 6.3110733
-19.9683 15.328299 8.4210901
-16.630032 21.439503 12.709326
-16.054802 15.224226 23.380688
-12.170251 29.267262 16.269913
-7.9642329 29.362066 22.636454
-21.075176 17.166319 23.802692
-15.509092 28.792259 5.7525077
-14.063175 24.03327 16.6534
-17.736135 15.228937 13.192581
-18.558903 15.231244 14.470239
-16.839098 21.014439 11.488294
-17.509632 27.066357 15.994345
-14.30337 15.199681 12.246729
-16.668375 15.225941 7.3355112
-12.528487 25.188999 16.84568
-16.479401 23.719893 15.634431
-15.508935 30.10523 6.7735562
-17.180578 20.937244 21.306797
-14.301962 14.887975 16.157393
-14.302676 13.004654 14.13867
-21.073999 16.9767 9.2193966
-20.072096 16.347939 17.446871
-12.380998 25.3253 26.316391
-16.839088 21.572273 7.8579483
-20.13026 18.2402 7.1390495
-11.483604 27.183174 17.937099
-19.683031 18.648981 10.257395
-17.513243 27.505009 14.569575
-12.714929 25.018007 7.9811668
-11.993067 25.679501 23.735487
-19.035217 15.232586 22.214048
-17.133293 26.840563 15.596897
-9.1924992 28.239914 26.4806
-10.535213 30.694778 14.025812
-14.303052 10.500347 13.057631
-16.839001 25.905645 4.9343562
-21.073999 17.165817 15.054983
-13.757959 24.064648 7.0003438
-14.305157 13.170593 7.2501364
-11.893761 25.768578 9.602519
-14.450205 26.043427 16.6534
-11.502566 26.12668 16.160172
-6.3952742 30.795979 20.935257
-18.735195 19.515343 15.981631
-14.300457 11.245195 20.327423
-13.656353 31.700083 10.797429
-16.479401 24.382164 13.379272
-14.303368 13.137601 12.220843
-16.139654 15.224455 8.8506737
-16.839062 23.035006 16.305111
-15.054181 22.879868 11.631074
-16.839066 26.279133 15.255522
-14.95187 22.973404 14.323256
-11.889559 25.773584 20.333483
-15.337076 22.623001 25.277966
-17.338114 15.227821 17.203556
-14.30482 13.695217 8.1924906
-11.099925 26.494164 10.866188
-14.301064 14.668892 18.651533
-6.1282187 31.039423 16.657402
-16.112125 21.914347 24.100533
-16.839039 21.982302 12.506979
-15.135713 27.664499 18.238779
-16.217817 21.817745 24.157719
-13.930408 29.27482 15.491072
-17.691679 27.664501 11.070818
-16.50778 27.794559 10.215136
-16.901451 15.226593 12.561131
-20.585257 16.460855 15.326707
-15.545966 15.222789 9.282198
-13.770403 24.054369 20.67861
-15.37264 22.590153 23.106255
-17.086033 15.227112 11.775078
-19.277523 19.020929 24.467789
-14.301021 11.336871 18.762484
-17.903131 27.905891 9.7278442
-17.074133 28.751266 6.2905583
-9.3243885 28.117752 16.217379
-14.301878 10.644727 16.336704
-11.624145 26.015297 14.55276
-14.305352 14.164826 6.7260404
-15.413105 28.594303 16.238436
-8.7957668 28.600647 14.187337
-12.405725 31.673653 11.387598
-10.295807 27.230116 18.346014
-12.272931 25.42222 14.399746
-15.096591 30.450932 11.823355
-14.302401 12.69591 14.900002
-11.421516 26.543621 17.653
-16.367388 21.679565 8.5458145
-15.300297 22.654913 12.921419
-10.997092 27.664501 18.018822
-20.236137 16.384035 6.8383241
-14.552397 23.917273 16.6534
-17.902107 15.229403 18.112873
-17.936302 20.245537 7.9889956
-15.175092 29.115963 8.3019934
-10.178244 27.338022 21.184994
-14.300929 13.133965 19.018635
-17.978607 20.206869 15.232228
-21.073999 16.726263 9.3595142
-14.373528 23.502003 8.1521969
-12.355851 28.998209 15.74968
-18.648834 19.594265 8.1187372
-17.13583 27.065804 14.576035
-17.273006 28.570946 9.9401493
-19.9683 16.282648 20.579187
-15.655763 22.330084 15.003135
-14.898941 23.021763 12.703487
-15.277327 22.676428 17.667461
-12.737377 24.997486 6.7486482
-15.375584 15.222321 23.509478
-16.232391 28.060442 12.728516
-15.719476 29.911945 11.70415
-14.301664 11.630361 16.9527
-14.679235 30.514015 14.142692
-10.911662 31.261442 12.21281
-17.514992 27.102081 13.878982
-15.40993 30.190472 6.983736
-13.976756 23.864662 12.869397
-5.8059778 31.334293 18.648026
-14.303801 11.392925 10.993799
-20.966442 16.544733 13.397081
-15.291553 22.663023 15.12402
-16.839046 24.249506 8.9951496
-16.597136 29.158804 8.7149725
-14.283372 23.584795 16.373726
-8.7428303 29.109779 16.517439
-16.600769 21.466248 7.3739414
-16.003233 22.014076 25.325439
-19.978516 16.327347 24.945696
-11.475431 26.151806 18.211117
-19.9683 16.098314 14.531695
-20.883167 17.553501 26.279339
-12.472138 25.239922 6.5806408
-20.568665 16.457207 13.702534
-7.5624819 29.728642 18.391529
-14.213043 23.650187 23.443178
