# .PCD v0.7 - Point Cloud Data file format
VERSION 0.7
FIELDS x y z
SIZE 4 4 4
TYPE F F F
COUNT 1 1 1
WIDTH 1527
HEIGHT 1
VIEWPOINT 0 0 0 1 0 0 0
POINTS 1527
DATA ascii
-46.499634 -9.8175373 30.485771
-33.141735 -9.0311832 33.301579
-32.104294 -22.65407 23.313446
-35.908558 -8.1510754 30.526844
-40.115719 -10.7692 31.452667
-44.062927 -13.411895 31.382999
-45.407799 -22.537437 29.777779
-46.570705 -9.8415051 34.517338
-44.713905 -10.7692 33.405548
-44.042904 -10.719536 29.2166
-28.982708 -6.5778418 25.566868
-29.014954 -7.0962629 27.201311
-32.00061 -11.593393 35.511299
-44.825935 -18.527885 29.2166
-46.094925 -10.7692 24.778219
-44.014595 -8.9794779 28.135221
-31.752022 -10.7692 34.207016
-42.977119 -8.6295967 31.257212
-32.408405 -10.7692 34.409866
-37.393856 -9.93293 36.144539
-44.289383 -10.7692 34.730183
-43.897999 -12.373938 30.149471
-30.319527 -11.1538 32.63324
-46.745605 -11.639804 29.826141
-43.898003 -15.95159 30.943674
-41.979683 -10.7692 29.747082
-43.898003 -15.148428 30.292952
-46.947422 -10.3266 34.270538
-34.612423 -10.7692 27.662678
-42.984795 -11.8008 35.744301
-31.249849 -18.278736 32.632835
-45.407799 -14.036484 29.829359
-46.1898 -11.136189 34.752331
-31.923084 -9.3107557 34.182999
-46.310455 -9.7537384 25.204588
-45.407799 -17.080933 30.261742
-30.878437 -9.7513704 35.572132
-32.104431 -11.820465 27.463169
-30.456535 -15.408493 32.633175
-29.6987 -9.1565161 33.69672
-41.244598 -8.0453186 27.48452
-32.104538 -15.161179 30.852407
-34.660217 -10.7692 32.093601
-45.407799 -13.187421 31.339931
-30.627047 -11.567038 32.633114
-29.91198 -8.4669371 31.522669
-43.84166 -9.7986059 35.721054
-35.848953 -10.7692 27.001337
-29.447611 -7.5643282 28.676991
-35.766529 -10.7692 34.991638
-45.615444 -10.769199 29.024515
-37.420731 -10.400751 36.176388
-42.396896 -8.4339218 25.102064
-27.36738 -6.3356428 24.803288
-30.574829 -9.9506874 36.200523
-42.243629 -10.7692 28.853666
-32.104465 -11.335655 28.606724
-43.224556 -8.7130432 24.207764
-32.104389 -19.68387 26.340136
-32.104576 -15.182292 31.991995
-32.104324 -21.392401 24.4063
-40.760941 -10.7692 27.33201
-37.8563 -11.051115 35.511299
-29.90226 -8.2290783 30.772762
-44.458431 -9.129158 24.464539
-29.427515 -10.7692 32.900867
-41.39146 -10.769199 27.072777
-43.897995 -21.462929 29.764309
-43.363365 -9.8850822 35.99369
-31.602991 -11.091369 35.511299
-38.138149 -8.7734585 32.489044
-43.897995 -12.679297 30.128992
-45.407799 -20.910225 30.393162
-32.104397 -14.372787 26.459858
-31.122684 -20.042526 32.632881
-46.745602 -10.865298 24.224075
-28.380402 -15.146171 32.634048
-32.104259 -21.20594 22.231407
-34.33234 -8.9258442 32.969475
-29.686909 -6.8991394 26.579834
-40.648472 -10.911005 35.511299
-36.127327 -9.5137844 34.82309
-32.104473 -15.19021 28.835951
-29.563013 -11.599805 32.633553
-32.104271 -20.166826 22.798666
-40.490429 -10.7692 28.196255
-45.219929 -9.3859673 33.35955
-36.660313 -6.828671 26.357666
-34.564159 -8.7505159 32.416718
-27.856781 -10.7692 35.166355
-39.350609 -10.330028 36.4104
-45.3074 -19.622084 29.216602
-31.397991 -11.174459 36.131432
-35.746326 -7.5813565 28.730679
-29.803305 -6.9605813 26.773542
-39.831436 -7.5687413 26.774948
-31.36578 -10.832297 36.130821
-34.87014 -8.3624687 31.193306
-46.745605 -11.76555 25.907225
-40.302292 -7.7275343 27.687672
-32.104446 -17.590004 28.084965
-32.460449 -11.438822 36.139786
-35.073101 -7.7843728 29.370731
-32.104511 -16.9053 30.001816
-41.439163 -9.2307796 33.930855
-36.292706 -9.6837406 35.358917
-30.953817 -15.891718 32.632965
-28.176937 -10.7692 35.174149
-32.104568 -24.137764 31.809479
-44.357334 -17.851593 31.382999
-45.009895 -9.315134 32.075638
-46.716759 -11.148134 36.247871
-34.853619 -10.7692 24.824854
-42.039688 -8.8815727 32.829899
-30.181061 -9.5350742 34.890209
-44.170124 -9.031929 25.041107
-28.633064 -10.7692 34.947842
-44.344078 -23.843042 29.2166
-32.104561 -12.462603 31.497322
-45.407799 -17.596762 31.309151
-46.581123 -11.8008 32.188301
-47.055115 -10.3266 29.967949
-44.2901 -9.0723896 28.158012
-40.298492 -7.7262535 27.139313
-32.104431 -17.674059 27.628983
-34.936581 -10.304693 36.444901
-43.897999 -22.114246 30.081602
-39.714958 -10.7692 24.246016
-32.104332 -17.954706 24.66913
-32.104324 -14.97213 24.429775
-32.10445 -11.738949 28.089705
-39.558636 -10.7692 30.321436
-41.699417 -8.1987028 27.024494
-43.357849 -8.7579956 27.395466
-46.694263 -9.8831739 24.064753
-26.757627 -7.3959475 28.146132
-30.929188 -14.307482 32.63298
-45.15139 -21.562048 31.382999
-40.00024 -10.7692 28.459913
-38.769958 -9.4699192 34.684795
-46.745602 -11.047495 33.115005
-37.994152 -8.7006931 32.259636
-28.668621 -8.6011143 31.945694
-39.438663 -10.655602 36.192005
-32.104572 -11.350238 31.853016
-35.391766 -11.292781 36.161926
-33.936016 -8.9928856 33.18084
-42.059937 -10.769199 26.758774
-37.093925 -10.7692 29.89068
-43.381687 -11.350866 36.222736
-27.555483 -10.7692 33.397362
-32.104328 -10.94989 24.238234
-29.898001 -19.808947 32.6334
-30.277657 -15.832621 32.633251
-34.820705 -10.7692 24.236076
-31.712919 -22.224384 32.632622
-32.104378 -15.356967 26.057804
-36.612495 -9.2962627 34.137306
-31.876492 -15.416971 32.63258
-46.823528 -10.3266 30.725687
-41.864006 -10.769199 25.491613
-28.214161 -17.756224 32.634113
-43.897999 -11.584527 31.322704
-43.897999 -16.102453 31.082151
-39.689434 -10.7692 27.538929
-32.104416 -11.448999 26.94772
-36.791225 -10.7692 24.521666
-32.104473 -20.395569 28.831211
-45.206936 -18.156055 29.216599
-45.548702 -9.4968443 30.864933
-43.82024 -10.769199 24.780313
-33.938297 -6.4065442 25.026817
-40.182739 -7.6872168 24.333561
-32.104343 -11.85175 24.795292
-32.104279 -15.748382 23.114944
-32.104309 -13.368808 23.859364
-32.104504 -23.55188 29.830425
-41.111187 -10.7692 31.464125
-41.103279 -9.839695 35.850594
-42.695656 -10.7692 35.456665
-39.759304 -10.7692 31.103954
-40.713642 -9.4241495 34.540493
-43.897999 -19.462971 31.184917
-42.914246 -8.6083937 25.7523
-28.317371 -7.5901499 28.7584
-43.01778 -10.7692 33.461948
-42.781891 -10.7692 32.88673
-45.221786 -14.090946 31.382999
-26.901543 -7.2286196 27.618595
-45.407799 -19.811321 30.234184
-32.104519 -18.359745 30.287432
-32.104343 -19.34984 24.971754
-41.835995 -11.64494 35.511299
-45.407799 -19.309959 30.546089
-46.366055 -11.8008 29.918207
-45.316376 -10.769201 26.614281
-37.119781 -11.58378 36.175369
-46.745598 -11.76683 30.364447
-30.042084 -13.750548 32.633358
-45.990643 -10.7692 33.366833
-41.231804 -10.7692 25.095697
-44.724995 -10.7692 28.738871
-38.242828 -10.7692 30.185955
-31.533951 -10.769199 34.299053
-42.583538 -8.4968662 27.940811
-30.333168 -11.774752 32.633236
-39.54562 -10.7692 31.66622
-35.347244 -10.769199 35.105488
-44.55294 -23.25931 31.382999
-28.825935 -14.835262 32.633862
-33.70636 -10.7692 34.529083
-45.407799 -20.386692 30.559637
-43.897999 -11.475304 29.243975
-46.745602 -10.983482 26.64444
-27.877047 -14.569372 32.634254
-32.104538 -22.725647 30.695034
-37.898518 -9.644908 35.236485
-47.124298 -10.110111 34.307541
-32.10434 -18.571735 24.910624
-39.858036 -10.7692 29.458149
-30.79822 -8.8306236 32.66927
-46.135479 -10.7692 33.960152
-34.352123 -6.614316 25.681862
-43.812584 -10.32804 36.40686
-29.090202 -6.8861742 26.53896
-33.973309 -10.7692 26.727491
-43.26638 -10.7692 34.463757
-36.531151 -9.1811676 33.774437
-44.718288 -10.769199 23.856915
-41.958569 -9.2658682 34.041477
-34.648304 -10.7692 25.822399
-32.104385 -18.209557 26.254951
-32.104404 -18.283993 26.833134
-45.407799 -19.5807 30.555882
-31.761234 -23.608839 32.632599
-33.473751 -11.393711 36.147442
-32.104378 -22.604317 26.042946
-44.24622 -9.0575914 32.504997
-31.097475 -8.3881512 31.274277
-30.174242 -7.6206775 28.854645
-41.866379 -10.7692 25.12771
-35.019417 -10.7692 30.027817
-30.04422 -20.765331 32.633331
-30.819521 -6.4809027 25.261251
-31.937185 -6.3892851 24.972403
-27.520317 -16.352684 32.634407
-45.407799 -10.45334 30.78857
-44.832397 -10.7692 24.629633
-38.729416 -9.6087036 35.122345
-36.225029 -6.8802834 26.520386
-31.836693 -9.6871662 35.369717
-28.903975 -13.250542 32.633827
-45.407799 -18.192211 29.351601
-31.146805 -22.588902 32.632858
-34.378098 -8.5719147 31.853634
-30.447826 -7.2782073 27.774933
-39.374809 -9.6968803 35.400337
-32.104454 -10.938407 28.241295
-44.505108 -17.870626 29.2166
-43.897999 -17.053473 30.477623
-44.983917 -24.040787 29.216599
-41.888103 -10.7692 29.391104
-32.104523 -21.451277 30.34116
-40.824303 -10.17159 36.444901
-28.311638 -9.9219875 36.110039
-31.725559 -10.7692 35.344414
-44.229469 -9.2962742 34.137341
-32.104416 -18.666224 27.204679
-32.104576 -13.231249 31.973972
-38.598667 -9.5400257 34.905819
-30.988567 -10.7692 34.48016
-27.868885 -9.4401045 34.590797
-38.496155 -10.769199 32.828701
-47.09346 -10.017801 26.795715
-32.104485 -16.235626 29.24752
-40.215279 -10.7692 28.727858
-40.116734 -10.7692 24.633284
-45.591572 -10.7692 27.494303
-32.104301 -18.313789 23.818964
-45.758331 -10.7692 34.820202
-40.21447 -10.7692 29.267498
-41.890968 -10.081446 36.444901
-33.00798 -6.5633612 25.521217
-45.407799 -16.771467 29.528961
-28.442251 -6.7013435 25.956238
-37.574017 -8.4916592 31.600613
-40.310143 -7.7301807 28.138292
-45.311554 -9.4168663 30.528282
-40.261452 -7.7137604 26.786432
-37.039627 -7.3218098 27.912397
-40.40078 -10.787251 36.199463
-42.911888 -10.769199 34.993324
-32.104317 -15.486765 24.18602
-30.603233 -9.7466726 35.55732
-41.214981 -10.7692 24.804543
-27.61908 -6.6919975 25.926771
-30.468224 -22.683643 32.633144
-28.026379 -9.0643435 33.406128
-32.814072 -10.7692 30.879181
-40.246189 -7.7086143 28.211443
-41.343533 -8.0786839 25.372425
-45.488808 -9.4766436 30.078358
-47.098686 -10.3266 31.616812
-45.407799 -14.235615 30.138985
-45.407799 -21.140598 30.546736
-32.104473 -13.473257 28.812901
-35.994732 -9.4001865 34.464943
-45.407799 -18.103613 31.290907
-26.878555 -6.6967773 25.941843
-43.897999 -20.410618 31.228582
-32.104538 -12.498222 30.812578
-33.823807 -10.7692 26.844551
-39.228642 -10.769201 29.883131
-44.328457 -10.769201 31.997879
-36.835236 -10.7692 34.077232
-44.36908 -22.635927 31.382999
-27.167032 -7.9941406 30.03207
-46.745605 -10.990804 24.556009
-34.242844 -10.67672 36.152527
-41.874207 -10.7692 28.945667
-32.104347 -15.871048 25.055447
-39.731232 -10.7692 26.784515
-45.407799 -12.97449 30.303104
-32.104465 -18.587494 28.74015
-39.95134 -11.8008 35.705055
-42.370338 -11.606822 35.511299
-46.884865 -9.9474535 30.035595
-32.104443 -11.744526 27.793356
-30.950497 -20.018169 32.632954
-35.756737 -9.749671 35.566772
-46.745602 -10.353468 29.384081
-45.875107 -10.769199 24.954203
-45.324211 -9.4211349 27.702932
-32.362164 -6.4865456 25.279037
-37.187744 -10.769199 30.8876
-43.693855 -10.769201 24.305077
-32.104294 -17.694595 23.390642
-40.429626 -10.7692 30.681686
-32.104584 -18.648449 32.109135
-45.292213 -10.7692 34.652554
-38.466385 -8.5280161 31.715235
-42.456345 -8.4539709 29.588848
-42.226902 -10.769201 34.989086
-35.60281 -10.7692 32.548588
-32.104313 -12.126923 23.882662
-45.139389 -11.143735 36.235874
-44.621513 -14.475521 29.216602
-30.201281 -9.0418835 33.33532
-32.104515 -16.486794 30.097347
-35.594402 -10.7692 29.839493
-45.407799 -18.453356 31.158508
-46.511044 -11.8008 30.186745
-30.226982 -7.6707335 29.012459
-45.217827 -17.746695 31.382999
-38.234848 -10.769199 34.78125
-32.104424 -23.050587 27.350204
-31.063044 -11.132833 35.511299
-27.588909 -10.7692 35.219952
-46.745602 -11.373582 29.153028
-31.647814 -12.42663 32.632687
-29.570049 -11.981686 32.633553
-46.1898 -11.767426 31.154022
-41.177872 -8.0228167 28.835394
-45.407799 -23.282722 30.344053
-45.749401 -10.7692 32.644127
-28.330296 -22.499226 32.634045
-31.509758 -8.4932823 31.605726
-44.944389 -12.232493 31.382999
-40.266258 -9.9326353 36.143608
-43.897999 -22.364397 29.798077
-45.221088 -18.3349 31.382999
-43.898003 -16.136433 30.900366
-32.104416 -17.734726 27.14469
-45.407799 -11.845543 30.376915
-32.104271 -20.230354 22.783686
-42.492363 -8.4661179 24.631191
-32.66703 -9.9256363 36.121544
-32.104362 -11.608301 25.294035
-32.107365 -7.3471289 27.99222
-45.971527 -9.9470797 36.189152
-43.384605 -10.949345 35.511299
-36.467453 -8.7984037 32.567692
-27.033751 -7.3722324 28.071365
-38.436661 -10.7692 34.395416
-45.407799 -13.434711 31.281521
-34.183876 -11.8008 36.067398
-40.871231 -9.0917692 33.492592
-32.38401 -7.0497603 27.054701
-32.104404 -18.781891 26.845348
-46.1898 -11.100771 30.557781
-47.124298 -10.316193 35.639137
-27.511837 -10.7692 34.440067
-31.354099 -10.7692 33.082615
-37.004963 -10.7692 27.355301
-32.104431 -15.585094 27.652018
-28.715897 -10.769201 33.990704
-27.089678 -18.687504 32.634583
-32.104546 -14.55625 30.982304
-45.419735 -10.102458 36.444901
-39.855621 -10.7692 26.392094
-29.707657 -7.2946315 27.826714
-44.025295 -10.7692 30.133888
-32.021542 -13.404121 32.632526
-32.104317 -23.195461 24.249672
-32.10458 -23.769125 32.09235
-29.898729 -23.288315 32.633385
-29.806021 -16.046154 32.63345
-32.104557 -16.346392 31.39299
-32.531357 -10.725782 36.139565
-32.104477 -23.667336 29.005836
-43.056866 -8.8644485 32.775913
-33.699635 -7.6441522 28.928656
-43.897999 -20.112871 30.252441
-44.427299 -16.690998 31.382999
-32.570831 -7.733767 29.211185
-32.1045 -23.829185 29.660061
-32.900925 -10.769199 26.596298
-44.423435 -20.359383 29.216602
-43.897999 -12.836031 30.932247
-39.916393 -8.056242 30.227858
-35.970001 -10.7692 25.44088
-32.554466 -10.7692 32.580902
-43.897995 -20.750372 30.369122
-32.104527 -15.531319 30.453495
-32.104549 -20.499283 31.184475
-32.104561 -16.87867 31.482479
-40.908047 -10.740795 36.20327
-30.280186 -15.035458 32.633251
-45.039589 -11.241488 31.382999
-39.183884 -8.5456581 31.770857
-28.317499 -17.826126 32.634071
-38.266655 -11.8008 35.789314
-28.343086 -16.404877 32.634064
-39.682106 -10.848149 35.511299
-41.24086 -10.769199 27.670263
-27.660839 -9.6267605 35.179272
-41.014164 -9.9086714 36.068058
-44.900906 -10.7692 25.806917
-32.34621 -9.8799362 35.977467
-32.181122 -11.031337 36.13723
-41.686081 -10.769201 29.662848
-44.897102 -17.829781 31.382999
-32.464825 -9.3496084 34.305485
-45.407799 -10.923661 30.566137
-46.745605 -11.646657 33.072441
-32.104591 -20.891041 32.495422
-27.578354 -20.352551 32.634373
-31.600636 -9.9347067 36.150143
-36.328991 -8.0064058 30.07074
-41.100086 -10.7692 33.002003
-32.104591 -18.671822 32.488503
-30.815804 -10.7692 35.019211
-46.340843 -9.7639866 24.613739
-32.104584 -23.284985 32.182533
-32.104462 -14.073166 28.5861
-46.745602 -11.553598 32.315098
-29.435408 -22.224491 32.633583
-44.154747 -19.268414 29.216599
-43.171043 -11.800801 36.091099
-42.741928 -11.001966 36.217495
-46.6408 -11.8008 33.591175
-38.174461 -9.1791677 33.768139
-42.675175 -8.5277691 24.866993
-29.109676 -7.8121109 29.458183
-32.104549 -13.295083 31.145393
-34.92942 -10.7692 35.331348
-41.447544 -9.0554686 33.378147
-29.947525 -8.8028975 32.58186
-46.745605 -11.194589 36.115528
-34.381851 -9.1523952 33.683731
-37.6297 -6.8262243 25.810604
-43.774345 -10.7692 31.531826
-43.897999 -17.910591 30.265205
-46.745602 -10.994392 35.718544
-36.895523 -6.578629 25.515396
-32.104328 -23.247875 24.477282
-38.979309 -8.4754124 31.549391
-41.129608 -10.7692 32.122372
-33.273853 -9.389535 34.431366
-32.104404 -19.19372 26.800379
-44.103703 -10.7692 29.012934
-44.392136 -16.607121 31.382999
-45.407799 -13.456459 29.352804
-46.189804 -10.985514 31.815237
-36.577496 -7.6006565 28.791525
-32.155052 -10.7692 29.734669
-28.167416 -9.5463018 34.92561
-34.131737 -10.841582 36.151859
-30.04472 -11.38722 36.121361
-45.773205 -10.7692 35.317307
-29.86949 -8.8068972 32.594471
-32.104324 -13.868593 24.259869
-45.97366 -10.7692 34.128773
-32.104523 -17.988037 30.411436
-43.897999 -19.33165 31.1604
-30.32506 -10.7692 32.951664
-42.639664 -8.5157928 31.148632
-41.86071 -11.197191 35.511299
-29.075899 -19.987778 32.633743
-30.846165 -7.153245 27.38096
-32.908882 -9.9883442 36.319244
-32.531651 -10.93081 35.511299
-33.493652 -7.1781321 27.459421
-30.52286 -9.2995434 34.147648
-44.283218 -12.482533 29.2166
-44.707153 -10.466729 31.382999
-44.851875 -24.539276 31.382999
-40.918449 -9.6018095 35.100609
-37.738472 -10.7692 34.614586
-29.025055 -6.6385641 25.758314
-29.06954 -7.9008942 29.738092
-33.805809 -10.769199 31.001522
-40.149036 -7.8441553 29.559208
-39.318691 -10.7692 24.077076
-46.745602 -11.672159 27.041655
-33.835247 -6.5359068 25.434664
-39.303535 -8.4415445 31.442616
-43.897999 -22.994192 30.413578
-32.357067 -10.7692 32.566105
-32.104397 -12.519222 26.499481
-35.82967 -10.894335 35.511299
-45.75695 -10.7692 29.798759
-45.057175 -16.808273 29.2166
-33.603207 -9.4976358 34.772175
-40.021397 -11.13594 36.196953
-35.067287 -7.3863254 28.115797
-31.8407 -12.870412 32.632603
-28.777742 -16.711338 32.633881
-40.304504 -10.7692 28.196987
-32.104462 -20.016235 28.516136
-29.943605 -10.7692 35.055641
-31.697186 -22.007324 32.632629
-32.065544 -8.6881866 32.220207
-36.858501 -6.8837399 26.531284
-39.505493 -10.7692 24.936186
-28.929279 -7.9499264 29.892675
-31.623762 -7.2314844 27.627628
-38.278114 -10.7692 29.611027
-38.253967 -10.7692 24.869421
-37.121162 -10.7692 32.745995
-43.897995 -18.396109 29.301643
-29.949005 -7.9882164 30.013393
-37.043663 -10.769199 35.202591
-32.104496 -22.374214 29.565548
-32.104538 -17.677406 30.840099
-30.546663 -12.12474 32.633144
-39.235176 -9.7038574 35.422333
-31.769396 -6.2346296 24.484819
-42.646881 -10.7692 32.36198
-28.115908 -8.5965099 31.931175
-44.149067 -10.428586 31.382999
-32.1045 -21.562309 29.670845
-33.687931 -7.7073069 29.127764
-31.173262 -9.4934788 34.759075
-30.879091 -8.4767151 31.553495
-43.904076 -20.793077 31.382999
-31.912949 -8.3381529 31.116646
-46.745602 -10.783978 34.648842
-40.780777 -9.616087 35.145622
-38.622971 -10.769201 31.11495
-42.565098 -10.7692 29.903032
-35.464104 -8.620841 32.007885
-45.308449 -21.255157 31.382999
-43.897999 -13.368929 30.492332
-36.28141 -11.8008 35.64267
-45.407799 -19.991814 30.837997
-46.745602 -11.430163 27.805235
-36.483639 -8.0481091 30.202217
-44.181023 -9.2137194 33.877064
-35.384258 -10.769199 32.669655
-26.390062 -6.5554533 25.496288
-34.204445 -7.2488041 27.68223
-28.164991 -8.1357346 30.478477
-32.104397 -21.094193 26.568436
-44.120518 -9.0151997 32.242535
-26.622299 -7.205555 27.545879
-37.013695 -8.6437273 32.08004
-27.347759 -21.229763 32.634464
-41.665916 -10.7692 33.052025
-43.897999 -23.285322 30.094425
-40.372768 -8.0637169 30.251427
-45.407799 -19.425772 29.512527
-32.104435 -16.521435 27.8078
-36.064983 -7.3840032 28.108477
-46.189804 -11.146198 30.073498
-41.333397 -10.7692 29.389431
-36.352402 -10.769201 31.802965
-43.726261 -8.8822403 32.140419
-43.479721 -10.7692 24.32543
-35.24641 -6.7783108 26.198895
-32.104523 -13.732326 30.383091
-31.688654 -13.624146 32.632668
-46.799873 -10.3266 33.189945
-33.938038 -9.9624796 36.237701
-33.433273 -6.8078341 26.291977
-33.771862 -7.8789959 29.669052
-31.495361 -18.802612 32.632729
-32.104305 -20.393862 23.861778
-45.407799 -20.334549 31.197863
-27.945711 -23.018377 32.634209
-41.061287 -8.7539463 32.427528
-31.25688 -14.175041 32.632843
-46.009731 -10.7692 35.186527
-32.104507 -14.173368 29.864862
-28.005566 -11.940643 32.634201
-32.104507 -23.639511 29.833248
-31.748409 -10.7692 34.420708
-37.560562 -6.8029089 24.599472
-44.937305 -10.7692 25.700579
-27.633188 -11.639721 32.634357
-43.897999 -15.399033 29.849794
-45.793373 -9.5793552 29.339586
-46.584076 -9.846015 34.409428
-38.095467 -10.7692 25.085066
-46.994991 -9.9845934 33.40324
-45.407799 -21.392902 30.743187
-32.104397 -10.896591 26.321394
-27.623245 -11.56638 35.511299
-45.407799 -16.75589 30.599171
-29.269413 -11.8008 35.754745
-32.104286 -21.18891 23.318327
-39.808193 -10.881412 35.511299
-43.334698 -9.875474 35.96339
-31.680298 -9.7761765 35.650337
-38.168877 -7.0080566 24.854134
-45.630322 -9.5243683 32.447105
-27.287617 -8.0125446 30.090094
-32.104336 -13.139256 24.600693
-43.897999 -21.688686 31.097664
-36.578529 -6.8084555 26.293934
-43.897999 -12.671644 29.576256
-35.572487 -8.5620155 31.822424
-31.324343 -15.289009 32.632812
-29.571516 -7.2438397 27.66658
-32.104553 -15.49371 31.275406
-29.213318 -11.8008 35.653805
-39.119728 -10.936823 36.189884
-35.709938 -10.7692 26.551037
-41.097317 -10.7692 28.212244
-32.104431 -14.600695 27.555815
-32.104496 -15.840645 29.510509
-41.671143 -11.8008 36.06485
-43.897999 -15.596357 31.277128
-42.25787 -10.7692 24.511841
-32.104362 -20.874413 25.566225
-32.104424 -19.333393 27.393513
-46.118202 -10.7692 27.651655
-32.104488 -15.225044 29.309772
-43.138107 -10.57291 36.220039
-43.897999 -11.507655 29.776564
-27.615467 -10.769201 34.008682
-45.245514 -19.415762 29.216602
-42.267822 -10.7692 30.603901
-31.466637 -7.2191286 27.588673
-30.339392 -6.6807246 25.891232
-34.991619 -10.769201 34.115559
-43.898003 -13.951126 30.421635
-46.1898 -11.45528 30.841869
-39.290031 -10.7692 29.022442
-46.745602 -10.969566 32.923576
-32.104332 -21.403717 24.54496
-45.407799 -23.801149 29.740671
-43.188789 -8.7009811 29.223772
-36.284111 -10.7692 28.99633
-31.565262 -20.21969 32.63269
-30.91333 -9.8516178 35.888184
-45.407799 -19.721344 31.154179
-42.346058 -11.677732 36.21521
-42.978085 -9.6243162 35.171562
-40.394356 -10.769201 25.708096
-32.104404 -22.541367 26.862717
-46.435764 -9.7959986 33.801674
-32.104282 -19.171236 23.106405
-37.844231 -10.769199 29.745913
-47.065979 -10.008533 35.012421
-46.007931 -9.6517143 24.972076
-32.104393 -16.212132 26.566252
-34.868164 -10.7692 31.244081
-38.980198 -10.7692 24.503088
-45.660084 -10.7692 32.281536
-27.455566 -8.6910973 32.229382
-44.677231 -21.074244 29.216602
-43.897999 -16.163977 31.068068
-33.466965 -10.7692 33.098385
-42.62492 -8.5905361 31.912342
-28.321455 -16.282318 32.634071
-35.847637 -8.3720684 31.223576
-41.5742 -8.1564751 28.533165
-28.055168 -13.663246 32.634186
-41.130619 -8.0068808 29.044804
-40.094509 -9.3019257 34.155159
-38.761253 -10.7692 33.701447
-29.629631 -19.5683 32.633511
-27.597347 -8.3824568 31.256327
-34.009697 -7.2868128 27.802061
-32.10453 -16.755362 30.588253
-31.90159 -9.3930454 34.442436
-45.893089 -9.6129856 31.318363
-27.99139 -19.446974 32.634201
-32.326298 -11.168932 35.511299
-32.564495 -9.4206581 34.529488
-43.897999 -22.699263 29.823433
-41.672832 -10.769201 30.178793
-33.973709 -10.938404 36.150761
-45.407799 -13.134421 30.625713
-46.745602 -11.512539 34.489288
-33.622025 -9.0782537 33.449982
-45.407799 -23.570656 29.533556
-28.428688 -9.8842411 35.991039
-34.930824 -9.2348452 33.943668
-46.1898 -11.412156 26.70031
-37.370743 -8.0711699 30.274925
-28.955284 -7.9289222 29.826456
-44.370296 -10.7692 34.208141
-32.104568 -11.089098 31.741589
-30.3395 -15.166983 32.633228
-42.345905 -11.033676 35.511299
-38.838406 -10.769201 29.628304
-26.982592 -14.968922 32.634628
-37.209618 -10.7692 35.022293
-45.713573 -9.5524445 26.608568
-45.407799 -14.383939 30.998167
-41.879967 -8.6227255 32.013828
-39.477818 -10.7692 33.258762
-31.887444 -11.527962 36.135517
-43.92485 -9.9600725 36.23011
-27.04677 -21.067799 32.634594
-44.036945 -14.676391 31.382999
-38.385338 -11.203608 35.511299
-39.105194 -8.8688383 32.789749
-45.407799 -12.606666 30.263996
-27.451378 -6.7510948 26.113091
-44.534996 -21.526363 31.382999
-45.407799 -16.906239 30.640039
-35.273075 -10.769201 34.119446
-43.897999 -24.002983 31.312664
-32.104473 -23.341305 28.842606
-33.077267 -10.7692 32.360134
-31.533752 -8.1870031 30.640114
-46.745602 -11.613068 36.127136
-46.895947 -9.9511909 25.879648
-43.621304 -8.8468437 29.987398
-38.312431 -11.606798 35.511299
-46.189804 -10.818509 30.925146
-33.052452 -10.7692 28.623743
-32.10434 -21.654034 24.872799
-46.745602 -10.527786 27.523746
-30.948618 -7.1032548 27.223354
-43.442947 -8.7866936 30.11582
-32.961163 -10.7692 29.112547
-31.787815 -22.69521 32.632591
-32.104515 -11.952783 30.132816
-32.104561 -11.431413 31.479813
-29.181328 -11.8008 35.558403
-40.302208 -10.7692 31.349335
-43.897999 -15.45962 30.120293
-44.583847 -9.1714535 30.862568
-39.270378 -9.9349356 36.150864
-32.104298 -21.125698 23.601337
-32.688969 -10.7692 26.347155
-42.184299 -10.769199 32.871582
-28.844906 -9.2719803 34.060745
-43.578613 -10.561556 36.223373
-32.104309 -12.401043 23.818115
-41.509254 -8.134572 29.807264
-44.428139 -23.510225 29.2166
-43.571743 -11.8008 35.648998
-44.099453 -21.170553 29.216602
-45.407799 -16.865967 30.89477
-26.729858 -7.7406187 29.232788
-44.59272 -19.608156 29.216602
-32.104271 -22.211697 22.566822
-28.572414 -12.745083 32.633968
-35.893852 -10.331581 36.429249
-32.000931 -9.1802654 33.771599
-28.217731 -8.1411304 30.495493
-37.994743 -10.7692 35.32938
-27.078854 -7.5861683 28.745846
-32.244614 -9.2546892 34.006233
-36.49213 -10.7692 28.425859
-46.745598 -11.025465 27.643332
-41.199898 -10.7692 24.677389
-45.407799 -21.584873 30.590235
-43.049156 -10.7692 34.329388
-44.00943 -12.970137 31.382999
-43.988029 -17.945047 29.2166
-37.516468 -10.7692 27.508205
-39.300785 -11.642368 36.192017
-39.688805 -11.707808 35.511299
-45.429207 -11.8008 35.964149
-46.100426 -10.769199 28.123085
-32.104507 -14.122383 29.866102
-41.916042 -10.941593 35.511299
-32.61853 -9.6249866 35.173679
-39.754551 -10.769199 27.761425
-45.123455 -15.496625 29.2166
-38.174564 -10.769199 28.387775
-27.197523 -15.851517 32.634541
-38.00396 -10.7692 29.11289
-32.104523 -20.97287 30.349598
-46.745602 -11.138878 29.661823
-39.922585 -8.5654488 31.833248
-33.718151 -10.7692 25.929003
-33.994709 -10.769199 31.380306
-26.972025 -6.4236155 25.080639
-31.304605 -10.803328 35.511299
-32.10429 -21.441746 23.430054
-31.713623 -17.962366 32.632637
-41.475067 -8.1639471 30.567425
-45.245499 -11.62632 31.382999
-46.189796 -11.353186 26.825165
-28.266922 -10.7692 34.862038
-34.372608 -10.7692 35.499874
-46.745602 -10.885156 25.943514
-35.013321 -10.7692 32.014374
-30.48489 -11.135087 32.633171
-38.246105 -7.159235 27.399843
-44.022682 -8.9822063 32.663548
-35.641033 -8.6403093 32.069263
-32.104507 -17.463213 29.957054
-41.949303 -10.631817 36.211067
-40.064186 -10.7692 34.42001
-44.037106 -8.9870691 32.332531
-46.1898 -11.597379 30.130157
-32.104549 -21.20993 31.115997
-43.119629 -10.7692 31.810249
-28.445812 -8.723402 32.331234
-39.216866 -10.7692 26.319586
-27.374437 -12.516395 32.634464
-40.859272 -10.812868 35.511299
-45.031002 -20.940855 29.2166
-44.237953 -9.0548029 27.058247
-35.992996 -10.769201 35.113823
-36.332062 -10.7692 35.265862
-43.070843 -8.8700714 32.79364
-46.189804 -11.16408 28.041336
-33.254467 -10.769201 30.271292
-45.648918 -10.7692 25.282078
-32.10442 -21.104511 27.266361
-45.407799 -14.662523 31.187143
-45.393944 -11.129711 31.382999
-40.234348 -8.6751509 32.179108
-45.407799 -14.099973 30.479616
-41.363682 -8.7031183 32.267281
-39.303436 -10.186114 36.444901
-32.104397 -17.165825 26.567551
-32.305782 -11.571176 36.138744
-32.104294 -22.145168 23.439417
-36.568535 -10.769201 30.020777
-41.418308 -10.7692 23.80242
-45.407799 -17.003424 29.878693
-35.75882 -8.9334803 32.993553
-44.888096 -10.7692 31.346933
-39.641708 -10.7692 28.575487
-27.755398 -6.6550188 25.810188
-32.104481 -16.10598 28.956312
-45.385513 -20.525208 31.382999
-33.410873 -10.7692 28.2866
-46.459782 -9.8040972 26.931162
-33.881889 -9.9896011 36.323212
-37.599579 -8.5797052 31.878197
-32.005009 -10.068504 36.444901
-45.407799 -21.961298 29.417246
-43.063522 -11.296143 36.220253
-29.038912 -16.296747 32.63377
-31.308729 -6.8643899 26.47028
-45.401093 -20.132145 31.382999
-35.897419 -9.7433004 35.546688
-31.811056 -7.219389 27.589493
-35.985176 -10.7692 24.050571
-32.037518 -6.4581561 25.189537
-32.104408 -21.455978 26.932522
-46.640831 -9.8651543 28.716955
-40.926056 -10.7692 26.172468
-32.104408 -13.922533 26.998671
-32.104351 -22.448721 25.21373
-40.317211 -10.769201 30.973572
-28.912369 -8.5576706 31.808725
-34.247658 -8.9710255 33.111919
-45.408298 -9.7451811 35.552616
-32.104313 -16.983915 24.10564
-38.508297 -10.7692 31.892288
-27.456053 -8.530611 31.723413
-40.919239 -8.5371246 31.743952
-28.695984 -10.7692 34.93935
-32.104595 -20.511808 32.490189
-32.104321 -18.105061 24.337715
-36.936192 -6.9632106 26.781832
-27.862034 -9.4412861 34.594524
-32.104366 -16.546816 25.737431
-41.304619 -11.764231 35.511299
-43.577969 -9.4502659 34.622829
-43.897999 -10.431123 30.485153
-45.407799 -12.584953 31.300285
-32.104473 -21.494524 28.959539
-27.54619 -9.4154854 34.513176
-40.003418 -10.769201 26.895111
-32.104355 -14.888773 25.411961
-44.753262 -10.7692 34.948982
-41.18438 -8.0250111 29.622559
-32.104439 -23.630478 27.805445
-46.497963 -11.8008 33.775787
-35.889343 -10.7692 24.925003
-30.561172 -15.386666 32.633133
-43.897999 -12.670057 29.794285
-46.745602 -11.618389 33.747356
-33.235264 -8.0469074 30.198431
-36.92408 -8.3599577 31.185392
-27.394077 -8.5359058 31.740105
-44.074345 -14.453419 29.216599
-41.153812 -10.7692 30.507387
-39.76384 -7.5459447 27.305145
-32.104462 -15.017813 28.511354
-44.140633 -14.254745 31.382998
-42.715374 -8.5413265 28.71357
-40.151913 -7.6768193 25.735502
-32.104568 -23.787697 31.764214
-45.695827 -10.7692 29.501286
-38.759846 -10.7692 32.587833
-46.189796 -11.290834 26.137867
-31.278051 -17.087896 32.632824
-46.420494 -11.8008 31.725739
-36.330765 -10.769199 24.478964
-47.050625 -10.3266 32.856407
-34.894695 -8.7734585 32.489044
-43.501259 -10.7692 33.688244
-31.109255 -12.060837 32.632915
-32.104469 -15.520996 28.672775
-43.897995 -17.348825 30.348871
-37.11525 -10.7692 31.690596
-42.029793 -10.7692 24.387579
-38.943497 -10.769199 32.864243
-46.745602 -10.358393 35.302811
-32.498905 -10.7692 30.255096
-36.9604 -10.769199 29.029972
-34.525826 -10.332097 36.264259
-40.204765 -9.5524254 34.944912
-43.897999 -11.870581 30.826677
-27.674555 -17.247906 32.634338
-30.588848 -8.1648865 30.570385
-26.795128 -6.7685623 26.168159
-31.981853 -6.9531736 26.750191
-32.104282 -19.208769 23.093054
-43.908508 -8.9437008 28.618473
-40.940189 -9.5592289 34.966362
-30.366446 -9.7482681 35.562347
-37.557621 -10.769201 25.197098
-40.976891 -8.8841944 32.838165
-32.104408 -14.128238 26.875866
-31.27269 -15.165285 32.632832
-44.109474 -15.45784 29.216602
-39.64967 -10.7692 27.066181
-38.217453 -7.1037641 27.22496
-28.152733 -11.094326 35.511299
-44.442883 -22.972075 29.216602
-46.620262 -9.8582172 30.831942
-31.300554 -9.9528294 36.207275
-38.628044 -10.7692 32.867653
-32.075371 -7.7646637 29.308594
-45.938499 -9.6282997 34.172848
-46.732956 -11.8008 36.03677
-32.185406 -10.7692 23.833744
-41.532078 -8.2258272 30.762518
-35.574226 -8.486002 31.582777
-36.67403 -10.7692 30.061142
-32.104439 -15.486061 27.805943
-34.267349 -8.3241167 31.072395
-28.568199 -10.334816 36.403309
-46.482719 -11.8008 28.294144
-34.858105 -11.065421 35.511299
-29.135662 -11.369021 35.511299
-38.751217 -10.769201 27.537224
-27.275381 -13.684408 32.634506
-41.345608 -11.8008 35.726147
-33.735054 -11.517908 36.149559
-32.1045 -16.179228 29.687943
-39.734921 -8.8431902 32.708889
-37.317039 -7.2927523 27.820787
-46.1898 -11.187084 30.590248
-33.4897 -10.7692 28.642036
-43.967484 -19.940351 31.382999
-44.116615 -20.58992 31.382999
-32.104286 -15.707117 23.277037
-37.279598 -10.7692 28.72843
-46.974358 -10.3266 31.718893
-36.300938 -10.769199 32.837132
-31.658621 -13.448656 32.632679
-44.610184 -11.406688 31.383001
-36.846966 -8.7382212 32.377953
-27.114374 -8.7380457 32.377399
-29.571669 -20.43202 32.63353
-46.745602 -10.922079 29.923178
-39.597691 -8.5560093 31.803488
-32.10458 -12.325627 32.14098
-38.799129 -8.7993355 32.570625
-46.745602 -11.628059 26.977934
-42.956402 -10.7692 32.028957
-33.239666 -10.721334 36.144947
-43.897999 -24.729342 31.196005
-30.507179 -9.6707211 35.317867
-32.104332 -13.805648 24.452257
-33.0994 -10.332832 36.43911
-32.849274 -10.7692 26.907227
-44.700027 -9.2106342 26.453821
-46.237438 -9.7291145 25.710764
-46.27684 -9.7424021 30.820814
-35.891617 -9.3477879 34.299747
-32.104572 -20.713051 31.913738
-31.568937 -9.7186337 35.468925
-30.839577 -10.7692 35.359482
-46.166969 -10.7692 33.517662
-26.834787 -19.827749 32.634686
-28.098856 -7.9407129 29.86363
-32.104427 -15.015596 27.461527
-43.053734 -9.0509491 33.363895
-39.580734 -10.7692 32.32513
-43.011719 -10.7692 31.713995
-32.104538 -13.582664 30.820208
-36.892342 -10.014172 36.400673
-44.341812 -18.843163 29.216602
-43.208084 -8.707489 31.118498
-34.965168 -8.7616959 32.451962
-34.873947 -10.769199 29.484224
-43.897999 -14.910662 31.236324
-38.734482 -7.5549335 28.647375
-45.029655 -16.850925 29.2166
-28.011513 -8.591012 31.913843
-46.633415 -11.8008 29.712147
-28.664066 -11.226849 36.110695
-40.681366 -10.7692 29.908155
-30.927425 -6.2195401 24.437244
-32.104454 -19.549154 28.237999
-32.104588 -18.221462 32.339039
-36.974113 -7.9410143 29.86458
-43.073956 -10.7692 31.808798
-46.83828 -10.3266 30.968699
-39.017765 -10.7692 32.578243
-27.16864 -8.207449 30.704571
-32.10437 -18.325527 25.751894
-46.1898 -11.086486 34.766251
-44.856178 -22.438866 29.216599
-33.223682 -10.769199 26.299587
-30.29916 -10.733694 36.122604
-38.05455 -10.897839 35.511299
-32.123535 -10.7692 34.877625
-35.790096 -11.719412 36.165398
-45.407799 -14.807503 29.601456
-42.452293 -10.165268 36.444901
-31.215267 -7.6775765 29.034031
-42.481491 -9.1464863 33.6651
-46.640797 -9.8651428 27.220865
-38.719135 -10.7692 28.229456
-31.225904 -18.685169 32.632839
-44.489563 -18.401237 29.216602
-32.104393 -15.966152 26.470842
-44.925671 -11.7559 31.382999
-40.170101 -10.7692 24.191193
-36.119553 -10.7692 33.096478
-32.104355 -15.541015 25.279198
-46.745598 -11.550855 35.992062
-45.127541 -10.7692 31.288139
-44.410549 -11.487601 36.230709
-28.456978 -7.4114351 28.194962
-35.196159 -9.3238182 34.224178
-32.267414 -9.7188206 35.469513
-45.400749 -9.4469481 27.560682
-47.124298 -10.212773 31.879583
-45.407799 -11.429977 31.124916
-37.832878 -10.7692 33.870819
-38.092648 -11.026791 36.182175
-34.135757 -8.4300356 31.406328
-45.815392 -9.5867825 29.863569
-43.515823 -10.7692 32.565163
-43.821426 -9.1000719 33.518768
-30.084106 -11.632972 32.633339
-32.104439 -21.237858 27.970871
-45.997475 -9.6481895 32.067242
-33.74221 -10.7692 34.802597
-31.776972 -10.7692 33.494038
-29.68548 -11.021055 32.633507
-32.104271 -21.206524 22.791912
-33.044392 -7.4289799 28.250277
-37.391167 -10.7692 30.848679
-28.210913 -10.942445 32.634113
-45.492073 -9.4777451 32.69659
-36.855206 -9.7807207 35.664665
-32.104309 -20.272478 23.908718
-26.854092 -21.363962 32.634674
-32.104427 -20.863115 27.546228
-29.999172 -6.8485818 26.420441
-45.508015 -9.4831219 25.175682
-47.066895 -10.326601 29.956244
-27.24457 -17.766533 32.634521
-32.104408 -19.980551 26.9799
-36.001171 -9.517004 34.833241
-27.646833 -12.938709 32.634354
-39.738007 -10.329765 36.303898
-45.717281 -9.5536938 33.829216
-39.347961 -8.221735 30.749611
-33.850922 -10.769201 28.077679
-44.678432 -11.41849 31.382999
-45.407799 -17.907019 29.744034
-34.577034 -7.1926293 27.505129
-36.682076 -6.9838438 26.846882
-31.809311 -14.113865 32.63261
-31.438683 -10.211894 36.444901
-45.92104 -9.6224117 24.560555
-32.723812 -6.3559875 24.867426
-34.246613 -6.4349895 25.116499
-32.792912 -7.6540518 28.959866
-43.897995 -17.924843 29.710873
-30.984966 -10.769199 33.89426
-32.104355 -22.348042 25.358063
-36.930923 -10.7692 30.359568
-46.166916 -10.7692 33.071892
-40.904377 -10.7692 32.290768
-32.104401 -20.493958 26.699158
-32.104458 -15.382395 28.451187
-36.876686 -10.7692 33.276909
-34.915882 -10.7692 27.483143
-42.04739 -10.7692 24.132887
-38.192268 -10.7692 23.958326
-42.759567 -11.8008 36.060356
-40.259323 -10.7692 25.531059
-37.688576 -9.092206 33.493969
-34.458687 -11.039051 35.511299
-41.952904 -8.2841892 24.542061
-41.265999 -10.7692 34.834923
-32.104321 -18.353157 24.228731
-43.897999 -20.486057 29.980095
-32.104416 -15.082021 27.168226
-32.104424 -22.854042 27.354797
-34.223427 -9.1341124 33.626087
-32.824081 -8.6731663 32.172852
-33.399212 -10.769201 25.675434
-46.745602 -11.54063 24.057228
-32.722759 -6.6916442 25.925661
-38.437355 -11.443975 36.185246
-43.897999 -14.064407 30.339865
-42.873203 -10.7692 27.476578
-30.483547 -9.196517 33.822834
-44.911278 -11.150048 29.216599
-32.104462 -16.578419 28.490427
-39.874039 -8.837965 32.692413
-32.104321 -15.412121 24.207148
-30.185213 -6.6235628 25.711018
-41.17202 -8.0208426 28.156279
-27.199678 -17.660801 32.634537
-43.897999 -16.431429 30.754902
-47.124298 -10.092928 30.008604
-43.938175 -10.7692 27.12755
-32.104332 -14.336845 24.643948
-32.104465 -22.688667 28.561317
-44.171684 -17.674294 29.2166
-36.501663 -10.7692 31.35944
-46.9035 -10.3266 29.815634
-28.940582 -9.2092915 33.863106
-32.306652 -11.8008 35.780663
-28.997185 -9.3333492 34.254227
-40.015892 -7.8675256 29.632889
-46.745605 -11.492676 34.411442
-45.320076 -11.05069 31.382999
-41.511574 -8.135355 29.552158
-32.025417 -11.803168 32.63253
-44.008781 -10.866165 35.511299
-46.487923 -9.8135872 33.93058
-31.354794 -10.376862 36.130241
-31.847269 -9.2167101 33.886497
-45.407799 -21.231506 30.341148
-26.821732 -19.456266 32.634689
-46.745602 -11.171255 34.912666
-32.104454 -17.178623 28.393944
-32.104347 -17.201479 25.031864
-45.407799 -17.197157 30.277868
-35.529209 -11.756581 35.511299
-31.711226 -10.875616 32.63266
-45.127663 -9.3548517 28.318216
-37.215843 -8.1981487 30.675255
-35.139454 -9.0896873 33.486031
-39.463234 -10.7692 23.811583
-34.266624 -10.7692 26.352863
-45.407799 -17.546824 30.256006
-32.104496 -14.988848 29.460907
-46.1898 -11.552177 33.620651
-32.104309 -19.872219 23.960594
-32.1045 -21.582973 29.598434
-44.029133 -10.678156 36.226929
-41.118969 -10.7692 33.427761
-46.745602 -11.080678 30.943838
-32.104481 -13.478078 29.153461
-30.720284 -7.8262711 29.502823
-31.164995 -7.1175189 27.268326
-35.210819 -10.7692 27.077459
-29.785175 -9.2359371 33.947113
-31.071674 -8.9938087 33.18375
-34.950512 -10.7692 34.879559
-40.625393 -9.0986624 33.51432
-43.683517 -8.8678246 26.995691
-32.104355 -17.340107 25.237427
-43.557728 -10.7692 28.844694
-46.788311 -10.3266 29.048271
-30.956799 -11.068927 36.127964
-32.302063 -10.7692 34.69265
-31.681688 -8.8996897 32.887016
-33.52668 -9.4532642 34.632286
-32.104443 -13.937299 27.983236
-43.897999 -22.986069 31.005028
-31.324341 -8.7940292 32.553902
-32.104401 -11.533644 26.504463
-46.745598 -11.642241 32.67976
-41.848312 -8.2489185 25.0854
-35.021736 -10.7692 32.394474
-43.470501 -8.7959862 27.238277
-43.771751 -8.8975811 28.767792
-32.104481 -21.17157 29.074202
-46.1898 -11.684698 29.318001
-42.02813 -10.769199 27.856283
-43.730236 -10.368435 36.224319
-33.077934 -7.9667311 29.945658
-45.385483 -19.27639 31.382999
-46.745602 -10.469167 33.43401
-39.418316 -10.7692 26.405294
-43.897995 -16.133863 30.025103
-35.017483 -10.7692 33.723724
-46.745598 -10.988931 27.150883
-32.445583 -9.3525934 34.314899
-32.065109 -7.5556083 28.649502
-41.387909 -10.7692 33.185856
-30.385101 -11.8008 35.795204
-32.104588 -13.354451 32.287766
-42.424732 -10.7692 29.123945
-31.93215 -11.07241 35.511299
-38.171341 -7.0088868 24.826244
-44.259819 -20.282099 29.216599
-29.322699 -15.451933 32.633652
-29.47089 -10.7692 33.618931
-44.926292 -9.2869415 24.375845
-46.1898 -11.543922 34.24754
-29.171787 -10.769199 34.28965
-33.21497 -6.2217574 24.444237
-45.407799 -12.692213 31.066631
-43.897999 -15.265475 29.305374
-32.104458 -15.949272 28.356167
-28.792387 -9.012022 33.241173
-32.104286 -14.941481 23.172092
-31.150507 -19.475166 32.63287
-45.204414 -10.717285 36.235905
-43.897999 -15.190559 30.59063
-36.906452 -10.7692 30.485638
-32.104546 -15.18894 31.039768
-45.864212 -9.6032467 34.656494
-34.250008 -10.7692 31.631439
-45.407799 -16.24474 30.39945
-39.709942 -10.7692 34.170456
-32.104549 -13.388237 31.176189
-29.33193 -7.7083549 29.131069
-27.629559 -20.441402 32.63435
-32.104317 -17.902761 24.135935
-29.59181 -9.835207 35.836445
-32.104462 -17.847519 28.478592
-32.832592 -10.769199 27.276279
-33.735577 -7.6595416 28.977171
-46.560234 -9.8379745 32.550705
-46.745602 -10.380011 29.340178
-32.104336 -10.901379 24.506748
-32.104549 -16.025436 31.098112
-32.104271 -19.38669 22.862778
-33.562618 -7.3781896 28.090149
-46.574135 -11.8008 36.1978
-43.897999 -15.23449 30.40324
-29.944988 -13.272866 32.633396
-29.752422 -6.7824769 26.212029
-35.13522 -7.0771141 27.140942
-30.708427 -14.738829 32.633072
-40.212379 -8.8236904 32.647415
-44.851265 -10.7692 32.697475
-32.104328 -18.518219 24.481285
-29.460814 -6.9452925 26.725342
-47.124298 -10.221348 31.436174
-40.438915 -10.7692 25.491692
-31.402729 -15.834925 32.632778
-45.598328 -9.5135784 26.712038
-41.764881 -10.567877 36.209595
-42.475826 -10.769199 26.803875
-45.407799 -22.580257 29.333847
-37.705265 -10.769201 30.473211
-32.104565 -13.907111 31.574579
-32.104496 -18.468243 29.551435
-35.575794 -10.769201 31.498114
-32.104492 -21.357166 29.407204
-32.104488 -11.164196 29.205553
-43.441574 -8.786232 27.397701
-46.745598 -11.543419 31.611446
-35.163315 -7.6706915 29.012325
-29.964977 -15.183348 32.633385
-44.886509 -10.635371 31.382999
-36.88813 -10.7692 25.613575
-32.10453 -15.502882 30.649797
-37.285347 -7.5510936 28.635267
-32.104542 -23.604939 30.891792
-30.502518 -9.9578009 36.22295
-27.531631 -6.7937746 26.247648
-44.994091 -10.183711 36.444901
-35.923332 -7.6023178 28.796762
-32.104301 -16.291172 23.700964
-32.104561 -21.530642 31.57662
-33.263512 -10.7692 24.922823
-38.249611 -10.769201 32.045929
-45.407799 -22.778372 30.863319
-34.226646 -10.7692 32.67691
-45.889931 -10.769201 27.397602
-46.56345 -11.8008 25.066511
-41.90675 -10.7692 28.683609
-35.694618 -11.8008 35.983589
-32.10437 -15.845095 25.705534
-34.657764 -6.3347554 24.800489
-45.407799 -12.607556 30.465153
-32.104332 -23.325321 24.618961
-38.401611 -9.8474751 35.875122
-28.285587 -9.4629698 34.662884
-34.429474 -9.9295187 36.133785
-45.407799 -12.902617 30.972416
-40.248615 -10.7692 30.939318
-43.664509 -8.861414 28.584146
-36.888729 -6.5763378 25.528723
-45.407799 -13.194106 29.727314
-36.385281 -10.7692 24.837702
-27.227345 -21.243326 32.634514
-46.1898 -11.357235 34.134956
-42.342834 -8.5353661 31.738407
-41.238983 -9.0602636 33.393261
-30.218193 -23.127811 32.633247
-31.357599 -21.922258 32.632774
-36.910904 -10.276997 36.444901
-38.289242 -10.7692 25.489658
-27.266417 -6.5301676 25.416569
-46.559105 -11.8008 27.534344
-43.897999 -22.354542 30.523773
-42.522259 -8.9645376 33.091465
-43.590157 -8.836339 25.100689
-32.104294 -17.97752 23.456453
-32.104351 -23.006866 25.193115
-32.104382 -16.686949 26.10178
-44.620178 -9.1837063 24.315502
-44.942177 -11.737226 36.235016
-32.090294 -8.2711697 30.905468
-29.253712 -7.9128828 29.775888
-46.555206 -11.8008 28.381226
-28.599676 -10.722953 36.109669
-36.644691 -11.374347 35.511299
-32.453506 -6.3404064 24.818302
-46.292606 -11.8008 26.297152
-36.110394 -9.0414743 33.334023
-41.216034 -8.0356855 27.504515
-35.239952 -11.767866 35.511299
-29.672979 -9.5725012 35.008209
-44.081493 -11.553602 35.511299
-45.060719 -9.3322744 32.017345
-45.407799 -19.804028 30.438805
-45.407799 -13.319116 30.267828
-41.281208 -8.6676712 32.155529
-47.124298 -10.104613 31.117474
-47.124298 -10.149909 36.397114
-34.167831 -9.5649624 34.98444
-45.093956 -10.683956 31.382999
-45.407799 -22.44593 29.27726
-32.104256 -21.890734 22.138403
-34.681801 -10.769199 24.176401
-37.431087 -10.7692 28.902533
-29.00083 -9.6097956 35.125786
-44.928688 -22.128071 29.2166
-29.047453 -14.553864 32.63377
-32.104553 -22.96875 31.239428
-32.104313 -13.735071 23.944124
-41.684864 -8.5759773 31.866444
-41.026398 -9.6384583 35.216152
-39.071537 -7.8421659 29.552937
-36.355534 -9.6587343 35.280079
-32.104401 -23.39959 26.60725
-31.569656 -9.2660437 34.04203
-39.131317 -7.5977573 28.782385
-29.952967 -8.9892693 33.169437
-44.38451 -23.326138 29.216599
-29.183475 -6.7973599 26.258953
-32.104271 -16.659006 22.86644
-35.753662 -10.7692 26.094938
-33.84441 -6.5695314 25.540672
-46.837986 -9.9316435 24.988997
-32.104446 -16.681295 28.056213
-47.124298 -10.087546 30.21748
-44.308273 -10.7692 25.121422
-27.402994 -6.4467688 25.153635
-31.717701 -23.980717 32.632614
-38.025932 -8.7574291 32.438511
-35.952103 -10.7692 29.969685
-34.228836 -10.507805 36.152237
-41.394535 -10.769199 31.40497
-32.104332 -11.767182 24.42083
-30.022236 -7.7685971 29.320995
-36.888332 -10.7692 29.636377
-30.753828 -21.788971 32.633026
-45.407799 -19.335144 30.545883
-32.104572 -18.527573 31.865601
-31.789015 -6.4455671 25.149847
-36.224907 -10.7692 28.233627
-32.104416 -18.601717 27.141369
-27.236349 -7.6320982 28.890652
-34.926468 -10.7692 33.249973
-46.329395 -9.7601252 30.752518
-32.104424 -17.344196 27.401058
-45.071308 -10.7692 23.843693
-43.91954 -22.322027 29.2166
-45.957245 -10.7692 33.019936
-34.231617 -8.4636631 31.512344
-32.104538 -16.959705 30.800583
-43.897995 -18.399284 29.531065
-31.895473 -11.73859 36.135796
-30.567425 -23.421021 32.633099
-43.971035 -10.239317 36.444901
-38.551014 -10.7692 34.864983
-33.142223 -10.332771 36.390892
-38.38274 -7.6347637 28.899055
-45.098587 -21.830894 31.382999
-44.402489 -22.422529 29.216599
-31.334999 -19.633348 32.63279
-44.235691 -9.05404 32.905346
-39.9818 -10.7692 35.249352
-34.811928 -11.8008 35.636925
-44.838593 -14.985136 31.382999
-32.104389 -11.408689 26.090479
-44.239182 -11.639792 29.216602
-41.067932 -7.9857402 24.53688
-41.281109 -10.769201 34.815216
-41.280319 -10.769199 28.893934
-32.104393 -22.418583 26.363655
-37.377266 -10.7692 32.501331
-32.104462 -16.250824 28.445393
-43.897999 -10.870932 29.781517
-27.368259 -8.1382608 30.486443
-29.332058 -22.539978 32.633621
-32.104385 -16.91765 26.141468
-31.62294 -10.769199 34.457676
-45.407799 -18.817467 29.407644
-46.06739 -10.7692 29.996214
-28.155712 -20.224039 32.634125
-42.826015 -9.1735983 33.750572
-28.324766 -17.300362 32.634068
-35.005482 -10.769201 26.525625
-45.137733 -21.169292 31.382999
-45.678856 -10.7692 32.569347
-41.584454 -10.7692 29.451712
-33.618652 -10.7692 33.054668
-34.514996 -8.6636238 32.142769
-46.313023 -11.8008 34.260231
-28.093672 -13.984414 32.634167
-32.064728 -8.2477598 30.831663
-35.206017 -7.668561 29.005608
-45.407799 -11.454862 30.146608
-32.104309 -13.106924 23.795256
-46.1898 -11.517134 26.121353
-28.71006 -9.2307043 33.930614
-39.60215 -9.0551758 33.37722
-39.740929 -10.7692 32.732201
-45.407799 -22.715973 30.77206
-46.745602 -11.028311 34.396114
-43.897999 -18.131874 31.1283
-44.716961 -12.345898 31.382999
-42.79319 -8.9300804 32.982834
-44.2173 -10.7692 29.829243
-45.407799 -11.067908 30.901398
-32.590775 -7.661603 28.983673
-45.232281 -11.083156 29.216599
-46.745598 -10.546204 27.852797
-32.104351 -15.006435 25.230532
-31.558769 -23.251135 32.632683
-32.104259 -20.295872 22.512091
-42.115715 -10.7692 31.017735
-33.334286 -10.769199 27.657179
-29.49612 -22.455059 32.633556
-32.104527 -18.250065 30.466673
-37.627071 -7.7421865 29.237732
-46.189796 -11.322082 25.641415
-42.489624 -10.7692 27.77039
-46.988754 -9.9824886 32.29892
-44.011311 -11.597495 36.227791
-44.156498 -15.57959 31.382999
-44.030231 -11.462577 36.227787
-27.889185 -6.6279569 25.724869
-42.000259 -10.543205 36.211357
-26.801659 -7.5924025 28.765503
-40.34267 -10.7692 25.299465
-28.833048 -16.375576 32.633858
-32.3246 -9.206419 33.85405
-43.359505 -10.328176 36.328472
-32.104496 -21.518585 29.540895
-38.710632 -7.3355255 27.955641
-46.807259 -10.3266 27.45689
-27.241791 -7.6187768 28.848652
-32.104362 -20.269552 25.562437
-45.330353 -11.672276 31.382999
-46.427254 -9.7931271 33.722427
-40.492428 -10.7692 29.625366
-34.68277 -10.769201 34.286957
-43.316044 -10.875727 36.221722
-29.558775 -13.613316 32.633556
-33.35257 -10.675694 36.145756
-30.263889 -17.051754 32.633251
-39.135567 -10.954403 36.190025
-38.708813 -10.401113 36.18618
-32.104389 -19.941574 26.333529
-44.939186 -22.564857 29.216599
-32.908226 -10.769199 34.259766
-31.898439 -15.336784 32.632568
-45.813629 -10.7692 28.040785
-45.680317 -10.7692 24.266258
-32.104538 -22.428492 30.744579
-44.783405 -21.650993 29.216599
-32.062447 -24.137642 32.632469
-27.456436 -21.312479 32.634418
-32.104439 -13.394907 27.854542
-43.898003 -13.988788 31.193735
-39.972206 -7.6162152 24.520157
-26.07692 -6.8516035 26.429966
-30.439989 -8.5810041 31.88229
-38.569248 -10.7692 31.465719
-31.169701 -19.984756 32.632858
-30.331779 -10.333984 36.206093
