# .PCD v0.7 - Point Cloud Data file format
VERSION 0.7
FIELDS x y z
SIZE 4 4 4
TYPE F F F
COUNT 1 1 1
WIDTH 1618
HEIGHT 1
VIEWPOINT 0 0 0 1 0 0 0
POINTS 1618
DATA ascii
47.900238 31.704504 13.281896
50.24971 29.35519 18.048252
55.129711 24.47496 7.7114882
55.715298 30.272778 8.9735546
58.575356 28.916775 3.4862654
46.910042 32.973381 9.7308903
59.230927 26.787086 5.2082367
55.261299 29.495602 15.060946
57.666443 21.938955 10.560431
47.427288 32.177429 8.2459421
58.468857 27.664499 18.489508
60.640526 18.964939 8.7076492
57.839062 25.097359 10.018418
57.7939 23.632389 4.6431012
52.724007 30.002071 15.058077
47.768997 31.801987 20.849592
53.275864 26.329243 21.45949
53.925301 25.67919 4.5963478
50.894279 28.70977 5.0488787
56.04882 23.555981 6.6972966
46.304008 33.300632 15.441607
54.257309 25.347227 5.5020761
54.65926 24.945934 24.238506
51.522987 29.732924 15.540624
51.25449 28.350479 9.4421597
58.153503 21.319283 11.196283
59.299095 28.302794 9.1162128
51.575714 32.260117 10.008389
55.569283 24.035448 4.4060326
47.124043 32.480656 15.511585
53.61319 25.991257 7.569737
47.823479 31.781258 13.047222
58.666714 28.857042 12.152055
54.030514 25.57464 22.716728
58.153496 22.078709 12.067216
52.633232 33.310547 6.0349603
47.139175 32.465527 12.342279
57.012131 27.664499 18.456175
56.071159 31.088387 5.1175523
52.044647 27.560375 9.5965929
53.128654 26.476437 19.84676
54.530636 25.074551 18.110748
58.846115 26.872734 2.4097896
58.134613 25.344038 2.832701
57.37711 22.228268 11.630941
55.545235 29.787846 15.468294
53.26651 26.337885 3.649621
47.720394 31.884342 15.754095
49.053192 29.156113 26.55983
57.7939 23.341227 6.3607855
54.939514 24.665705 14.19652
47.388504 30.811577 23.849108
53.786659 26.419001 18.200895
51.786278 27.817898 7.5919948
58.873352 27.621729 13.372298
53.971252 25.633896 14.418739
57.529667 29.821289 3.1391459
52.301826 30.360712 13.389141
57.80756 22.438431 6.9846215
57.174629 28.834839 10.533058
54.483345 29.736109 15.546461
58.1535 25.512541 8.533989
57.370705 29.957235 2.391664
49.721024 29.883844 13.105765
55.251839 24.353397 16.875872
51.87788 31.312008 12.70952
55.172665 30.81197 10.225029
55.639275 23.965984 18.036184
57.216866 22.3885 18.734594
57.094681 28.852467 15.848156
57.248741 28.518284 17.75861
57.403404 22.201977 13.09508
58.153526 21.795383 7.1472983
58.770638 20.834835 19.775873
55.853073 23.752199 20.414043
49.952271 29.652611 9.4713955
50.59996 29.004967 17.254406
55.683266 31.424133 5.0908313
58.874207 27.238972 13.71475
50.62188 28.983046 14.131664
53.030991 26.71069 16.6534
57.120159 22.484798 5.6211042
54.90921 24.696007 11.77725
58.1535 21.603117 13.775702
50.328674 29.276234 9.7840433
51.025295 30.598423 12.966038
50.476604 29.127384 4.995151
59.096352 27.185951 18.091179
58.075668 22.413528 12.900942
50.855949 28.748997 12.972394
58.868538 27.530006 11.435216
56.491844 30.737703 11.17078
50.752304 28.852629 23.022047
57.342518 22.262476 5.5892801
57.943398 29.483513 12.27643
52.80537 33.143547 7.2819223
56.440861 30.779861 10.284035
59.656761 19.948765 12.094563
50.142277 29.462614 16.495861
54.783943 24.82126 25.55901
58.733002 20.872463 10.999783
57.078728 22.526634 11.618316
46.394119 33.210526 12.888358
57.459145 22.146236 20.928888
59.621521 27.683611 10.119114
50.457855 32.775005 9.0919361
58.110001 22.410339 12.191557
46.434593 33.170052 8.1457939
53.387623 28.912796 17.011009
47.302433 32.301529 7.0261984
56.210304 23.394989 13.283665
45.846489 33.322296 8.1178083
55.952126 31.188457 3.7838826
59.231743 27.245293 5.5283298
51.623455 33.79108 7.3082666
50.32198 29.282928 21.406061
53.950607 25.654547 12.655921
48.957317 30.647497 12.824442
57.560112 22.045277 20.3806
49.512337 30.863386 12.494431
58.986969 28.559799 3.202595
57.501316 28.490253 1.6689968
49.742138 30.065674 14.944044
52.549526 33.394268 6.4506221
55.017265 24.587387 8.0645599
54.377129 25.227432 2.4960091
57.829533 28.1915 12.02938
56.743279 29.244507 3.8320086
58.882572 27.252405 17.081974
58.52927 28.969177 9.0838032
56.569481 28.332624 17.184927
54.829216 24.77541 3.7098019
59.255806 26.719688 15.035518
58.1535 21.099564 15.781868
53.987442 25.617708 21.027704
50.839996 28.635664 17.507872
56.417519 23.187792 23.943199
56.803745 29.208078 13.30123
57.13179 30.189896 13.953109
59.487873 20.117643 16.813135
46.776905 33.692856 8.4409618
56.183685 23.42161 21.207134
57.141533 28.86232 8.4139099
56.833801 22.77154 21.059381
54.168884 30.782709 13.672979
54.700302 31.28017 10.843154
59.18055 20.424944 19.805367
58.845688 26.770889 2.2377796
50.686211 32.159027 11.190924
51.968262 33.964516 4.8148823
52.74242 27.278349 18.0345
59.295387 20.31012 18.151693
52.964394 26.64069 25.42374
44.77734 34.827202 13.56565
47.156631 31.897587 21.210121
57.755211 21.850193 21.235479
57.7939 22.878189 4.6408191
52.881897 26.723186 11.200537
58.153538 21.458389 6.1183257
58.407871 21.197577 14.537301
48.584446 29.826294 14.340353
55.951057 23.653732 5.9388561
54.62085 28.815239 16.194857
48.317802 31.28664 7.3912911
55.499512 31.583811 5.3573775
51.92487 29.30407 15.269862
56.692329 30.550001 4.8402376
57.303749 28.256622 17.313805
48.971107 32.025002 10.42687
54.070225 31.895935 8.1079168
53.12075 33.642319 4.9721923
46.335754 33.268894 8.6257343
51.872589 31.81452 11.808582
50.138283 29.46661 12.165083
57.948711 22.665798 9.9898186
56.275848 29.722027 10.214958
54.429028 31.5469 10.320883
58.101883 25.341003 6.0164633
52.536335 33.405575 5.7503085
56.370209 29.61301 3.8022974
50.076115 29.528774 11.351811
55.152214 24.452461 8.2397423
46.383526 33.221119 8.8197823
55.36665 30.617607 9.1243858
52.227119 27.377911 13.866655
45.648163 33.026749 19.734692
54.088818 25.516338 24.331917
57.7939 22.663227 4.720428
58.253506 27.748528 2.2434182
46.760448 32.844223 17.434288
46.211205 33.213928 8.3106995
53.539742 26.065378 14.613199
59.363564 27.664501 13.116697
51.205414 28.399549 26.335443
46.645775 32.958885 16.627831
54.588318 32.153191 11.047215
54.198853 25.406311 25.85368
57.894226 29.521032 15.487824
59.019142 28.550058 11.314564
47.383793 31.636307 21.673609
51.990944 27.613266 6.5708451
56.089325 31.0811 8.8961868
52.681236 26.923826 16.383554
52.088253 27.516773 25.936296
59.745918 19.859619 10.616199
49.253262 30.351574 7.8245764
57.911453 28.102654 8.8155317
48.644459 30.960337 15.305231
55.645035 30.346199 10.595798
46.994141 31.387487 22.721331
47.347252 34.04166 7.8156018
58.1535 21.696575 14.378624
45.522655 34.081936 15.159587
54.839134 32.161938 8.228034
56.295708 29.70853 12.702806
58.866726 26.419001 3.1944499
57.7939 24.528576 15.597398
56.293118 23.825275 16.6534
46.293716 33.095493 8.5215015
58.004135 28.010714 8.666811
52.117455 27.487568 9.6218882
58.1535 26.592937 4.5804634
56.773712 30.478907 4.556222
59.992798 19.612753 10.388623
51.471519 28.133463 24.899355
58.262142 29.209881 13.314086
54.988049 30.991957 9.2471752
53.264748 26.340351 13.742336
56.022713 23.582577 20.376892
58.30835 21.297087 11.142541
58.973942 28.59749 15.02826
48.737053 30.86775 10.482815
57.376705 22.228289 8.1461134
43.578121 36.026337 11.536989
48.573921 31.030865 14.04506
57.7939 24.383972 11.86186
51.438381 33.73851 8.3591061
51.829208 27.775799 12.058084
49.998226 34.375076 6.2439694
54.496574 24.934494 16.6534
57.579857 27.767288 18.246363
52.545345 30.814751 13.601042
58.984711 26.419003 12.550446
45.836403 33.7682 11.440248
48.05442 31.550331 8.3549938
58.153503 25.864317 13.975798
59.62915 28.004778 13.079128
50.061626 29.543262 18.860281
52.768921 26.836153 13.287548
46.782036 32.822636 9.668582
48.344055 31.259624 6.7192688
53.224007 26.381092 26.55031
58.646294 27.687641 5.9014602
55.540104 31.542721 2.6937017
45.631062 33.666485 8.4882469
47.612682 29.750191 25.905209
57.7939 22.903643 4.2007027
53.643131 25.961994 19.21978
52.127274 29.365454 15.160602
58.751057 26.651691 18.448751
59.238609 26.464027 8.2398663
48.647312 31.522667 12.33184
47.825096 31.779646 10.924034
55.012444 29.420078 15.173075
57.556229 22.04916 19.809408
58.00845 24.759724 8.0845652
50.089188 29.514744 5.0923557
58.1535 25.909161 5.3467579
58.094864 27.921982 9.034935
51.466831 28.138149 23.335268
57.833031 26.112442 16.6534
45.349472 33.323425 9.1033049
53.153168 32.802155 8.1817846
57.7939 23.36832 6.58255
57.230106 30.090513 7.5652108
54.83519 32.169708 10.180212
55.894421 23.710358 4.5872817
50.675549 28.929382 23.674349
48.560825 30.673811 13.853729
52.544006 27.060287 6.2415137
59.261734 27.525745 17.378101
53.796791 25.80835 18.266232
57.639107 29.752151 14.605894
49.741272 33.626301 8.5602856
47.529072 32.075649 16.379978
58.153503 21.966215 15.047735
50.563675 28.710743 17.37326
57.51506 22.090321 14.663463
57.7939 24.943554 13.639416
53.771713 25.833424 22.068729
54.820107 28.749809 16.324066
57.776466 21.828936 10.776509
57.7939 23.594404 13.749132
51.483154 31.755203 11.91493
48.947407 30.65741 17.26446
57.7939 22.641649 12.553163
52.151894 27.453135 10.836269
58.1535 26.225157 5.3025322
55.862659 30.114063 3.6431327
57.770943 26.988647 18.254116
56.679733 30.579802 13.302924
49.525398 30.07946 9.7935495
58.461655 27.707779 4.4917459
48.534103 31.070683 21.328611
51.114143 31.585903 12.218464
49.944717 29.527842 14.871569
46.295166 33.309471 13.205161
46.888042 34.000179 7.8899693
52.507523 27.09676 5.4860835
58.855827 27.336185 6.3159571
49.852654 29.75222 17.707624
50.547264 31.253059 12.815212
60.589149 19.01631 7.7053165
55.074303 24.530357 6.458662
59.203278 20.402222 11.594234
57.7939 23.100668 5.9688954
46.820255 32.784416 13.055542
58.805561 28.719919 4.5767698
49.942467 29.662418 8.1720457
50.623348 28.981577 22.556656
52.139561 33.800377 6.8872876
55.073425 24.531235 4.4170909
55.947166 29.55117 15.017306
58.1535 21.4625 13.073051
51.107979 30.474415 14.211221
55.238708 30.747671 10.610313
49.669662 29.935194 21.947906
58.389084 21.21636 21.57534
56.501305 29.49931 10.226416
44.404736 35.19978 10.811784
53.337086 26.340225 16.6534
57.7939 22.508804 6.6175027
53.025711 26.579378 10.611679
53.375992 26.229118 10.840652
59.15361 20.451881 12.362499
51.578636 28.02636 16.747364
48.112202 31.492561 17.190393
57.954296 28.04443 2.3625073
45.45895 33.96674 7.9499211
58.153503 24.389767 8.881772
55.14912 24.455551 2.7558801
52.015751 33.989983 7.915801
52.068115 27.536905 11.489276
60.018612 19.586941 15.672456
53.461906 26.143206 23.520628
46.748848 32.855827 7.1658974
57.7939 22.999538 3.7671676
54.837833 24.767376 19.024651
51.343189 28.261787 26.125326
57.7939 24.491219 7.5379353
58.036377 25.017311 16.6534
53.504478 26.100639 23.019526
58.393692 21.211451 5.7229643
58.859947 26.906414 7.9768133
54.800201 32.197662 9.1312895
58.466702 27.707302 4.8092728
57.001881 29.188364 16.558519
46.713066 32.891605 8.2385845
52.978584 31.448294 11.488022
55.574802 24.030457 10.178387
52.184063 30.555126 13.043102
48.856289 32.844666 8.9679518
51.71347 30.504705 13.132847
56.499992 23.105328 23.925571
52.087959 31.620945 11.146055
51.933727 33.224861 9.2812462
48.714828 30.889969 7.7250385
50.454964 31.214876 12.883671
56.497047 29.482632 1.7449908
60.232353 19.373215 11.455202
55.861389 31.268749 4.5630546
47.632401 30.349453 24.82663
52.579918 27.025143 12.314587
56.559029 29.446163 11.80113
58.412453 21.192692 5.0012789
50.41806 29.186855 17.79772
58.144001 24.20261 9.9388762
56.18576 23.41954 20.210052
56.669651 29.327381 7.9474978
57.818459 21.786945 13.01929
56.9748 22.630548 23.090639
47.197178 32.407516 15.073332
48.031231 31.573524 12.713535
57.7939 23.837223 7.5467529
56.059319 23.545973 22.690395
51.837387 28.328568 18.058456
56.776787 30.496037 13.416153
46.212921 33.391716 13.523432
48.186378 31.418388 15.630179
57.757614 21.847792 18.19318
57.7939 24.042868 13.196045
50.724922 31.895435 11.663509
45.873497 33.731117 14.593471
55.902939 28.290882 18.146717
55.912704 23.69257 22.762854
57.373535 22.231846 21.041386
49.855194 32.251514 11.025106
58.302235 29.17148 11.658697
58.061401 27.948807 6.5037088
55.209122 31.843922 9.2555981
58.153496 25.790531 11.323033
48.193481 33.987293 7.9130754
50.899422 28.705526 9.428442
59.592236 27.664497 1.3414234
48.986053 30.618765 21.362535
51.104858 29.671 14.616759
58.853828 27.313726 5.5124512
49.425476 28.66275 27.491518
45.512192 33.081005 19.727272
59.634445 27.796482 15.130194
59.359657 20.245857 16.30459
56.245667 29.735203 3.4556496
58.153549 21.382896 5.1217489
54.918816 24.686398 17.361427
52.735859 26.869209 25.327591
58.663437 27.688299 15.185774
54.818336 31.154394 7.1218877
52.331406 28.355104 18.010876
50.6381 28.966824 16.24017
48.9618 30.643017 8.1009731
56.681244 22.923645 6.3011808
59.058449 28.522232 14.089867
45.728058 33.876545 7.635438
58.153503 21.372923 12.982847
45.41568 34.188904 12.124203
46.386089 32.439594 10.687907
51.030098 29.573561 14.790195
53.80032 32.16029 7.1691561
57.440811 22.16457 16.884962
56.421043 23.184273 24.817568
53.380848 29.028057 16.804358
58.153576 25.38155 3.3861134
47.671265 31.933468 14.38476
57.7939 23.858719 3.5570214
59.25275 27.299999 13.829616
48.743839 30.271049 23.922092
58.442009 21.163437 22.423094
55.350185 24.254513 5.7138195
45.880791 33.373871 18.58366
54.591984 30.019672 14.097651
58.317528 29.140947 3.9149146
50.285057 33.77655 8.2909069
52.751637 26.852684 3.3908813
59.623322 28.019083 10.820865
51.652981 28.825214 16.122177
56.573112 30.651588 4.1139498
48.396763 31.208015 20.253195
60.831455 18.774044 7.4503837
53.205078 33.575127 7.5730805
55.956005 23.648785 5.1080675
52.49498 34.184036 4.9556489
57.167183 28.821831 2.2632504
57.673424 28.32674 4.3172703
48.95607 29.687218 25.253216
51.334492 33.307285 9.1322355
57.359509 28.654673 11.543971
55.750343 30.229053 5.2771702
52.030544 27.573671 5.7496991
48.839287 32.416607 9.7298508
59.248665 26.478439 12.215277
53.166809 33.607441 7.2067089
49.811798 33.467068 8.8457718
51.858635 27.74556 7.964324
51.039898 29.261822 16.38525
52.060013 31.536251 12.30748
50.887779 28.717171 21.127396
49.32082 30.284014 16.395704
49.396774 28.818951 27.10737
58.2901 21.315336 19.733303
53.834015 25.771126 10.482003
59.556328 27.664497 16.930988
48.444832 33.999969 6.9116206
57.7939 25.238182 11.910891
50.306282 29.298622 9.602129
53.561287 33.168381 9.1560383
56.885162 29.100441 2.2559247
52.102112 27.502911 21.348074
58.653061 20.952118 9.2190475
51.228737 31.474848 11.406092
48.033318 31.898304 11.658365
45.339302 33.835663 17.904716
54.754204 29.959499 14.214854
53.293167 26.311935 13.602417
48.674229 29.668039 25.58576
57.922646 29.48781 6.1546803
51.924469 34.67907 5.4597349
55.124603 24.480623 18.458839
50.859554 28.745388 12.020592
56.902416 30.373384 7.1978993
59.137848 20.467403 6.0256343
56.168556 23.436741 13.559173
52.241615 27.362631 3.3489535
58.872448 26.976406 13.00841
49.607567 29.996294 7.192615
48.208328 31.396437 9.4441586
55.818848 30.165319 6.8784027
57.866791 28.141071 6.4993839
59.231339 26.419001 17.365711
54.27322 30.080112 13.967882
58.879181 27.558998 15.716946
58.651638 28.8766 15.065716
52.028313 27.576704 8.7532635
54.870026 31.339554 12.687828
47.684086 30.643175 23.998604
53.519852 26.08527 19.166658
56.188354 26.314445 16.6534
59.196964 28.384247 5.9999156
47.44236 32.162357 11.229888
51.030972 29.943943 14.130948
58.153503 22.285889 8.7500916
46.219868 33.259201 9.2184496
55.690384 23.914883 22.776285
55.953445 25.212173 16.6534
58.1535 21.028126 14.956684
52.892948 32.38163 10.800141
54.489799 25.115387 13.416391
58.15358 25.461555 2.8239176
55.327755 24.276943 4.726645
58.208267 27.799469 4.7811069
59.286263 28.322475 12.957059
49.860374 34.592609 6.827816
48.654369 30.847725 22.486544
48.220627 31.38414 7.5494471
60.68396 18.921518 9.6494484
47.182987 32.421711 8.9382801
50.374134 31.809532 10.810387
45.323822 34.28075 11.719496
50.70639 28.89854 20.066545
47.154842 32.449856 9.3790302
55.374115 29.538406 15.911509
59.144894 27.664499 18.066513
56.726044 29.278702 10.806803
54.405567 29.253494 16.407389
50.667194 33.341656 8.083354
49.070412 30.231215 13.619633
56.038528 29.947603 6.6035051
59.591763 27.748127 18.151398
58.153542 22.380873 5.5982409
59.613701 28.035891 11.562975
49.905716 29.699158 23.981993
57.965172 27.664499 18.568569
58.796631 27.670103 2.8126707
54.945332 31.027607 6.5860052
57.948189 23.224476 9.9899559
52.987228 30.173771 13.721875
53.36319 27.73876 18.055958
44.853863 34.750679 10.846197
57.7939 24.25754 5.9259534
52.556034 30.081554 13.88601
52.114285 27.49074 24.969858
50.710014 28.894917 17.366005
45.513744 33.893291 17.577576
57.288067 22.317307 9.8540897
58.711414 20.894051 22.043545
53.350403 28.575169 17.616333
58.163078 29.287481 9.6559277
58.153496 26.273642 11.771685
52.404186 27.200085 6.0917444
58.873684 27.222712 13.505348
58.949642 28.614527 13.237956
56.890461 29.109919 8.2287951
57.584309 22.021082 21.664436
51.183895 34.688736 6.656652
48.880207 30.724052 7.4662795
49.539738 30.065121 16.691736
46.294121 32.440845 20.637268
59.387386 28.221056 6.7462182
58.872089 28.675652 10.543123
53.170567 32.782005 6.9807544
58.153503 21.870867 10.615301
52.527969 27.077084 22.056423
57.7939 23.566029 7.6848578
49.827072 29.777802 21.739651
53.339912 26.265198 17.991426
58.12582 27.906288 15.081972
57.7939 25.038433 6.3659816
54.590042 31.349739 11.4081
51.56543 30.807423 13.614177
55.93288 23.6724 24.629478
57.363338 28.63039 3.22013
55.125828 31.903057 3.4455223
52.618958 33.131691 9.4568367
52.123363 27.481663 11.668016
50.609268 30.742119 13.731266
54.263187 26.550268 18.0345
58.835796 20.76968 15.636327
57.117359 30.187948 7.4873047
53.18412 26.420979 18.080488
51.759224 33.006817 8.6828957
58.142467 27.890339 15.285415
53.828312 25.776829 13.47315
58.315422 28.282227 18.194521
54.821709 29.502666 15.01468
48.768723 31.618807 11.14986
57.868839 29.548782 12.595566
47.720131 31.883455 6.7350521
56.606689 22.998192 9.1216574
59.006828 20.598656 14.828897
53.915321 25.689827 12.37674
58.04554 23.727678 8.0942383
56.494263 23.111053 15.667419
57.7939 25.145876 2.9614482
55.529594 24.075127 8.4888105
54.938438 24.666775 21.64352
53.106575 32.677467 9.1463299
52.67363 31.571486 12.244313
54.222496 32.692211 6.6317687
55.677383 23.927361 6.7226801
45.558044 32.850887 20.289635
56.120411 29.858021 3.0781317
52.546097 27.05896 23.775837
59.602798 27.672705 2.8636956
49.916046 29.688835 11.581236
49.509384 30.09547 15.539692
56.847183 22.757729 6.9393392
53.034203 33.723343 7.7002583
50.894279 28.201635 18.286028
56.96743 30.30625 2.3422265
54.603512 29.940512 15.183004
56.102905 29.879612 4.8216763
47.415497 30.059914 25.388004
54.627625 24.97757 23.160772
55.890659 23.714119 5.4012609
55.096657 31.930508 4.4290886
52.378098 27.226164 2.7526927
56.0965 23.508791 22.869265
52.848518 33.093163 4.1325302
46.635643 31.981174 10.504877
58.1535 26.072166 9.9628925
57.619869 29.690226 15.238671
59.389435 28.229601 11.36438
57.60434 22.00069 4.8216944
57.486153 22.119232 10.123389
50.915295 28.689655 11.109566
55.460251 30.509506 2.7790737
57.630325 29.754389 12.201554
55.349049 24.256195 19.856161
54.993263 24.611956 14.567533
59.614941 27.847965 7.5710807
56.58691 29.41169 8.9889812
59.377884 28.236517 9.9829655
58.153503 21.350946 12.646608
53.11697 33.645294 4.8369818
47.697762 32.058353 10.367507
50.446548 29.158367 14.234396
48.698368 33.933128 7.0305882
49.197826 30.407007 10.656457
50.540958 29.063965 16.936897
57.7939 24.027222 14.71615
49.828857 29.776016 16.796923
55.383457 24.221786 18.561676
48.674374 30.930428 20.005941
46.030579 32.696793 10.226778
53.171093 28.604776 16.514534
57.242714 22.362652 10.246346
49.213745 30.391087 17.300102
54.127918 29.862831 14.334586
51.737301 29.883461 14.238603
58.142525 29.29734 6.1054068
52.245056 27.359188 6.2591295
47.331345 32.273361 9.6229725
57.7939 22.491249 14.987192
59.239777 28.348269 6.4851031
45.628906 33.975697 14.705241
59.13723 28.460369 16.928019
51.947002 27.658014 25.275732
56.309868 29.685785 9.1463909
52.404491 27.200558 21.044621
56.247478 29.735012 4.1048832
53.15871 31.86517 11.726122
56.148087 29.139975 16.633497
59.153461 28.430725 9.9479294
53.358757 33.441326 7.2358813
57.133041 30.168539 4.8762488
58.1535 22.92938 8.6110373
50.970387 30.873423 12.476567
57.723457 29.664927 8.2474842
50.430248 29.174667 22.19495
45.104782 34.499775 8.3696804
58.153503 26.189121 7.9076653
57.633461 27.703972 18.643188
49.530327 30.074528 12.954422
56.418335 23.186977 23.226698
50.953789 28.915897 17.005451
52.095078 27.509941 17.184361
52.334808 30.203617 13.668756
58.153496 26.053326 8.6576023
56.715401 22.889931 22.08008
46.461632 29.816696 25.794149
51.753006 28.785202 17.239765
58.864906 27.502853 9.9740181
55.619522 31.477219 4.1487417
58.590427 28.925331 13.157579
47.5788 28.940033 27.258097
52.19986 34.222233 7.3854761
53.902058 29.924252 15.202641
49.853542 29.750353 5.2516193
51.90313 33.836811 8.1878586
56.865288 29.127462 5.2562308
57.727867 28.29987 15.248553
47.604412 32.000313 16.84804
44.636696 34.967838 12.370939
46.355835 32.520477 10.542887
58.1535 26.012333 14.524369
59.614883 28.003983 7.5472975
53.355896 29.460234 14.991903
54.799423 24.805782 17.12002
57.7939 22.835121 11.548031
58.1535 25.978683 16.353603
55.081291 24.523933 17.009705
51.478519 28.114244 18.442713
55.930782 24.64992 16.6534
51.71949 27.885508 9.0759058
54.250687 32.661392 3.7591019
49.91687 29.688009 13.349772
46.481972 33.122681 10.875836
57.206993 28.786259 3.787025
50.336483 29.268427 8.0882349
57.7939 22.461433 11.368079
58.153496 25.193003 15.954945
59.421928 27.664501 17.755669
55.384235 30.599062 8.6466866
47.82597 31.824284 11.791078
57.598183 27.908733 17.994381
49.240162 29.237959 15.387535
52.803787 26.801285 26.584061
52.574646 27.02965 6.0130258
51.64423 32.836834 8.9818869
51.542904 28.061241 7.5296373
53.114803 26.490292 26.346119
58.153496 26.398865 5.9058418
59.226189 26.605497 3.3342977
57.7939 22.860451 7.002183
51.236023 28.368948 22.943392
52.559978 27.044315 4.4796267
46.435822 33.168827 9.3723259
58.878048 27.333391 15.26096
53.185764 33.585751 4.8443322
58.1535 22.060822 8.3177519
55.232235 30.757162 11.866009
49.370316 30.234535 16.872318
54.241364 25.363808 12.702671
58.273022 27.763529 16.166327
57.7939 24.562984 13.058306
56.275581 23.329723 12.279027
58.849548 27.667198 13.581277
59.099525 26.418999 9.1997108
54.946846 24.657787 8.2570724
49.551628 30.052229 6.1560264
54.484837 25.119736 5.0736728
57.7939 24.877056 14.853653
48.760483 30.844326 8.9609604
55.103073 29.531322 14.986582
59.033607 20.571625 6.5419807
55.071117 24.534103 15.610085
49.1744 30.430431 15.804245
57.420929 22.18445 17.9272
54.911179 32.097527 7.3168569
56.671196 22.811901 16.6534
46.77412 32.830547 13.963387
55.931602 23.835915 16.6534
53.106796 32.838638 4.3940597
43.603992 36.000462 9.9011669
53.155289 27.482603 18.317801
49.09034 32.396568 10.765038
57.492817 22.112566 22.970137
44.09634 35.508152 14.688294
48.043903 31.560856 20.725878
54.163689 32.74102 5.6896591
57.7939 24.520418 15.497836
52.222752 27.38228 19.458477
53.907196 25.697948 16.160114
53.306244 32.330791 10.896484
49.414078 32.271065 10.990051
53.709732 26.647697 18.0345
47.520409 31.914268 10.623964
55.273682 31.784435 7.6468148
52.242603 27.361645 6.4225717
52.811768 26.793308 20.013176
55.802601 23.434132 16.6534
59.23838 26.990696 8.1513691
48.362553 31.242226 13.987386
53.593628 32.361862 6.0993814
57.840744 29.572376 12.273183
58.367168 21.238274 10.696829
53.511372 26.09375 11.589717
46.862312 32.708141 10.206431
54.20105 31.755922 3.7362313
59.106915 26.418999 18.053993
51.708221 32.875019 8.9139252
48.683693 30.921104 19.204533
58.153503 25.395395 14.779154
51.648087 29.332663 15.218967
55.717197 23.887554 4.0031142
47.843727 31.761017 13.374604
57.238266 28.784992 15.820921
54.761364 24.843842 14.860174
56.268433 30.931381 11.289885
58.579781 21.025677 23.678471
48.100746 34.182098 6.5874443
46.68898 32.915688 9.2128963
58.237358 29.21949 8.0052519
48.492241 31.112545 11.210012
44.184956 35.411098 14.894317
45.415932 33.62067 7.5867348
56.023823 23.704308 16.6534
53.490719 30.056843 13.947874
51.386688 32.252945 11.022539
58.883423 27.641674 17.425812
52.396358 27.208687 8.7362156
47.411915 32.192802 18.976032
57.581139 22.023886 9.405839
51.794697 33.269848 9.1993589
53.233219 26.371174 2.1527281
59.604919 27.771917 3.6886516
47.951481 31.653269 18.566206
57.7939 25.204329 11.133661
54.999245 30.256977 14.623087
56.333344 26.419003 18.285763
51.302723 28.301388 6.1860967
56.759262 29.070004 16.766663
56.326893 29.668388 8.9121351
45.532284 34.072304 16.501001
55.93362 30.040993 2.4378684
52.892525 26.711815 3.4746552
52.173416 27.430822 5.6250963
51.816536 27.824406 17.903515
50.476219 29.1287 12.656529
52.901146 26.70393 11.471514
58.268677 29.203495 12.986192
47.407219 29.435499 26.430717
52.424294 27.180754 24.559258
58.153503 21.412586 9.8720903
48.773544 32.083897 11.325621
51.056011 31.646494 11.100576
60.236977 19.368587 12.444318
57.9561 21.649319 16.334969
54.256073 25.3491 16.254406
54.407784 29.557161 15.865055
49.179234 31.419601 11.504421
57.207668 22.397694 12.942225
50.918121 28.68593 5.2740049
46.50462 33.294704 9.1548004
52.405319 27.198948 3.0836005
58.882221 26.591223 16.940664
53.732769 33.121502 9.0100336
56.969891 30.319033 9.0169077
58.508415 28.992931 11.634716
49.592072 30.011787 6.8294439
48.646217 33.386833 8.0029421
56.610413 30.639973 13.371974
57.694771 29.703194 14.260995
54.439987 31.522158 12.355934
45.662422 33.942173 13.867017
57.645782 28.349014 2.2729006
58.739204 20.865988 7.2550573
58.855751 27.23732 6.2860527
57.102081 22.502872 8.7346916
54.745758 29.721424 14.628305
48.573036 30.875824 22.493694
46.117527 33.616428 8.5779819
52.086452 27.51857 18.882473
57.902039 21.703369 21.504314
59.420994 20.184517 11.376497
48.026176 32.245548 10.034317
50.752171 30.608982 12.947243
49.215462 30.389374 8.3463688
59.907475 19.698071 10.493627
59.63015 27.885977 13.466342
45.817818 33.786789 16.27751
58.604645 28.908926 11.324692
57.633224 21.972166 15.926031
48.834034 30.104599 14.874254
47.115604 32.813408 9.0235844
52.351498 34.071762 7.6612911
51.319069 29.723675 14.523004
53.728336 28.148323 17.326973
58.101105 21.503994 4.8779631
55.668232 30.057388 13.904214
49.391937 30.486469 14.189605
58.153545 21.350172 5.7224579
52.918579 33.030006 6.5955124
56.647629 22.957701 17.273355
50.957829 27.94083 17.696293
56.450508 28.05756 18.570782
52.362923 34.299805 5.6039572
57.013863 30.287428 11.911543
58.199081 26.419001 18.317217
55.539375 28.8545 17.135208
58.880535 26.8319 16.262383
55.752403 30.084803 13.741479
48.924747 30.680065 16.151052
52.287514 27.31752 25.098574
52.644329 26.960735 26.537369
58.159424 21.446007 14.168398
46.901894 34.076584 7.7529793
58.062653 27.967024 14.401707
58.995323 20.609907 7.2807899
48.912109 30.69165 6.5138836
53.184799 26.4203 17.579786
53.288834 32.667675 8.0044584
46.854561 32.750118 9.7291679
55.139477 24.465752 22.098942
46.007519 33.597103 9.2507133
54.048126 31.755413 11.934072
55.678207 23.926537 6.0340805
47.416767 32.691486 10.236288
59.221001 27.349426 1.2841983
55.609055 28.802958 16.292601
52.648315 26.956741 18.339689
46.178581 33.426048 8.3494568
59.037758 20.567732 12.614409
55.089447 30.882074 5.3062716
47.729519 31.874069 6.585063
54.568104 31.40229 7.3945994
58.153496 26.259821 8.2631359
54.835758 24.769447 10.890234
44.7542 34.850334 8.1555014
47.572548 32.032173 12.426757
52.374329 27.230721 16.471748
55.321655 24.283585 10.635387
50.127235 29.477661 20.832832
55.563148 30.413839 5.213542
55.384716 31.677355 2.741606
57.891384 27.664501 18.520067
57.800026 27.705212 18.64542
50.217892 34.828964 6.4040561
50.841362 28.76268 7.4085188
56.821014 22.783899 6.2915349
50.425674 29.179237 23.446699
53.784428 25.820713 13.259262
45.147167 34.457394 11.984557
54.20195 25.403214 21.207668
57.7939 23.236174 11.526016
51.560345 29.812284 15.398337
54.396851 25.208328 20.778221
51.481792 28.12319 20.1005
56.143604 23.461689 18.903578
54.998428 30.973467 5.9014597
51.319542 28.284569 6.0731316
48.172062 32.859467 9.9351225
55.303928 24.301311 12.294306
49.187653 34.308575 7.3370538
56.240112 23.365189 16.142214
56.219719 23.385584 12.474844
49.145283 30.459543 19.715338
57.7939 23.801735 15.612758
56.118317 31.058865 10.180496
51.581409 28.023584 20.352331
49.751518 29.853355 12.73385
58.912762 28.622408 2.4713435
54.995125 30.990602 11.535772
53.996994 25.608154 13.00981
48.826988 30.339989 13.426028
55.235947 31.521107 12.259647
58.153522 21.694794 6.9824829
56.676762 30.570667 8.0590191
53.741215 27.541763 18.317801
54.435097 32.515846 10.074255
48.142223 31.462543 19.530275
49.355232 30.249613 21.70521
58.153503 24.317768 9.8183222
58.898735 20.706741 12.186938
57.641426 28.361584 5.6293936
49.910057 31.984636 11.503582
54.800835 24.803789 4.0223169
56.900932 22.703993 3.9106951
59.460754 28.177891 15.858111
58.685104 27.13615 17.941845
58.153503 26.052593 8.0650806
49.308853 30.294968 6.6484413
47.075787 32.528908 11.498499
49.390671 33.626335 7.5766554
54.58548 31.385704 7.6302938
57.426414 23.516056 16.6534
59.604641 27.965715 3.5789888
48.766705 30.838097 14.913365
55.720306 23.884445 5.8739367
59.231422 26.929033 5.4009924
56.675434 22.929895 24.526085
53.985733 25.619413 9.1173449
57.7939 24.293509 6.3705187
54.623028 31.338007 3.3251827
53.11203 26.493061 8.9439449
57.022579 30.259649 2.8525224
48.488575 31.116209 20.928619
57.02879 22.576565 20.637644
57.727516 29.659956 7.595221
52.51886 27.086193 18.14784
52.177868 33.759384 5.6100001
58.871712 27.226768 12.711033
53.477005 26.127747 8.6381121
53.545151 32.415741 8.5326777
51.50827 28.961218 15.880103
44.980984 33.46608 7.8618903
52.469414 27.135635 10.070868
45.142941 34.461624 11.022318
54.637146 27.992046 18.60302
49.749523 29.150312 16.585171
59.234612 27.181957 6.6621752
56.311417 30.362637 14.451963
54.286907 28.432468 17.872177
51.614105 27.990889 25.889601
43.734146 35.870319 12.443576
58.240231 29.229549 13.624503
59.296597 27.664499 14.952951
58.855042 26.893158 6.000576
49.354469 28.634903 27.636127
58.949978 28.596272 5.1953778
51.370655 30.243126 14.625894
55.461582 31.615566 4.87256
49.355686 32.088692 10.313501
52.013844 27.591171 19.603901
52.300117 27.30492 18.074064
57.392448 28.62277 11.804458
54.45306 30.108969 14.880112
60.586716 19.018873 11.787316
52.454361 26.604027 16.6534
50.207771 29.397129 16.486528
52.607372 33.293415 7.9806495
51.623276 27.981716 10.955733
58.1535 22.559958 8.7755489
58.46994 27.708042 8.8775415
50.061886 29.542761 7.8409305
59.259289 28.329365 5.585341
50.054546 29.927601 14.160032
59.071964 28.502195 10.35611
51.097233 28.507729 19.831694
53.25798 32.184181 10.229628
54.256187 27.933952 17.708538
53.539776 26.065346 24.093979
58.845261 27.484909 2.0641017
55.571762 24.033495 20.19837
57.868031 22.432814 7.3873296
56.206989 30.984097 11.073908
45.714474 33.277542 9.185564
48.021599 31.583155 19.597269
51.099281 33.146561 8.430604
52.562866 27.042187 18.657692
58.153496 25.638893 14.93227
59.064308 26.419003 13.183989
56.094349 29.90328 11.000852
49.333015 32.050415 10.381635
57.730488 29.651377 4.9057426
50.578705 28.446465 26.909782
60.085533 19.520021 13.076594
55.850204 30.123619 2.5261037
48.095024 31.509739 12.886044
57.705704 28.252775 16.916189
53.479698 33.336739 7.2853298
58.072128 21.532967 4.7618761
57.314075 30.031914 13.874251
51.797176 27.807827 22.374126
50.890732 28.714214 9.7748432
54.26096 31.713974 10.738036
60.292549 19.312868 8.6732769
57.483002 28.543634 15.999927
52.914986 28.85412 17.116207
51.568043 28.036947 11.333055
57.162121 30.055748 14.624855
58.954926 26.419001 7.5533905
50.616257 34.217278 6.5248404
49.925247 29.678661 4.6415009
56.757984 29.0364 16.826662
53.955841 32.91856 4.6145897
52.491913 33.443203 7.6935167
49.204941 30.399887 16.182816
44.524975 35.079548 14.834056
53.681671 32.013138 10.414867
54.131199 31.828794 5.304594
57.631721 29.729948 1.8015954
47.242344 33.002289 8.6873932
52.549328 33.394993 6.6656384
56.058075 23.546726 7.384203
47.603928 32.000801 19.725904
55.576759 24.028496 12.986467
53.756355 32.197472 4.6297979
53.476643 28.666363 17.452831
54.474663 26.845127 18.0345
58.93438 20.670837 7.70574
51.122437 28.481649 5.7437177
47.47522 32.129501 17.686462
45.896206 34.106026 7.7001963
53.614876 25.990194 8.7621298
58.964375 26.419001 16.165192
51.902744 32.136524 11.231268
56.596725 30.63575 6.1754966
44.921417 34.683128 15.019845
59.470592 20.134928 14.907772
58.873955 27.566154 13.613807
48.93581 30.669006 15.062233
54.454475 25.150707 16.64126
47.497047 32.107674 13.966372
51.251724 28.353239 17.044176
56.991173 28.204788 18.315077
50.07233 31.577444 12.233627
53.153172 26.451927 25.330574
55.47039 30.335291 14.489532
45.542969 33.033535 8.6317778
51.653206 31.503582 11.354941
53.185616 26.419477 18.25008
58.402344 21.202801 6.3825479
47.370609 32.182941 20.241093
58.420929 21.184521 17.943441
57.7939 23.702801 15.413536
46.977333 32.62735 12.030893
49.599335 29.366703 25.456961
61.202805 18.402744 7.9467368
59.223869 27.497791 2.4174719
48.399422 31.20536 14.718029
51.038536 28.56642 19.839716
57.152519 28.869118 15.582389
44.643532 33.5369 7.7358379
50.678947 32.927444 9.8132486
57.248169 29.91572 14.953677
58.072243 29.363914 8.6690617
44.923237 34.681313 11.570319
51.62207 27.982922 13.335503
57.246559 22.358418 5.9565663
48.313534 31.291233 19.57225
48.090889 31.513866 12.607471
53.276901 30.669643 12.86545
58.741688 20.863781 15.826488
46.576118 33.640968 7.5506039
47.741241 31.863491 20.336895
52.087894 27.517132 8.731822
48.248741 32.415394 10.731291
56.392944 28.022417 17.710857
48.107449 31.497309 14.078159
44.703247 34.901283 7.9963946
52.787907 33.435764 8.9160099
51.786751 27.818247 22.737186
47.894264 30.093578 25.241041
59.315083 20.290421 18.081558
58.991352 28.582569 15.096624
55.526619 30.447197 4.1030951
58.040855 22.416761 14.189979
59.290909 27.664499 4.5660782
57.856689 29.5543 10.356956
56.765926 29.237118 9.9199457
51.744137 28.831114 16.111681
56.090385 29.896864 6.8038797
55.958569 23.646217 8.7143049
48.153255 31.451509 18.751751
52.98436 27.664501 18.510746
58.169399 29.262672 0.99907184
56.609154 29.403191 14.461864
52.462296 27.142752 11.376378
47.084972 32.519722 18.169056
59.5023 28.140944 15.418768
54.006172 29.790596 15.44275
50.253525 28.720432 17.35589
56.93491 28.770849 17.303314
46.310196 33.294453 11.832572
48.780384 30.672344 13.856358
48.355 31.249777 20.251982
59.160988 26.419001 9.1413584
58.062279 29.362637 4.2350287
59.577938 27.664499 4.2871122
49.697716 28.63143 27.302038
48.450851 31.153934 15.591791
57.086693 28.589996 17.628357
55.384838 30.358446 13.344316
58.863922 27.085411 9.5745697
45.045372 34.559181 8.0156345
46.00539 33.599228 11.498401
58.231598 29.216087 4.2498055
47.82655 31.778194 17.652205
57.7939 23.022499 12.625294
58.850906 27.193409 4.3360157
57.996483 28.030266 13.535372
57.216747 30.116449 13.998507
47.792606 31.035168 12.188679
54.2883 31.535133 12.330726
55.473129 24.132122 9.7928123
57.70018 28.318869 11.858093
59.033649 28.547781 15.913727
58.1535 25.433502 12.978886
50.643085 28.961842 17.716686
52.636982 30.63826 12.895132
59.318703 20.2868 20.849802
45.704731 33.176411 8.3774757
59.354237 28.253813 8.563015
50.233139 30.14024 14.810353
57.7939 23.468477 4.3375459
55.024193 29.85236 15.346081
57.4091 28.593826 6.7302408
57.503803 28.496349 5.141613
54.774849 26.977512 18.328419
53.556599 27.62188 18.0345
45.331879 34.246876 16.824594
49.039234 32.078983 10.330785
49.813736 29.79114 14.187352
52.686157 32.244698 11.041937
51.116898 27.887165 18.601101
58.255943 27.761051 8.3073196
51.231598 32.43301 9.700655
56.504948 23.100368 11.854843
58.847683 26.624477 3.0398312
59.080887 26.419001 15.405236
58.875656 26.817131 14.298439
47.95874 30.632473 23.75222
57.633293 29.747448 10.244142
56.235771 29.763716 11.062203
58.997669 28.5541 4.8002729
48.515484 31.088223 6.061841
59.229424 26.77474 4.6117826
53.5065 26.098619 25.63743
49.47942 33.589928 7.6414566
47.326023 32.278694 19.529287
57.649887 29.718685 3.8009782
57.640282 21.965113 17.224197
52.651131 27.937531 17.702166
54.135487 30.084972 14.918715
46.751854 30.671062 24.367439
57.398438 28.404003 17.964729
55.589615 24.015114 6.7960434
57.155083 30.145832 3.2508545
60.78846 18.817036 8.3416414
57.997803 28.01635 8.4155416
55.11898 31.912479 5.0118356
59.234688 26.785704 6.6932845
60.190273 19.415289 11.615199
55.109909 27.824795 17.955425
52.678879 30.761522 13.696472
54.995689 24.608961 3.5739424
57.7939 24.929449 6.8953404
60.484722 19.120722 8.3355398
50.237804 29.3671 14.675939
49.961403 33.071732 9.5545588
58.153564 22.241085 4.4743814
57.047188 22.558165 13.725376
52.90274 26.419003 18.149082
58.786308 28.745262 8.4606895
51.191296 28.41367 22.450394
43.145061 36.459366 9.2895164
56.231186 29.763872 9.2868814
52.164825 27.439411 4.0441484
52.095547 27.50948 22.68144
57.893177 28.139091 16.283762
47.946835 31.657915 12.259573
54.506878 25.097698 6.6561561
58.153526 25.641184 5.3436089
52.373497 31.894651 11.664914
52.193016 33.567913 7.5793648
46.545006 33.05965 13.860375
56.498486 29.512028 14.259778
54.960983 32.044903 3.0606539
58.471767 21.133678 11.392173
52.158501 27.446527 21.117556
49.477806 34.61446 6.7886429
58.1535 26.671486 5.5203581
54.399654 25.205523 20.107521
47.155029 32.448479 6.3264084
54.563274 25.041309 6.050384
56.234245 29.744102 2.4877479
53.747253 32.204678 3.9064784
54.524063 31.478901 12.434317
56.594242 23.010635 5.574738
57.7939 23.902933 4.0337982
45.807835 33.796768 14.5205
51.322433 28.282539 22.335958
47.546829 32.057896 10.200712
58.847885 27.431908 3.1211939
58.87468 27.535442 13.906487
58.602821 21.00264 20.204483
54.097996 25.50716 23.061691
53.579807 26.025322 9.7327347
49.422211 30.574888 14.031083
52.220432 34.424889 6.3727183
54.837868 24.767342 17.327532
58.1535 23.745989 9.5827227
51.646523 27.958477 22.20643
55.232418 26.501858 18.345718
55.857243 30.135035 9.9837799
51.634312 27.970678 17.412048
55.307709 24.297529 25.292917
48.125107 33.81179 7.2465572
55.283371 24.321867 15.416666
46.260704 33.219433 18.611568
58.860413 27.406189 8.162776
50.913151 28.690901 6.8485298
58.197758 29.243446 3.3825586
52.864555 26.739777 6.2924056
48.468903 31.135876 14.439442
58.1535 21.102314 15.806843
52.188187 32.627472 10.351616
45.947372 33.657242 10.046777
53.858879 32.095383 4.3055191
54.273438 25.331734 14.476847
59.628063 27.856245 12.657673
53.19767 27.419052 18.0345
57.275528 25.589054 16.6534
54.334198 30.407755 14.344879
47.081718 32.522972 18.871181
58.844688 26.901501 1.8338766
56.398182 30.811996 8.126585
57.7939 25.042595 12.11613
50.671356 28.932663 7.3946733
53.775211 27.720451 18.088543
54.708809 30.263897 13.681881
50.678936 28.925997 23.505562
58.330669 27.721392 0.93335247
45.397564 32.67506 20.914846
47.800583 30.106026 25.301826
59.226456 27.242275 3.4396677
55.381226 30.340157 13.399496
58.01041 21.595009 19.252632
58.683006 27.683014 3.9030294
57.31723 30.020527 10.001143
52.202232 34.44099 6.5281391
51.774666 31.428204 11.489115
50.032124 29.572763 17.587208
49.659843 29.945019 21.59164
47.370781 32.233932 13.877987
48.83667 30.768139 8.7338543
57.346123 22.259251 15.642668
54.458729 29.284458 15.366168
53.072826 26.532265 25.882057
58.766911 28.710733 16.966984
52.040081 33.284595 9.1759806
49.599281 30.004967 7.6240788
51.264481 28.34049 17.147522
53.572124 25.583441 16.6534
43.807686 35.796783 13.322624
52.378479 27.225788 6.6885295
58.304535 29.155449 5.3729544
47.052155 32.552536 10.331831
58.467602 27.707031 4.1729779
45.19733 34.407234 8.5957699
58.333252 21.272186 21.989294
54.131046 25.474117 23.049316
50.980633 28.624317 23.199034
48.475174 29.658127 25.811022
47.556572 32.048149 12.801828
58.893875 28.636368 1.4027231
52.523613 33.420605 6.7480998
58.848251 27.299732 3.2685432
46.801453 32.803219 11.375659
56.641968 30.610353 12.342061
58.118004 21.487099 7.7161717
55.952888 23.894115 16.6534
56.373875 23.23143 13.484765
46.524803 33.079853 9.6023045
57.7939 24.132496 15.04263
54.375786 25.229389 20.226097
45.656635 33.947964 16.923729
59.256508 27.303261 15.313654
61.110153 18.495386 8.6491156
58.11042 21.495007 14.524036
47.226871 32.377831 7.4685564
58.859417 26.87447 7.7623968
56.790802 29.214254 10.615707
58.1535 26.394012 10.592829
49.352158 34.018745 6.8781977
55.296787 30.68325 7.7513385
55.652153 31.461327 9.683609
57.368809 28.638889 8.86584
55.418324 30.644718 13.936186
55.451122 24.154127 17.174324
49.703133 30.999752 12.251716
51.885654 32.272812 10.986923
55.49501 24.110241 15.049682
57.7939 23.667973 14.432332
43.601288 36.003174 11.170706
48.990196 30.613575 7.2553749
58.365891 29.110088 8.8437634
60.723171 18.882311 8.7807198
49.456985 29.858692 24.298351
53.83551 32.601791 10.419559
59.569397 27.664499 11.430135
46.58876 31.799257 22.038391
53.291481 26.313622 20.472321
47.549011 31.479542 12.409156
57.54435 28.479111 14.411142
59.395119 20.210392 11.736305
54.601685 25.003508 24.819866
58.153503 25.749241 6.3140039
57.7939 24.779921 14.009607
56.442894 29.548294 6.6843166
52.629852 26.975208 8.5404205
50.268898 29.33601 23.360516
49.835182 29.217228 16.4652
50.278526 31.94825 11.568819
55.326099 24.27914 10.591753
47.848221 31.732758 11.955172
59.115341 20.49015 12.010635
44.370262 35.234249 9.9123468
58.847866 28.681187 3.6337173
51.665459 32.214687 10.089248
58.364525 29.082716 16.275871
51.486629 33.644833 7.5520697
50.830719 28.773325 6.7820458
52.052742 27.552277 26.083353
47.67347 31.931265 12.362473
54.056507 25.548647 21.119932
57.585003 28.433224 12.085123
54.622669 31.34482 5.9481134
51.129543 28.475418 9.79673
49.435791 29.825859 14.341122
53.131992 26.473099 13.450589
59.239647 26.662941 8.6504641
55.457081 24.148167 24.810555
52.023964 27.580254 5.9168196
53.806988 25.797482 8.1687908
46.761261 32.843407 10.405746
56.765755 22.839584 14.172702
53.49939 26.105726 16.314983
58.687481 27.683907 8.9351635
58.651268 27.686892 5.183672
56.639664 30.60466 8.9004602
59.225388 27.518572 3.0199442
58.944515 28.594303 2.1967971
51.601921 28.003073 12.435123
52.742668 27.664499 18.538982
58.875961 28.680853 14.374138
50.681511 28.923424 12.753985
52.951927 32.524128 10.546426
58.443207 21.162243 21.461761
47.675137 34.067879 6.7907448
57.94775 23.529949 9.9900684
55.927193 23.678085 12.740494
49.470715 29.38916 15.118412
54.099312 25.505844 19.098049
52.932831 33.808941 6.7319851
51.049011 28.327171 17.008644
56.062523 28.299002 17.204226
59.953915 19.651632 16.965879
57.297798 30.02949 6.4808474
55.125851 31.902081 3.0196033
47.556709 34.29258 7.3657303
52.683605 26.921459 8.8639317
55.540955 24.064301 13.674208
53.14048 26.4639 7.4054208
51.461815 33.048737 8.604723
57.7939 22.693705 4.8936596
56.737762 29.24971 3.7346206
54.493595 29.122126 15.651226
54.708118 24.897079 14.893799
52.920128 32.696888 10.237451
57.7939 24.230043 10.546555
46.801903 32.802769 12.708815
57.984898 22.421959 13.921618
53.583321 32.366974 4.0428138
56.083401 23.712914 16.6534
58.263237 27.775351 17.041502
52.662872 34.042896 6.83887
57.126297 28.876717 8.1465254
59.229515 27.394238 4.6460886
49.179855 30.424976 11.96027
53.700783 32.249477 3.4545131
51.463913 28.141073 16.853128
56.683311 22.921577 7.1348181
57.7939 22.759186 4.4073215
53.050938 26.554153 15.385969
44.479805 34.681908 16.527534
51.771477 27.833527 8.7673712
57.252983 24.925241 16.6534
58.882687 27.063753 17.128065
49.395164 30.208668 5.2114406
58.1535 26.711615 2.1830511
55.997612 31.166508 11.588736
58.153503 24.153366 9.0439968
48.022137 30.412659 13.296679
47.98719 31.617558 20.713383
48.73539 30.869413 10.024929
57.244545 22.360823 18.79759
59.384071 28.226124 7.731112
57.646137 21.959259 12.510092
57.456886 28.561666 12.844572
48.052795 31.550842 6.8597927
48.865253 29.456142 25.954779
56.574253 30.655815 6.4509678
51.756405 27.848595 26.548527
47.25032 32.354385 10.433212
47.643829 34.392151 7.1872168
50.080559 34.010674 6.8925638
56.752235 30.506767 8.7031813
55.260689 30.849493 13.568335
58.740032 27.870874 18.65802
51.459602 28.145384 17.316082
56.357891 23.247419 19.752733
54.21032 25.394852 15.026933
55.3367 30.635361 4.3181028
59.247025 27.383022 11.567641
56.803608 29.183937 3.4401062
58.756042 27.676334 9.0717659
55.6492 29.253418 16.424192
50.631805 28.973127 15.928125
56.31472 30.017521 15.0684
54.714828 30.891716 12.523292
51.009438 32.016273 10.442401
48.447533 30.600418 12.962486
51.623257 33.848099 8.1639538
52.221527 30.673645 12.832151
52.647926 26.957134 14.324646
57.734673 28.283953 11.518151
58.1535 21.568251 15.223883
59.00248 20.603001 14.908384
46.264118 33.340519 16.918409
58.678261 20.926924 6.2945867
58.396088 21.209362 16.746418
50.689732 28.915199 11.033148
45.693798 33.910797 13.476992
52.037827 30.350609 13.407122
54.835449 24.404705 16.6534
55.704151 23.9006 6.8006191
59.110714 28.474731 13.080296
58.153503 26.16659 8.9688511
57.714027 21.891373 18.818993
57.828194 28.099319 17.223894
44.600941 35.003582 10.989372
51.931812 33.648746 8.5241375
59.246128 27.304506 11.212063
58.153503 25.54998 11.515779
58.627304 28.893059 13.000766
52.420715 34.248184 4.8905711
45.002792 34.601757 12.725746
48.918056 32.733704 9.1654501
46.841721 32.761742 6.6126127
51.6642 27.9408 21.303625
55.004356 24.600861 10.468747
56.640533 29.372246 14.486238
54.595772 25.009413 22.111135
44.870037 33.99868 7.8926554
49.986511 29.61837 21.486996
58.1535 22.335287 15.594103
60.023842 19.581532 6.4371195
55.750008 30.239044 9.1979694
60.477001 19.128445 9.4875422
55.801399 23.803362 3.8904676
58.228981 21.376451 17.686642
45.866192 31.665878 22.706186
51.642262 27.962732 25.380091
57.056072 22.549282 19.113686
56.878929 22.580982 16.6534
57.7939 24.623985 11.007363
54.513145 32.433823 3.5991805
56.302784 26.750153 18.155722
57.203384 29.819479 15.288691
54.17841 25.426121 7.7181907
54.80603 24.799173 21.068594
59.227058 27.099091 3.6772075
59.253883 27.154432 14.277203
50.745213 28.859718 17.227104
56.519882 30.699547 4.9559984
58.184296 21.421131 13.603062
57.466377 22.138626 4.4302549
48.724548 31.346199 12.648224
51.362991 28.440582 17.85763
46.277367 33.327271 10.550081
51.411129 28.193848 17.874796
55.230015 30.742664 5.0895834
58.276363 29.200726 14.725742
58.153519 21.935444 7.1031871
51.745392 32.311928 10.91679
48.701263 30.90354 10.063902
54.760456 24.844746 20.12122
54.26162 31.708202 8.6596022
52.79961 33.142197 4.422493
50.275864 29.329037 15.820371
58.875401 27.657242 14.196404
53.147858 32.049744 11.396327
57.905586 29.514565 11.520962
54.265533 30.950718 12.452972
60.039307 19.566246 14.735556
58.597198 21.008257 23.730696
54.399437 28.252039 17.157364
54.761528 24.843678 20.850187
46.630291 31.474897 22.854156
51.154564 28.312502 26.68726
57.7939 22.567423 15.133979
58.646957 27.686417 1.7265282
55.340675 24.264566 18.930271
59.237106 26.740437 7.648787
44.795399 33.822529 8.2084761
51.08886 33.850792 8.1578007
57.181099 22.424263 20.019705
53.535591 33.280693 3.8576689
51.283642 35.001961 6.0264449
57.267899 22.337082 5.3317833
51.962841 27.642176 16.416594
56.395397 23.20945 8.73388
55.24926 30.733393 9.0471153
54.218689 26.695913 18.0345
50.135483 33.972099 7.9403129
53.735985 28.929405 16.981226
53.776772 25.828369 25.716806
57.510113 22.095272 21.796576
45.900131 33.313343 18.724363
55.585724 25.758163 16.6534
56.334221 23.27062 8.3292093
57.219742 29.116848 16.689165
46.302238 33.302399 10.599086
46.603523 33.001133 15.744893
48.015007 34.558907 6.8882475
59.246872 26.781603 11.506143
50.492691 29.538349 15.889468
58.354347 21.251095 20.364021
57.7939 25.003761 5.2693539
56.267456 23.337845 16.433374
48.168854 31.435915 15.027441
56.718643 22.886692 10.364012
54.488106 31.543797 12.31793
58.345062 21.26038 13.510484
55.912476 28.491245 17.78899
52.311981 29.694378 15.609728
55.681725 27.929272 18.617023
58.153503 22.953335 15.989355
46.238529 33.366112 17.990219
54.49371 25.110863 7.7394319
53.788757 32.173538 11.183814
58.153545 21.718246 5.8291788
56.89698 22.707941 4.3887105
58.864983 26.955515 10.002501
47.058315 32.546375 19.417521
56.531406 30.689331 4.8471751
55.458187 30.525066 8.2697344
