# .PCD v0.7 - Point Cloud Data file format
VERSION 0.7
FIELDS x y z
SIZE 4 4 4
TYPE F F F
COUNT 1 1 1
WIDTH 1553
HEIGHT 1
VIEWPOINT 0 0 0 1 0 0 0
POINTS 1553
DATA ascii
19.804745 -45.923717 39.042316
20.860846 -47.329529 39.043739
15.113297 -34.533691 39.752502
16.772684 -24.578665 39.752499
5.9981651 -47.57196 39.023758
17.516045 -41.483238 39.039238
7.4267421 -34.752968 39.749828
8.4847927 -39.86235 39.0271
15.192182 -42.346336 39.036118
15.749657 -19.563499 39.752499
3.4547391 -37.450073 39.720833
2.9063029 -23.965385 39.752502
14.395927 -45.147053 39.035049
14.245741 -23.716764 39.752499
19.380125 -27.256285 39.752499
16.858868 -35.310772 39.752499
0.46474618 -28.056406 39.731796
2.0787604 -38.512989 39.01849
-0.41230184 -26.392227 39.731781
11.695928 -46.643204 39.031414
15.322267 -38.423424 39.187786
-0.41494897 -23.327852 39.731781
12.763285 -40.318748 39.032852
10.437775 -21.719967 39.752499
19.579563 -26.310932 39.752499
1.8408277 -33.490589 39.738605
14.043655 -32.674026 39.752499
10.220205 -29.554998 39.752495
12.332227 -39.364342 39.032272
6.4041638 -31.280268 39.752499
1.8477577 -39.145218 39.018177
11.138589 -42.767193 39.03067
12.848913 -22.383226 39.752499
17.388468 -19.022305 39.752499
2.1641402 -39.764305 39.018604
8.5036898 -37.895603 39.735039
2.0688491 -43.893784 39.018475
14.774806 -23.885448 39.752499
13.280717 -27.536407 39.752495
1.9844365 -22.844231 39.752499
8.1062641 -36.545582 39.741608
10.561767 -36.266167 39.751419
16.635685 -47.389561 39.038055
17.056765 -44.336655 39.03862
9.1482573 -24.530849 39.752499
16.891216 -47.050766 39.038399
4.0592241 -39.845722 39.021149
11.299007 -33.407181 39.752499
4.8623643 -23.761971 39.752499
2.8008695 -43.006874 39.019463
2.2627702 -24.15678 39.752499
7.1947551 -48.065014 39.025368
16.372118 -45.503471 39.037701
2.584517 -28.22543 39.752495
11.945211 -41.83036 39.031754
11.679363 -39.637547 39.031395
13.294496 -40.009064 39.033566
13.465445 -46.943085 39.033794
8.125103 -33.98774 39.752499
1.3981133 -38.372726 39.231243
0.18041325 -36.668339 39.714493
20.705055 -37.173489 39.752499
13.670168 -38.354374 39.279446
8.4801941 -47.700401 39.027092
9.4430552 -46.418953 39.028389
6.3119087 -30.069525 39.752495
10.315476 -26.46497 39.752499
11.365431 -41.766541 39.030972
4.2880788 -27.160645 39.752499
6.1095958 -38.56319 39.023907
0.62275016 -32.586563 39.73983
1.1857986 -39.868221 39.017288
4.7662096 -44.968555 39.022102
8.5581932 -26.168613 39.752499
20.096888 -32.980652 39.752499
21.425406 -33.035427 39.752495
4.5527492 -36.069427 39.732555
10.798893 -20.88032 39.752499
6.5059028 -43.559471 39.024437
17.81953 -48.400204 39.039646
8.7866583 -33.253761 39.752499
0.51176167 -34.651447 39.727386
10.434734 -26.788408 39.752495
5.9104118 -42.641525 39.02364
5.8844209 -28.779919 39.752499
11.332524 -26.539925 39.752499
11.500979 -38.566742 39.031155
12.795564 -43.887993 39.032894
2.3264027 -44.787819 39.018822
20.893904 -43.954498 39.043781
6.3338757 -43.212471 39.024208
1.2793074 -43.43346 39.01741
1.5396066 -47.48222 39.017761
14.53355 -21.317907 39.752499
2.7684176 -31.544064 39.752499
-0.73310375 -24.854401 39.731773
10.886453 -47.647446 39.030327
14.856835 -33.993103 39.752499
18.529545 -29.828766 39.752499
10.624147 -24.708769 39.752499
5.4269733 -38.235672 39.42234
18.874058 -25.909809 39.752499
4.9473829 -31.760408 39.752499
4.2389193 -47.088715 39.021393
14.479628 -25.901423 39.752499
2.6587889 -24.52372 39.752499
19.703285 -20.741085 39.752499
17.219477 -42.303406 39.038841
4.7427917 -25.269428 39.752499
16.134609 -27.804848 39.752499
14.796064 -21.277395 39.752499
1.182374 -40.298767 39.017284
6.9499593 -31.410536 39.752499
15.004017 -42.221119 39.035866
19.970619 -22.131187 39.752499
15.126896 -27.638737 39.752499
20.469193 -28.175365 39.752499
18.379684 -30.469406 39.752499
3.861351 -45.665646 39.020885
2.8536749 -39.931076 39.019531
6.952723 -22.465839 39.752495
19.582891 -45.20195 39.042015
14.08684 -24.621519 39.752499
8.2327185 -32.365273 39.752499
12.44188 -44.179779 39.032417
12.463897 -34.685375 39.752495
20.629555 -43.268799 39.043427
11.01255 -21.024059 39.752499
10.599353 -33.948654 39.752499
20.473862 -48.121231 39.043213
20.740749 -47.18454 39.043571
10.290643 -27.042324 39.752499
21.106424 -46.495064 39.044067
11.327495 -44.484863 39.030922
11.831078 -26.277384 39.752499
17.875839 -33.819839 39.752499
1.257431 -38.495117 39.067257
8.257617 -23.680794 39.752502
11.867048 -42.694687 39.031647
2.0991542 -27.597401 39.752499
14.560791 -23.945929 39.752499
5.7617006 -31.440239 39.752502
3.6512723 -35.346935 39.733776
19.102777 -20.407932 39.752499
9.2194901 -32.105431 39.752499
14.500077 -28.361042 39.752499
0.9806509 -45.046177 39.017014
0.66569424 -36.414406 39.717594
8.5277853 -48.213749 39.027157
9.4276752 -36.671288 39.745274
10.325006 -31.373125 39.752499
13.124544 -20.609261 39.752499
2.9400434 -33.996208 39.739307
12.534911 -34.372559 39.752502
15.371626 -45.21096 39.036358
4.9911242 -23.429836 39.752499
11.791477 -35.658562 39.752499
17.875626 -27.111252 39.752499
14.132504 -29.148075 39.752499
16.705563 -30.247976 39.752499
5.9778528 -37.963799 39.726227
7.2914701 -32.998425 39.752499
19.512793 -41.977867 39.041924
10.699638 -41.384624 39.030079
9.501791 -25.432644 39.752499
21.489738 -42.80452 39.044582
15.018389 -20.269238 39.752499
9.3908291 -40.247849 39.028316
7.7084346 -27.78339 39.752499
17.646784 -24.842236 39.752499
3.4266877 -32.216431 39.751331
-0.3739109 -25.332094 39.731781
16.392666 -32.863689 39.752499
6.0724154 -35.163811 39.742916
12.626652 -34.478981 39.752499
4.6390738 -29.877436 39.752499
0.41087192 -28.467056 39.731792
3.9219286 -47.058376 39.020966
17.080564 -34.465069 39.752499
8.2182579 -31.000656 39.752499
1.240929 -26.821636 39.959
16.497478 -37.614544 39.752499
12.912978 -38.046787 39.689423
19.412918 -33.930382 39.752499
21.10675 -32.883797 39.752499
10.938402 -48.686592 39.030396
16.58283 -31.022388 39.752499
9.5476322 -47.721252 39.028534
6.4434443 -47.650303 39.024357
21.735493 -30.505463 39.752499
1.7498358 -25.494019 39.88887
13.21026 -41.743034 39.033451
11.492466 -39.293865 39.031139
4.9178042 -44.68972 39.022308
9.2133989 -36.434746 39.745945
11.782562 -33.276436 39.752499
19.252075 -43.471992 39.041573
3.8460796 -33.785149 39.743561
7.0769458 -26.08931 39.752499
10.303266 -40.360306 39.029545
0.31138182 -27.49699 39.731792
20.126005 -44.361259 39.042747
2.0388069 -42.508232 39.018436
14.336027 -29.27412 39.752499
15.270873 -28.177107 39.752495
3.7795563 -24.764982 39.752499
14.047657 -28.618484 39.752499
9.6046152 -35.943092 39.750122
5.54105 -26.195883 39.752499
20.902229 -45.909325 39.043793
4.0583439 -45.886269 39.021152
2.4395475 -24.724691 39.752499
9.8737774 -25.321169 39.752499
0.83437359 -22.856335 39.7318
19.947691 -40.473621 39.042507
18.20797 -46.248299 39.040169
11.809222 -38.483852 39.102665
5.9737229 -31.065022 39.752499
20.750401 -48.396694 39.043587
4.2478819 -23.148315 39.752499
15.612798 -43.529732 39.036682
8.5045424 -21.289804 39.752499
7.8001828 -21.972267 39.752502
14.729713 -45.054211 39.035492
14.871917 -23.345087 39.752499
12.428022 -33.476429 39.752499
10.976391 -43.463821 39.030449
18.815168 -21.115679 39.752499
11.010618 -47.818375 39.030495
21.454609 -39.258522 39.044533
16.326731 -22.508421 39.752499
16.295847 -39.070805 39.037601
3.8071985 -44.325836 39.020813
2.5137005 -43.923664 39.019073
12.313621 -42.368149 39.032246
3.4557528 -42.576294 39.02034
20.988659 -22.089466 39.752499
12.176203 -22.958729 39.752499
14.34583 -38.488209 39.101162
15.442256 -42.079163 39.036453
6.9088707 -34.778557 39.747952
19.874327 -36.125233 39.752502
2.0617037 -34.652752 39.732544
0.61462361 -29.479158 39.731796
13.267529 -25.773001 39.752499
17.318226 -38.422405 39.189148
17.70174 -38.024696 39.720947
17.582411 -30.536549 39.752499
5.2556567 -23.071947 39.752499
2.7642157 -34.206463 39.737492
5.8865099 -36.367294 39.73526
9.7062674 -39.802368 39.028744
16.793482 -32.709888 39.752499
16.518333 -28.317919 39.752499
18.041531 -40.399727 39.039948
4.4264655 -34.828888 39.739391
9.1203194 -36.500614 39.745247
14.695204 -42.953251 39.03545
13.740935 -20.140219 39.752499
15.614648 -29.715456 39.752499
1.3616323 -31.111568 39.798744
5.0054846 -41.561729 39.022423
20.298138 -44.872257 39.04298
4.8175049 -38.442787 39.144119
1.2834744 -45.321575 39.017418
4.155941 -26.551182 39.752499
2.7997112 -31.288015 39.752499
6.7000747 -32.554802 39.752495
12.148056 -23.775797 39.752499
2.243458 -26.818577 39.752499
15.226819 -38.666214 39.03616
15.758961 -34.505695 39.752499
2.1267674 -23.660973 39.752499
18.690533 -35.206726 39.752499
5.4697251 -42.891453 39.023048
18.307922 -45.922867 39.040306
14.323348 -29.26848 39.752499
16.844971 -30.111506 39.752499
10.266025 -22.101749 39.752499
20.949928 -40.492573 39.043858
8.5252914 -37.943367 39.734833
21.385466 -45.811283 39.044445
14.812901 -31.642488 39.752499
15.979136 -35.638515 39.752502
10.293858 -26.065681 39.752499
5.0305624 -24.510719 39.752499
2.0404863 -41.105034 39.018436
21.693321 -41.049923 39.044853
-0.86238444 -24.384846 39.731773
5.0196385 -29.391518 39.752499
18.17765 -21.52034 39.752499
11.14639 -37.673161 39.74514
7.9433517 -44.479538 39.026371
15.619247 -22.701168 39.752499
10.96859 -42.766876 39.030441
14.24189 -36.298923 39.752495
8.2756891 -38.032619 39.685402
15.259507 -45.684929 39.036205
8.7983541 -26.576286 39.752499
11.826994 -47.117279 39.03159
3.2864568 -25.025341 39.752499
10.988193 -26.955231 39.752499
7.4332256 -37.99353 39.725883
9.8390188 -48.507042 39.028923
19.757412 -33.189278 39.752499
2.5437143 -29.489168 39.752499
14.410587 -40.632652 39.035065
7.482048 -41.797379 39.025749
9.0425797 -42.994522 39.027847
11.441088 -37.702374 39.745956
10.083907 -30.184195 39.752499
12.981197 -26.333311 39.752499
13.685324 -38.083572 39.641708
3.8640096 -30.335865 39.752502
18.502363 -42.207661 39.040565
14.893497 -32.295952 39.752502
10.720931 -30.486774 39.752499
0.64849627 -29.308916 39.731796
18.925472 -31.023386 39.752499
17.946266 -44.35593 39.039818
19.636703 -22.250553 39.752499
7.0243421 -40.409576 39.025139
15.024284 -23.662701 39.752499
10.536959 -24.887215 39.752502
15.222174 -38.521259 39.036156
10.683748 -40.27758 39.030056
9.4589424 -27.495472 39.752499
13.768064 -27.436075 39.752499
13.048098 -39.937847 39.033234
5.3390641 -47.311745 39.022873
2.8210921 -36.412056 39.724789
10.821019 -27.994125 39.752499
7.0959082 -21.401752 39.752499
16.768219 -26.339291 39.752499
17.870838 -23.368187 39.752499
4.4646907 -42.802422 39.021698
21.320498 -31.379951 39.752499
15.287577 -36.92524 39.752499
16.562319 -22.703882 39.752495
13.155181 -27.45402 39.752502
6.3192787 -21.497189 39.752499
8.5237341 -38.748013 39.027149
1.2169762 -41.19136 39.01733
21.979488 -28.608742 39.752499
16.475994 -46.989086 39.037842
14.614056 -41.033298 39.035339
5.760478 -34.748497 39.744301
3.5451529 -39.588551 39.020454
11.56271 -29.301899 39.752499
3.0287008 -28.194818 39.752499
6.781951 -44.844563 39.024811
17.89064 -28.933439 39.752499
21.183651 -46.702766 39.044167
21.276726 -41.473343 39.044296
13.064368 -34.935795 39.752499
21.42695 -42.947746 39.044498
9.0077877 -37.428871 39.739449
2.7410822 -24.050253 39.752499
11.15804 -40.172787 39.030693
17.503094 -24.026714 39.752499
7.9304714 -41.761761 39.026356
5.0766964 -24.074999 39.752499
11.996985 -44.460896 39.031822
16.637363 -43.750607 39.038059
21.654125 -26.250315 39.752499
9.7936468 -39.54937 39.028858
17.668362 -42.476677 39.039444
17.819336 -19.516975 39.752499
15.130008 -24.491577 39.752499
7.5931969 -34.449158 39.752159
0.66551948 -24.834375 39.731796
8.6512327 -36.228973 39.745277
19.976141 -37.638847 39.752499
15.277261 -30.258112 39.752499
21.083225 -34.345943 39.752499
18.875111 -21.874409 39.752499
0.80047953 -32.419502 39.741398
19.425333 -26.438309 39.752499
6.8486371 -25.587942 39.752502
3.4215579 -38.441269 39.143459
18.185188 -23.364796 39.752499
7.4163413 -32.331413 39.752499
4.0932369 -37.87468 39.720474
16.207506 -29.701647 39.752499
15.956005 -25.056553 39.752499
10.404936 -35.632996 39.752499
15.205738 -33.100227 39.752499
16.510765 -21.240662 39.752499
19.750366 -41.028908 39.042244
6.5597916 -26.884436 39.752495
21.029686 -43.838268 39.043961
7.8567328 -47.100681 39.026257
16.265009 -36.252666 39.752499
13.739797 -24.631502 39.752499
3.283648 -28.51643 39.752495
20.051903 -33.964207 39.752499
0.99710321 -35.10474 39.726357
15.253511 -34.988495 39.752499
17.091419 -38.049362 39.687962
0.2572062 -29.007921 39.731792
14.796533 -28.650373 39.752499
1.601964 -35.52623 39.725906
15.037035 -22.658304 39.752499
19.88736 -21.314968 39.752502
11.133726 -28.97879 39.752499
8.7063866 -31.704937 39.752495
7.6315589 -36.560993 39.739941
15.181842 -21.998486 39.752499
5.7181168 -44.587376 39.02338
16.630672 -29.677469 39.752499
12.914449 -30.368959 39.752499
12.221365 -43.576458 39.03212
6.9467955 -44.327778 39.025032
19.238865 -31.800028 39.752495
13.81789 -23.751173 39.752499
12.17693 -33.113762 39.752495
5.0811872 -30.312727 39.752502
1.2752457 -25.314661 39.959
6.5200624 -41.954849 39.02446
21.096937 -24.077171 39.752499
10.887689 -21.577419 39.752499
8.324379 -21.086411 39.752499
3.8276739 -41.096718 39.02084
15.676239 -43.53997 39.036766
6.331327 -44.502499 39.024208
11.627357 -42.950348 39.031322
20.625212 -24.572758 39.752495
13.142402 -36.847473 39.752499
22.275862 -26.681816 39.752499
9.8676596 -32.326267 39.752499
8.9411945 -36.205154 39.74638
6.4220376 -42.566418 39.024326
3.760252 -27.187889 39.752499
16.073675 -25.084167 39.752502
4.9181094 -38.500328 39.067345
13.754133 -33.666035 39.752499
12.627253 -45.762131 39.032665
4.7274952 -29.004616 39.752499
17.074669 -18.939648 39.752495
6.6298304 -38.186417 39.490543
20.336599 -24.154831 39.752499
18.913378 -30.995518 39.752499
15.610627 -45.333351 39.036678
12.837962 -24.433712 39.752499
4.5148215 -46.586742 39.021763
21.48892 -28.192913 39.752499
11.287155 -23.065704 39.752499
14.602146 -46.727127 39.035324
6.1844511 -36.916119 39.733044
6.8657079 -39.752163 39.024925
14.046259 -47.849701 39.034573
14.79689 -29.243481 39.752499
5.0438166 -27.720203 39.752499
11.689543 -37.282215 39.749241
11.606193 -26.809525 39.752502
4.3990002 -25.276527 39.752499
21.596447 -38.217056 39.46373
18.390337 -39.561745 39.040413
14.328624 -35.307411 39.752499
9.2778883 -22.796726 39.752499
1.5833992 -32.768642 39.741966
9.2413235 -33.846306 39.752499
20.901485 -45.420879 39.043793
14.705521 -34.265869 39.752495
7.0840783 -35.004089 39.747215
17.455767 -47.436264 39.039158
20.978632 -30.932678 39.752499
3.2738311 -26.365677 39.752499
12.051133 -37.255154 39.750603
19.092234 -44.802643 39.041359
16.770309 -41.088787 39.038239
16.881025 -29.772141 39.752499
9.7084332 -25.061558 39.752499
3.1806002 -38.121071 39.555714
11.393728 -25.410728 39.752499
9.5077267 -33.869888 39.752499
9.3863726 -21.020227 39.752499
15.299158 -34.39175 39.752499
9.6447153 -26.348372 39.752499
19.539532 -26.833473 39.752499
12.48812 -35.001282 39.752495
2.1270571 -31.493868 39.751232
5.1215439 -29.853939 39.752495
14.815704 -21.82313 39.752499
12.951626 -31.697569 39.752499
6.5761147 -46.286335 39.024532
14.87159 -39.035782 39.035686
17.336657 -45.148056 39.038998
13.102388 -43.872223 39.033306
11.924904 -46.801907 39.031723
10.744205 -28.121969 39.752499
1.3382053 -39.539864 39.017494
4.8063722 -43.824142 39.022156
21.827335 -22.859264 39.752499
2.719636 -30.845552 39.752495
9.7776289 -25.922251 39.752499
13.762083 -44.730286 39.034195
11.011116 -43.173004 39.030495
10.363619 -32.14529 39.752499
5.4672027 -23.857885 39.752499
21.364571 -36.07642 39.752499
11.536068 -27.561239 39.752499
20.896051 -32.43362 39.752499
9.5558958 -38.700069 39.028538
3.8897579 -35.050388 39.736309
1.2130233 -29.767849 39.959
20.813707 -27.466894 39.752499
14.399373 -31.95508 39.752499
12.790596 -40.096855 39.03289
13.663062 -34.51804 39.752502
6.614521 -31.471111 39.752499
13.725491 -32.203014 39.752499
17.564966 -48.366558 39.039307
9.5673351 -33.23563 39.752499
15.223941 -35.395824 39.752502
8.6401291 -27.233604 39.752499
19.495161 -44.647614 39.041901
8.4823914 -31.496696 39.752499
8.7847233 -46.484642 39.027504
1.3255072 -39.53899 39.017475
17.628265 -23.535719 39.752499
13.972127 -45.906174 39.034477
17.792404 -44.831882 39.039612
16.92477 -38.547966 39.038448
10.846004 -46.236038 39.030273
6.6547847 -23.802635 39.752499
6.2475991 -38.139732 39.550884
1.5954607 -28.284428 39.959
16.173525 -38.800278 39.037434
7.8193102 -42.48571 39.026207
17.101019 -20.479836 39.752502
17.25366 -32.863491 39.752499
19.231174 -33.510471 39.752499
13.206669 -27.096422 39.752499
1.299616 -23.340797 39.959
16.232471 -33.073494 39.752499
2.6215825 -31.634499 39.752056
19.432976 -21.695951 39.752502
5.6296673 -24.050732 39.752499
13.148707 -30.156979 39.752499
9.1244335 -47.646675 39.027962
0.55426693 -32.072136 39.742611
16.92675 -45.041664 39.038448
1.4579327 -35.073593 39.728073
6.1283088 -24.119389 39.752499
1.6318344 -31.997522 39.746635
21.358204 -44.981712 39.044403
14.116646 -44.294907 39.034672
18.979408 -28.406925 39.752499
7.7527494 -42.147552 39.026115
13.55302 -41.220715 39.033913
4.6127434 -25.768661 39.752499
20.149061 -21.103981 39.752499
7.7736506 -45.791798 39.026142
3.0565722 -33.810593 39.740784
18.037884 -23.431705 39.752499
21.542223 -45.433777 39.044651
14.681395 -30.212782 39.752495
19.304119 -23.71302 39.752499
18.957119 -44.72274 39.041176
1.5733736 -46.769218 39.017811
14.502012 -46.755264 39.035187
16.457949 -37.113552 39.752499
13.687944 -33.074844 39.752499
5.693294 -22.593903 39.752499
4.3655896 -26.776741 39.752499
7.8932905 -44.146641 39.026302
1.9147723 -32.636501 39.743843
8.3326292 -24.110064 39.752499
11.454939 -40.056938 39.03109
13.574816 -28.8853 39.752499
17.281216 -25.781891 39.752499
3.3106718 -41.064785 39.020142
5.6533046 -43.285683 39.023293
17.104733 -40.329887 39.038689
5.6938543 -47.525414 39.02335
11.671723 -34.950024 39.752499
19.010513 -47.759037 39.041248
19.417465 -34.284016 39.752495
20.544367 -34.959591 39.752499
9.6173592 -41.629604 39.028622
6.1986766 -27.460638 39.752499
9.7136068 -33.107903 39.752499
15.77247 -27.087049 39.752499
11.886174 -26.605818 39.752502
13.956775 -32.546574 39.752499
17.713579 -33.255939 39.752499
0.62774366 -24.417847 39.731796
0.75434685 -40.912155 39.016708
8.1863852 -30.719105 39.752499
9.8654327 -25.769882 39.752495
0.73073161 -31.282059 39.751144
14.512438 -39.065208 39.035202
2.9208012 -40.992203 39.019619
2.2050211 -26.705257 39.752499
2.7866812 -45.296074 39.01944
17.60074 -43.776054 39.039352
14.924489 -38.894157 39.035755
12.774553 -45.979309 39.032867
17.035202 -28.01092 39.752499
18.726192 -32.734215 39.752502
21.021576 -40.756668 39.043953
17.864708 -37.345406 39.752502
17.097467 -30.970766 39.752499
0.89857781 -32.144695 39.743332
18.654812 -35.796722 39.752502
4.8423362 -44.312489 39.022202
11.296297 -47.122871 39.030876
19.243908 -22.307938 39.752502
1.7982061 -32.828144 39.742336
17.378546 -37.980576 39.752499
10.946946 -23.621359 39.752499
3.8885252 -48.594376 39.020924
19.922483 -47.755047 39.042473
17.735394 -30.071564 39.752499
21.228479 -45.475758 39.044231
15.620068 -21.112474 39.752499
11.597776 -28.924498 39.752499
12.084886 -22.509382 39.752499
14.317461 -27.432293 39.752499
3.07374 -44.58754 39.019829
-0.61916053 -26.050039 39.731773
17.625977 -20.657194 39.752499
20.650846 -30.621313 39.752499
18.404249 -40.818729 39.040436
9.0124846 -46.878014 39.027813
19.777924 -42.743343 39.042278
19.82095 -36.19857 39.752499
11.582383 -40.790634 39.031261
22.302614 -29.322651 39.752499
4.4032016 -23.063879 39.752499
6.6151047 -42.767059 39.02459
0.58960456 -27.078655 39.731796
16.4778 -48.218842 39.037842
1.7471869 -33.659134 39.737305
12.223326 -25.628817 39.752499
21.646889 -40.211246 39.044792
10.828571 -34.457981 39.752499
15.660717 -24.151505 39.752499
12.489175 -39.246437 39.032486
13.25258 -41.383812 39.033508
7.9690976 -31.340384 39.752499
5.2153897 -44.727703 39.022705
1.4810033 -45.793594 39.017685
12.238204 -24.1399 39.752499
0.11875886 -24.112667 39.731789
15.060482 -28.290304 39.752499
5.1438379 -34.782833 39.742046
12.074062 -42.743988 39.031929
11.545997 -30.149912 39.752499
10.839173 -35.165276 39.752499
9.3228779 -47.631222 39.028225
5.6694083 -28.06308 39.752499
18.635708 -33.458702 39.752502
21.648811 -30.866665 39.752499
6.1757894 -29.676819 39.752499
19.337246 -40.704838 39.041687
1.166749 -36.604908 39.718147
5.4141259 -38.141502 39.544315
1.1948061 -35.349152 39.725586
11.12259 -28.395607 39.752499
10.295499 -24.313686 39.752499
12.577857 -45.377651 39.0326
22.299812 -29.928732 39.752499
6.9809761 -23.059326 39.752502
11.296499 -48.335026 39.030884
5.3560157 -22.462416 39.752499
15.52598 -28.18672 39.752499
11.963593 -25.080906 39.752499
4.7972422 -30.413439 39.752495
2.2322574 -32.678131 39.744659
13.891989 -20.614113 39.752499
16.379965 -42.33609 39.037712
1.9815216 -44.582947 39.018356
19.745373 -34.555153 39.752499
16.830257 -43.561485 39.038319
3.7743888 -43.994003 39.020767
20.436962 -24.741669 39.752502
17.838228 -39.010273 39.039669
9.3359251 -41.694832 39.028244
16.812672 -23.596943 39.752499
20.035795 -27.479645 39.752499
8.0531883 -27.039722 39.752502
14.828514 -40.473347 39.035629
12.705527 -35.673458 39.752502
20.198929 -29.815151 39.752499
14.821606 -28.508858 39.752499
19.104828 -34.034531 39.752495
8.5493994 -31.700172 39.752499
9.5534611 -37.072578 39.743347
5.362051 -46.237991 39.022903
18.031271 -27.116795 39.752499
20.871761 -31.579971 39.752499
7.7183046 -46.745789 39.02607
7.022871 -35.701099 39.742939
2.1601481 -23.019314 39.752499
17.029776 -41.257187 39.038586
19.823938 -31.15168 39.752499
7.3125329 -29.606255 39.752499
19.520823 -41.14399 39.041935
18.713032 -29.800753 39.752495
17.779093 -41.807671 39.039593
15.251538 -24.844704 39.752499
7.1456461 -41.900959 39.025299
5.1326442 -24.335779 39.752502
12.714078 -44.8134 39.032784
8.490799 -37.428268 39.737732
8.5864639 -27.600714 39.752499
10.140394 -21.261969 39.752499
5.9524918 -24.483433 39.752499
20.163601 -28.729101 39.752499
1.5062039 -46.408722 39.017719
16.238508 -27.991711 39.752499
0.25159046 -24.852726 39.731789
7.5423193 -37.314659 39.735237
1.063827 -37.322906 39.713608
2.5970936 -37.75238 39.716206
14.993744 -34.803135 39.752499
2.3174706 -35.987617 39.725594
2.3619041 -25.120987 39.752499
11.178996 -35.556053 39.752499
20.887564 -22.722387 39.752495
8.3938084 -25.426022 39.752499
2.4753861 -47.684647 39.01902
10.789495 -46.345642 39.030197
6.5577207 -32.086479 39.752499
13.454188 -27.26844 39.752499
1.441092 -38.393452 39.203606
16.775625 -39.304802 39.038242
17.275942 -37.194916 39.752499
9.6080074 -42.49371 39.02861
20.496649 -39.179569 39.043243
18.057703 -38.307518 39.342766
2.8119044 -22.941349 39.752499
8.8646212 -32.003571 39.752499
12.282697 -37.626457 39.749203
3.2415941 -32.393822 39.74968
12.801236 -37.117878 39.752495
14.099159 -23.550123 39.752499
10.382418 -31.779421 39.752495
4.1278491 -38.236828 39.418289
8.4893332 -32.662773 39.752499
21.401083 -27.086763 39.752499
13.334356 -38.590889 39.033619
11.597889 -37.576397 39.747215
2.5667806 -29.240374 39.752499
11.315555 -27.566788 39.752499
20.746614 -44.10107 39.043583
10.941629 -36.483871 39.751415
16.552763 -41.65588 39.037945
7.9556417 -29.565348 39.752495
3.90345 -22.983463 39.752499
15.824317 -48.002533 39.036964
21.852804 -36.665039 39.752499
8.7319231 -45.597977 39.027431
14.82475 -27.881983 39.752499
21.939301 -27.915081 39.752499
10.423813 -43.114784 39.029705
10.481328 -33.875851 39.752499
16.727396 -28.305363 39.752499
11.637785 -32.992241 39.752499
14.825807 -36.175011 39.752499
4.5768456 -34.43861 39.742172
15.039474 -21.618658 39.752499
10.338149 -39.79076 39.029591
10.195491 -48.183662 39.0294
16.161253 -36.026997 39.752499
2.2535062 -35.93483 39.725685
7.4775457 -32.996361 39.752499
20.794893 -33.001991 39.752502
2.2423062 -25.770159 39.752499
12.494303 -42.746895 39.03249
13.037004 -33.03521 39.752499
6.3072233 -36.808315 39.734081
13.896987 -46.680946 39.034374
10.238674 -30.034473 39.752499
4.9049778 -41.935806 39.022285
4.6343994 -35.478348 39.736286
5.7946 -30.266819 39.752495
12.149419 -48.375244 39.032021
21.214281 -29.987942 39.752499
21.589302 -41.624859 39.044716
6.9196696 -29.562929 39.752499
9.8745718 -29.467567 39.752499
11.059395 -43.608185 39.03056
19.646555 -42.542496 39.042103
12.894801 -22.679783 39.752499
6.5081105 -24.171928 39.752499
6.6628218 -31.21854 39.752499
21.739489 -44.264252 39.044914
17.566132 -31.401247 39.752499
20.870138 -42.668522 39.043747
20.35965 -34.846481 39.752499
9.3534832 -39.055763 39.028267
14.539022 -20.249363 39.752499
4.2149339 -38.454144 39.127769
5.0058203 -27.114931 39.752499
11.384579 -21.131792 39.752499
0.92051125 -33.987713 39.732632
18.110849 -28.233715 39.752499
8.2603884 -24.33795 39.752499
2.5515635 -24.807655 39.752499
2.1157308 -26.83144 39.752499
8.6895885 -37.407539 39.73851
20.318296 -44.277573 39.043007
11.36366 -34.526379 39.752499
10.548265 -47.615726 39.029873
14.810579 -22.259293 39.752499
9.7879887 -34.286396 39.752499
11.374619 -48.648849 39.030983
5.6510172 -45.329693 39.023289
20.559263 -30.494873 39.752499
6.2854862 -45.962997 39.024143
16.148464 -47.914516 39.037403
16.373081 -20.614571 39.752499
18.969612 -29.245373 39.752499
10.386992 -46.385288 39.029659
17.017467 -34.325996 39.752499
4.9558454 -31.766731 39.752499
17.080088 -44.913742 39.038654
12.659735 -42.628819 39.032711
0.73120522 -24.270559 39.731796
14.496824 -21.059305 39.752502
6.0051522 -38.383545 39.225655
18.412235 -20.572006 39.752499
11.856686 -41.364616 39.031635
8.3614864 -34.380787 39.752499
3.1142979 -31.504711 39.752502
4.2896533 -44.219658 39.021461
12.392276 -48.566319 39.032352
4.7823009 -32.873211 39.75201
6.7619333 -33.143517 39.752502
4.1085277 -46.555073 39.021217
6.715764 -39.846939 39.024719
7.0476189 -38.156757 39.531021
20.655069 -29.483482 39.752499
14.285251 -37.954624 39.752502
20.76581 -37.464046 39.752499
11.563239 -24.796993 39.752499
6.5950508 -29.577209 39.752499
6.0757985 -26.422483 39.752499
10.064884 -32.527374 39.752499
16.672003 -23.951542 39.752499
2.3063426 -42.312386 39.018791
15.089239 -31.466557 39.752499
3.1547451 -36.686783 39.724293
19.572186 -32.551113 39.752499
19.675962 -29.749985 39.752499
20.243513 -25.530258 39.752499
9.336216 -30.854271 39.752502
19.291342 -47.554138 39.04163
19.853556 -22.211411 39.752495
12.278283 -31.399445 39.752495
9.277276 -21.737167 39.752499
15.7493 -29.625824 39.752499
21.037901 -28.201145 39.752499
13.175519 -40.301498 39.033401
1.8347354 -43.865158 39.018162
20.377176 -28.895435 39.752499
7.6647339 -44.448353 39.025997
14.998328 -23.561539 39.752495
1.9949933 -30.145092 39.752499
3.626812 -26.607277 39.752499
7.4893389 -27.071796 39.752499
15.525908 -34.232613 39.752495
22.492838 -24.282211 39.752499
13.125784 -43.095932 39.03334
8.3801355 -32.350052 39.752499
0.99643469 -38.012569 39.668915
15.927794 -32.691109 39.752499
3.8602047 -37.138901 39.723999
15.320519 -48.074558 39.036289
1.8716915 -25.140562 39.811497
19.503376 -40.098862 39.041916
11.976501 -29.357168 39.752499
4.0903344 -38.326275 39.298573
4.4105058 -23.729404 39.752499
8.0926943 -36.294106 39.743034
13.395802 -20.495739 39.752499
21.22962 -46.550655 39.044235
19.224464 -28.70583 39.752499
16.305162 -39.51593 39.037613
21.951641 -36.99287 39.752499
5.6524973 -24.832449 39.752499
3.9471836 -30.722622 39.752499
17.690582 -20.910629 39.752499
19.763477 -35.286285 39.752499
22.296789 -27.958202 39.752499
2.913753 -36.197876 39.726349
7.2472916 -36.51759 39.738914
8.0656137 -34.202538 39.752502
-0.17445742 -29.275896 39.731781
10.15914 -40.794361 39.02935
6.3679829 -25.83283 39.752499
15.406605 -39.26099 39.036404
21.868013 -22.66703 39.752499
16.13121 -42.177525 39.037376
2.6504354 -38.05875 39.624676
3.4420114 -29.566513 39.752499
4.3174548 -25.381235 39.752499
18.199583 -38.561352 39.040157
12.338283 -35.887089 39.752502
19.211445 -37.152275 39.752502
2.0752227 -30.869579 39.752499
20.398491 -27.786854 39.752502
7.7111073 -32.671215 39.752495
16.368933 -20.254456 39.752499
9.7545462 -44.808098 39.028805
4.5396414 -35.097878 39.738197
9.4887495 -33.008495 39.752499
15.071663 -45.907352 39.035957
18.112156 -34.702976 39.752499
16.969284 -47.184917 39.038506
12.791061 -29.969084 39.752499
10.296898 -30.702847 39.752499
7.2222819 -33.216125 39.752499
18.60218 -40.303894 39.040699
18.93487 -33.832478 39.752495
7.342876 -35.805676 39.743393
2.66522 -45.603325 39.019276
11.652296 -48.023262 39.031357
3.5148959 -27.192228 39.752499
19.036545 -22.491688 39.752499
2.4414849 -45.30965 39.018974
1.0223551 -43.914169 39.017067
10.295826 -20.981466 39.752499
8.3597984 -21.291555 39.752499
16.502174 -27.110714 39.752499
12.589322 -44.441017 39.032616
17.328743 -35.521896 39.752499
9.2179575 -47.136845 39.028084
9.7967682 -43.825523 39.028862
4.121942 -43.717033 39.021233
4.7477374 -23.714966 39.752499
7.1134057 -21.413797 39.752499
3.5067775 -36.437504 39.726925
21.156626 -33.091621 39.752499
12.327021 -44.170353 39.032265
18.79435 -37.757629 39.752499
12.199591 -22.216429 39.752499
12.561489 -43.898582 39.032581
8.5699301 -23.876152 39.752499
8.6075459 -44.209526 39.027267
21.63596 -26.752647 39.752495
21.926796 -39.56625 39.04517
12.328399 -34.982235 39.752502
11.714213 -26.610722 39.752499
7.7103519 -44.181847 39.026058
2.2952518 -38.035961 39.649017
20.211775 -34.747547 39.752499
22.403866 -23.887177 39.752499
17.517427 -24.980824 39.752499
4.3181458 -35.219116 39.736752
4.9692836 -22.850424 39.752499
8.7472334 -37.481373 39.738274
3.4141402 -33.233112 39.745346
11.524678 -34.509369 39.752495
20.272945 -37.296364 39.752499
21.73892 -26.659855 39.752499
13.064182 -43.860443 39.033257
15.288717 -23.441654 39.752502
11.633671 -38.04586 39.688198
4.5139122 -36.427525 39.730331
5.5967369 -27.121853 39.752499
4.2545028 -29.55657 39.752499
15.850593 -37.72897 39.752499
20.271439 -40.898796 39.042946
4.30723 -28.087265 39.752499
2.317806 -34.190979 39.736099
1.8615036 -45.743416 39.018196
12.630139 -44.572216 39.032669
14.638288 -25.982172 39.752499
18.54764 -26.161697 39.752499
1.2949429 -25.383274 39.959
11.736901 -35.561077 39.752499
6.4539552 -43.149094 39.024368
3.1435411 -39.358925 39.01992
17.646076 -43.619099 39.039413
3.5901375 -45.232357 39.020519
12.531689 -39.632839 39.032539
19.38558 -30.781412 39.752495
10.841877 -44.324127 39.030266
14.768171 -41.576958 39.035549
3.0499063 -27.482475 39.752499
16.336498 -28.466599 39.752499
0.2376914 -37.042393 39.712494
19.555162 -28.059528 39.752499
8.3697586 -42.355118 39.026947
11.822203 -44.054638 39.031586
3.8761835 -35.156418 39.735641
1.8477564 -40.260715 39.018173
3.5190468 -42.356796 39.020424
16.975784 -31.049976 39.752499
12.831686 -31.75634 39.752499
17.074715 -24.755976 39.752502
5.3234334 -43.201256 39.02285
4.8982725 -35.144543 39.739117
5.2644057 -22.898979 39.752499
19.046816 -25.95175 39.752499
7.8080196 -24.595234 39.752502
6.0443444 -46.816261 39.023819
3.9070513 -36.519463 39.727776
10.500216 -47.054951 39.029808
0.99427867 -45.805302 39.017029
11.291278 -28.857908 39.752499
14.684525 -36.047569 39.752499
1.2740486 -24.389618 39.959
18.787766 -43.131168 39.040947
2.4918618 -36.399796 39.723763
19.348545 -27.652016 39.752499
8.9383259 -35.773624 39.74889
6.7839727 -45.797413 39.024811
16.916607 -24.910688 39.752499
12.631922 -25.064396 39.752499
2.4373527 -43.521622 39.018967
11.866627 -21.441029 39.752499
2.5894938 -43.980133 39.019173
5.3630562 -35.461052 39.738811
0.67003542 -26.614166 39.731796
16.958227 -47.048717 39.03849
6.2143412 -41.05513 39.024048
9.4773169 -41.505573 39.028435
13.170865 -32.985245 39.752499
15.286045 -45.021992 39.03624
6.0360212 -42.309254 39.023811
6.2397704 -27.749037 39.752499
15.952248 -30.928202 39.752499
16.85416 -31.008549 39.752499
11.726132 -39.719101 39.031456
7.7649088 -41.121197 39.026131
16.221251 -35.395321 39.752499
13.273391 -33.030422 39.752499
21.953466 -27.993858 39.752499
3.719317 -30.224779 39.752499
9.0483761 -26.588661 39.752499
12.160446 -44.290569 39.032043
1.320739 -26.615082 39.959
4.7594543 -31.788225 39.752499
17.824791 -22.642246 39.752495
2.4430189 -45.357803 39.018978
19.584934 -43.521004 39.042023
16.396557 -38.43185 39.176517
13.880938 -36.49514 39.752499
9.1569548 -30.449924 39.752499
18.705599 -32.244133 39.752499
21.753365 -33.598248 39.752499
11.712083 -40.974339 39.031437
15.839889 -22.087961 39.752499
4.8669324 -24.97776 39.752499
16.04233 -31.788429 39.752495
20.321262 -31.435303 39.752499
5.0738001 -25.810122 39.752499
7.904356 -28.968264 39.752499
14.88757 -25.801159 39.752502
7.607862 -32.06163 39.752499
8.3433733 -44.868946 39.026909
-0.13090202 -28.869297 39.731781
18.167681 -42.115013 39.040115
11.042997 -47.02346 39.030537
16.359528 -25.154963 39.752499
11.468598 -33.455383 39.752499
1.6033586 -47.103287 39.017849
18.296597 -25.169416 39.752499
8.09519 -35.131721 39.74984
17.421522 -39.025661 39.039108
13.754455 -32.927547 39.752499
8.6675186 -44.950142 39.027344
3.9445395 -30.528427 39.752499
19.083271 -46.552639 39.041348
19.073593 -47.868313 39.041336
7.5823488 -27.251909 39.752499
4.9367323 -36.637222 39.730518
13.178853 -30.906372 39.752495
14.482121 -36.857094 39.752499
11.317702 -31.401182 39.752502
18.714714 -35.123474 39.752499
7.6862288 -26.487448 39.752499
1.7166371 -29.568367 39.909954
10.364627 -32.331772 39.752499
17.274984 -33.780941 39.752499
4.9805422 -45.509216 39.022392
5.7198753 -44.109409 39.023384
3.9630086 -23.813862 39.752499
2.4089365 -41.474903 39.018932
9.3582516 -42.339226 39.028275
19.756882 -28.920025 39.752495
7.2962179 -36.445374 39.739498
17.499456 -34.960358 39.752499
18.194416 -21.459799 39.752499
16.735209 -39.794228 39.038189
6.1344643 -26.588053 39.752499
5.3150692 -31.285542 39.752502
12.17808 -28.846615 39.752499
22.181042 -34.238029 39.752499
1.3837862 -45.878014 39.017551
20.71299 -25.174072 39.752499
7.0579748 -43.885559 39.025181
8.5982656 -46.312229 39.027252
6.8962784 -41.662033 39.024963
1.7846249 -48.640621 39.018093
-0.57142448 -23.728354 39.731777
0.85936499 -38.069668 39.602348
11.688354 -41.780121 39.03141
13.078969 -30.235266 39.752499
16.498966 -21.641005 39.752499
18.744566 -35.881527 39.752499
17.396116 -46.518204 39.039078
4.2151923 -38.312176 39.317669
5.1280608 -22.521357 39.752499
19.95981 -40.671963 39.042522
18.996462 -44.191601 39.041229
9.0736227 -40.61507 39.027893
1.0700061 -24.965771 39.934658
3.0212312 -45.62616 39.019753
19.565569 -38.737591 39.041996
12.637644 -42.749519 39.032681
4.2537894 -28.492382 39.752499
15.43591 -36.270264 39.752502
14.603979 -32.603168 39.752499
3.9016902 -30.306206 39.752499
16.653856 -26.414156 39.752499
21.819893 -41.839966 39.045025
15.256702 -27.974327 39.752499
0.37890983 -32.607185 39.738899
11.646486 -22.058363 39.752499
11.524601 -31.765347 39.752495
-0.31906447 -28.704617 39.731781
6.2440524 -25.066191 39.752499
12.743618 -32.218178 39.752499
10.216948 -24.856876 39.752499
7.9013977 -41.317268 39.026314
7.9932537 -37.896145 39.733341
20.245188 -38.762531 39.042908
1.6214333 -41.301926 39.017876
12.665362 -20.231762 39.752499
21.621599 -44.205624 39.044762
16.656609 -24.757938 39.752499
13.798061 -24.375088 39.752499
20.770954 -41.244038 39.043613
7.1777477 -38.216187 39.451775
7.3558083 -30.311207 39.752499
4.3116026 -36.043076 39.731911
5.2804937 -23.592409 39.752499
8.6645765 -32.309155 39.752499
1.0194526 -43.827309 39.017067
2.9314106 -23.217567 39.752499
12.140616 -37.677895 39.748428
13.857185 -32.429096 39.752499
1.730346 -34.190468 39.734142
13.37193 -43.368835 39.033669
19.287638 -48.451469 39.041622
21.51808 -28.956417 39.752499
11.488008 -32.750519 39.752499
10.766765 -40.145561 39.030167
4.7079563 -41.643948 39.022022
13.508402 -23.766766 39.752502
8.1789093 -39.708092 39.026688
6.9417791 -25.751953 39.752499
0.72333741 -23.137209 39.731796
8.7190628 -24.694447 39.752499
-0.41354054 -24.969025 39.731781
3.8985217 -46.224941 39.020935
15.498577 -23.681973 39.752499
11.090683 -45.2029 39.030605
17.063816 -33.53772 39.752499
21.717579 -31.337757 39.752499
8.3422432 -35.417389 39.748989
13.404826 -34.666607 39.752499
19.179018 -43.005661 39.041477
2.2496891 -23.426998 39.752499
8.8489704 -27.016279 39.752499
13.094057 -43.634617 39.033295
16.446915 -27.351557 39.752499
16.266304 -23.476864 39.752499
5.5669575 -27.84771 39.752499
12.405574 -33.160057 39.752499
13.932115 -29.479727 39.752499
13.019701 -43.598534 39.033195
21.632883 -47.485062 39.044773
18.483513 -38.179363 39.51413
9.3992529 -26.628784 39.752499
12.43945 -32.592831 39.752499
17.600491 -36.695381 39.752499
8.1789875 -29.758974 39.752499
14.562071 -35.271923 39.752499
3.5582945 -24.120857 39.752499
20.435555 -38.234024 39.441048
11.033731 -40.846355 39.030529
14.613505 -28.000471 39.752499
17.449829 -36.270809 39.752499
6.6400127 -42.972229 39.02462
2.727231 -41.122112 39.01936
7.8188357 -32.28091 39.752499
1.7660487 -25.000658 39.878578
2.9192176 -43.330254 39.019619
8.6955538 -26.268326 39.752502
19.733679 -31.427853 39.752502
19.956928 -25.51812 39.752499
19.501139 -42.58741 39.041908
0.99426222 -33.199009 39.737488
15.701642 -33.198856 39.752499
11.727591 -21.063089 39.752499
16.404985 -31.608074 39.752499
9.6031513 -41.729012 39.028603
5.0550098 -39.311108 39.022488
13.932936 -43.000252 39.034424
2.9313524 -47.159679 39.019634
3.1327288 -23.268715 39.752499
1.0766354 -36.271774 39.719795
11.784594 -43.944996 39.031536
6.8612094 -47.574718 39.024918
11.329181 -27.29707 39.752499
19.357029 -21.119308 39.752499
21.212774 -36.838276 39.752499
18.062067 -34.164673 39.752499
12.735739 -29.082972 39.752499
4.5142875 -31.598667 39.752499
9.562129 -34.403145 39.752499
19.12466 -45.905243 39.041405
12.809489 -29.742298 39.752499
8.9769545 -40.110176 39.02776
19.027315 -21.408697 39.752499
2.5289931 -30.280388 39.752499
15.887109 -45.61911 39.037048
6.6131225 -26.313526 39.752499
7.7335162 -44.990223 39.026093
4.3685551 -27.559784 39.752499
3.5044618 -34.436172 39.738617
15.900404 -25.582386 39.752499
6.2940059 -25.264164 39.752499
20.297138 -24.278191 39.752499
18.803419 -20.063869 39.752499
15.926114 -48.300152 39.037102
13.006032 -23.678877 39.752499
6.5395226 -42.680672 39.024483
4.3680286 -27.97957 39.752499
4.0696807 -27.943718 39.752499
14.395499 -38.699249 39.035046
2.0197475 -33.16666 39.741093
8.7284098 -47.872704 39.027431
18.304035 -23.704079 39.752495
7.4033184 -31.75597 39.752502
7.5954247 -46.178547 39.025902
12.878989 -32.727997 39.752499
1.9598246 -25.448906 39.755531
20.410547 -25.035465 39.752502
11.926176 -47.649033 39.031727
16.957941 -27.342548 39.752499
7.7653275 -33.631893 39.752499
17.952736 -22.046183 39.752499
0.8575325 -35.448536 39.723881
9.7232199 -43.270149 39.028767
18.439589 -29.443016 39.752499
7.8503923 -29.499454 39.752499
7.4920807 -30.760441 39.752499
21.532463 -24.246082 39.752499
17.566814 -33.1833 39.752499
11.224572 -22.27206 39.752499
7.5539274 -31.026134 39.752499
4.2926631 -38.097672 39.588741
2.0579288 -26.128418 39.752499
8.1787071 -22.4384 39.752499
3.0094731 -25.656097 39.752499
19.984921 -38.656658 39.042561
1.8530526 -42.357841 39.018181
11.03881 -21.040968 39.752499
7.4272485 -38.789524 39.025677
15.905639 -36.228428 39.752499
16.544874 -47.233154 39.037937
19.530626 -28.306225 39.752495
18.550514 -23.544529 39.752499
9.1385956 -36.392632 39.745941
15.46304 -40.597832 39.03648
7.7308393 -21.605368 39.752502
13.967716 -29.642874 39.752499
12.412743 -46.38821 39.032379
9.9854059 -37.419785 39.74276
19.662226 -48.07476 39.042126
10.493188 -31.522053 39.752499
7.5419002 -41.256054 39.025833
11.10253 -46.971443 39.030621
14.298089 -21.34795 39.752499
19.87472 -44.866943 39.042412
15.147584 -20.508295 39.752495
6.0424347 -32.916653 39.752499
15.048351 -35.827137 39.752499
11.306819 -46.283669 39.030895
21.382385 -32.221592 39.752499
8.2269268 -30.587908 39.752499
22.257366 -24.053265 39.752499
5.9163785 -48.103886 39.023643
5.8568678 -28.596012 39.752499
17.319502 -25.713026 39.752499
0.59790099 -38.683029 39.016499
5.6582832 -35.929966 39.737057
11.417118 -43.216316 39.03104
9.1643438 -37.793541 39.737835
21.599915 -38.232277 39.443378
20.769253 -41.005569 39.043613
9.9636307 -29.156952 39.752499
19.321959 -37.544128 39.752499
6.1453686 -35.890068 39.738911
12.172314 -20.63233 39.752499
2.9382982 -24.41959 39.752499
12.430815 -40.753979 39.032402
7.7994781 -21.283039 39.752499
12.66796 -38.439884 39.163136
4.2544875 -23.925789 39.752499
2.8635745 -26.320026 39.752499
20.379087 -44.029274 39.043091
17.371925 -20.696394 39.752499
17.533098 -31.945759 39.752502
10.735789 -47.871296 39.030125
3.6086411 -38.263969 39.380981
21.055256 -29.574226 39.752499
8.5837622 -38.622623 39.027233
0.62437648 -27.124947 39.731796
14.710444 -36.936424 39.752499
5.2810922 -37.629166 39.725864
2.8148274 -35.24313 39.731602
-0.77378511 -23.874092 39.731773
11.551298 -44.626671 39.031219
4.0683508 -48.114834 39.02116
1.9352257 -25.958992 39.771149
2.9476154 -46.12558 39.019657
16.421207 -34.944595 39.752499
1.6638434 -45.809616 39.017929
21.480618 -47.206177 39.044571
18.804195 -33.767815 39.752499
10.838005 -43.982891 39.030262
7.4186726 -36.562569 39.73922
0.18869209 -32.595627 39.738331
18.204464 -26.790548 39.752499
20.875534 -22.931267 39.752502
3.4665074 -37.481243 39.720688
2.2217062 -30.98641 39.752499
2.5841084 -32.737942 39.74548
19.928459 -38.544079 39.042484
5.6339178 -48.12365 39.023266
7.4835229 -45.330215 39.025753
21.100754 -34.582424 39.752499
21.089388 -28.128975 39.752499
16.588593 -26.8304 39.752499
1.3270645 -25.968826 39.959
2.3479834 -27.173573 39.752499
0.45914602 -38.206264 39.442703
9.2227497 -46.793621 39.028091
10.67913 -30.752699 39.752499
1.7437754 -40.483498 39.01804
10.419321 -21.95723 39.752499
11.445097 -32.201572 39.752499
19.064568 -23.953695 39.752499
13.471012 -19.870691 39.752499
15.755474 -44.79472 39.036873
18.310543 -39.553703 39.04031
20.842434 -36.190666 39.752502
14.384851 -24.496199 39.752499
3.8525 -45.733009 39.020874
3.3155608 -29.909702 39.752499
20.367258 -26.185116 39.752499
18.332174 -28.476242 39.752499
10.543072 -36.695976 39.748848
9.7400646 -24.184525 39.752499
22.132147 -25.37315 39.752499
4.0301766 -31.025845 39.752499
16.50489 -26.772829 39.752499
4.3477278 -32.581196 39.75227
19.882492 -29.166771 39.752499
17.800959 -47.611778 39.039627
4.5890284 -29.401237 39.752499
6.6750455 -31.898584 39.752502
7.183825 -47.131649 39.025352
1.6840434 -25.489626 39.930649
5.8573275 -33.245087 39.752499
16.484711 -28.335835 39.752499
17.469955 -33.857254 39.752499
11.17853 -38.220234 39.454071
9.2527113 -41.349075 39.02813
10.800942 -21.945335 39.752499
7.6058149 -47.881752 39.025917
18.451736 -24.345886 39.752499
10.197845 -22.223122 39.752499
17.342205 -48.409332 39.039001
1.6664593 -46.923912 39.017933
1.8097038 -29.691681 39.850861
19.026358 -26.199741 39.752499
16.421185 -28.345381 39.752499
10.565749 -47.948959 39.029896
8.2480412 -38.163357 39.524506
8.5359926 -26.338455 39.752499
13.559567 -31.872633 39.752499
9.8161707 -21.00275 39.752499
13.271892 -28.390802 39.752499
19.683954 -36.104477 39.752502
18.773506 -29.014214 39.752499
16.770039 -46.995914 39.038239
12.685319 -35.271679 39.752502
16.204325 -20.296619 39.752499
15.965672 -35.335949 39.752495
14.81055 -44.399582 39.035599
10.988728 -22.408863 39.752499
10.372002 -24.495575 39.752499
12.566698 -21.464523 39.752499
20.882652 -32.112865 39.752499
22.087669 -30.586214 39.752499
21.059668 -22.106606 39.752502
11.208867 -24.926693 39.752499
9.3403025 -36.797543 39.744247
4.4832959 -23.773344 39.752499
11.404173 -21.470745 39.752499
13.946653 -45.068424 39.034443
13.334044 -21.087322 39.752499
13.423131 -20.304861 39.752499
10.139995 -32.139435 39.752502
14.411585 -44.578377 39.035069
20.826689 -25.826145 39.752499
11.325089 -22.891687 39.752499
17.807121 -31.892084 39.752499
16.660986 -47.649551 39.038086
7.3780246 -22.428459 39.752499
9.0801592 -39.141624 39.027897
20.640884 -25.58246 39.752499
19.948219 -43.844444 39.042511
19.918674 -36.914856 39.752502
3.0658896 -31.314005 39.752499
13.728114 -34.180401 39.752502
16.160978 -30.942682 39.752499
7.7201419 -42.665405 39.026073
3.8840446 -31.472397 39.752499
1.6850779 -31.959309 39.747036
19.600349 -35.517754 39.752502
7.3687778 -30.03883 39.752499
9.9950275 -38.087429 39.629436
17.590233 -25.724518 39.752499
11.961497 -24.322756 39.752499
15.782756 -41.97715 39.036911
9.1555452 -31.907097 39.752499
17.67518 -38.034019 39.708481
16.812855 -35.610935 39.752499
19.73525 -43.571617 39.042225
15.261499 -19.86068 39.752502
12.021408 -37.51104 39.749004
16.290962 -20.193052 39.752499
15.301533 -37.700542 39.752499
1.5932994 -37.670685 39.713341
21.841225 -33.668499 39.752499
12.268305 -29.445389 39.752499
9.4444656 -30.181128 39.752499
6.4059162 -22.984974 39.752499
10.939791 -39.621197 39.030403
4.1627884 -37.711182 39.721661
4.6479912 -30.666496 39.752499
16.135391 -21.434975 39.752499
8.0334949 -38.246319 39.413116
10.934481 -24.835804 39.752499
2.9416509 -42.052761 39.019646
11.085296 -22.938688 39.752499
20.29755 -27.688343 39.752499
15.782937 -25.672928 39.752499
2.9853125 -32.714668 39.746952
15.165133 -34.84124 39.752499
21.244007 -29.070168 39.752499
12.683146 -20.669104 39.752499
15.789261 -44.584999 39.036919
14.025569 -37.413406 39.752499
13.102003 -43.135563 39.033302
5.8870707 -40.756443 39.023609
7.4144263 -48.083588 39.025661
5.7038774 -32.618034 39.752499
11.166338 -45.327026 39.030701
1.7861373 -31.885262 39.747807
2.1119714 -45.063141 39.018532
5.4097028 -38.452564 39.132179
11.852041 -33.811733 39.752499
9.4036322 -23.514919 39.752499
5.0921254 -44.368294 39.022541
14.326541 -38.670849 39.034954
18.322468 -28.57374 39.752499
13.141468 -45.660133 39.03336
12.007962 -45.427662 39.031837
13.149452 -41.710892 39.033371
19.953892 -33.689423 39.752499
8.4112844 -29.878412 39.752499
10.798515 -21.930489 39.752499
14.254971 -21.993456 39.752499
4.4249096 -38.062157 39.630405
9.0704317 -30.577343 39.752499
17.952654 -32.766891 39.752499
17.473988 -43.424889 39.039185
19.086992 -47.119778 39.041355
2.9603462 -43.208538 39.019669
2.6765666 -24.199512 39.752499
14.693558 -32.180599 39.752499
15.604149 -38.431973 39.176357
6.7888694 -28.302525 39.752499
16.809126 -39.983421 39.038292
18.891336 -21.181728 39.752502
5.3922544 -41.0177 39.022942
14.448643 -25.017721 39.752495
17.759979 -44.827297 39.03957
19.693953 -42.188477 39.042168
1.9792252 -43.909019 39.018356
6.0573821 -35.346249 39.741795
9.5717497 -30.536526 39.752499
12.901161 -43.698807 39.033035
21.2742 -39.918388 39.044292
13.683127 -22.526606 39.752499
2.9401131 -30.914316 39.752499
18.400002 -48.456497 39.040428
3.855113 -43.809174 39.020878
14.177279 -22.200403 39.752499
20.194536 -22.057022 39.752502
13.142832 -25.56237 39.752499
11.968368 -31.55283 39.752499
9.5420504 -29.691349 39.752499
9.9091377 -37.983723 39.739208
6.0540514 -36.552528 39.734734
14.367584 -30.14753 39.752502
7.3854799 -47.751724 39.025623
5.1214495 -46.494045 39.022579
21.290993 -35.159817 39.752499
12.100368 -40.319473 39.031963
21.610117 -42.200275 39.044743
3.7425282 -30.492519 39.752499
9.3325377 -21.177872 39.752499
14.490557 -21.472984 39.752499
9.3041277 -24.591919 39.752499
3.339113 -31.860552 39.752499
14.239857 -39.312904 39.034836
5.9362249 -35.635227 39.739704
15.919962 -22.061565 39.752499
8.2664623 -38.800701 39.026806
6.881124 -32.319077 39.752499
19.23122 -34.126678 39.752495
17.091812 -46.010273 39.03867
7.6348581 -44.887821 39.025955
-0.45963404 -28.951599 39.731777
18.528812 -28.36902 39.752499
15.040327 -34.317554 39.752499
10.846892 -25.878536 39.752499
6.9397826 -23.929615 39.752495
6.8960371 -24.622066 39.752499
4.2973838 -44.66526 39.021469
11.907071 -45.51157 39.0317
15.185315 -25.897917 39.752499
6.7423496 -38.906406 39.024757
18.955288 -31.301979 39.752499
9.2233315 -27.985485 39.752499
4.8965435 -34.640858 39.742058
8.1221523 -29.682226 39.752502
9.6332331 -42.833717 39.028645
11.180214 -36.20121 39.752499
18.393999 -31.109058 39.752499
