# .PCD v0.7 - Point Cloud Data file format
VERSION 0.7
FIELDS x y z
SIZE 4 4 4
TYPE F F F
COUNT 1 1 1
WIDTH 1255
HEIGHT 1
VIEWPOINT 0 0 0 1 0 0 0
POINTS 1255
DATA ascii
-32.475323 -29.422434 -9.2226391
-32.1497 -24.314398 -8.5770016
-42.919979 -30.608122 0.1142
-32.103592 -25.722809 -0.43327546
-37.41737 -30.518372 -0.1437
-32.1497 -26.227827 -10.880957
-32.103767 -23.424082 4.7284908
-32.103817 -29.402668 6.0652599
-32.10347 -31.997297 -4.7478008
-32.103825 -31.509888 6.4335465
-32.1497 -19.79224 -4.8846865
-32.1497 -21.280176 -8.4159145
-32.103649 -32.771358 0.44820929
-32.103699 -19.716908 3.0815122
-32.103588 -24.920336 -0.44752067
-32.1133 -20.250641 11.773221
-32.1497 -18.989748 -6.8166313
-32.103539 -29.317045 -2.5371156
-32.103859 -27.999098 7.6138577
-32.1035 -18.588619 -3.6788337
-32.103901 -30.086842 8.9984379
-37.107868 -32.790226 0.081799999
-32.1133 -23.1217 12.330325
-32.1133 -30.447033 13.311317
-45.623001 -27.130342 -0.062898338
-44.435249 -27.042059 -0.35220003
-38.363358 -32.862114 0.081799999
-32.103664 -32.289696 0.93985724
-32.1133 -25.145201 13.250355
-32.3218 -22.415173 9.3400288
-32.541599 -26.31501 -4.3876257
-32.103558 -26.528292 -1.4549725
-32.103657 -21.652815 1.8226771
-32.1133 -28.843069 11.437102
-33.897099 -32.594166 0.59851968
-44.113201 -28.85384 0.53494954
-32.103695 -18.150829 3.1505558
-32.256325 -28.843966 -6.5429916
-32.103813 -20.172411 6.2862163
-32.103638 -24.46286 0.93996727
-45.623001 -22.769413 0.066240922
-32.103642 -23.230677 1.1536182
-45.623001 -27.038971 0.9945507
-32.103893 -32.388268 8.6751337
-32.103882 -18.656948 8.3006973
-32.103683 -30.516443 1.5458745
-44.113201 -28.486916 1.3083198
-32.236229 -25.216621 9.1347942
-44.113201 -26.72785 1.0735557
-32.1497 -25.648453 -8.3093586
-32.1497 -27.835676 -5.5464892
-32.10363 -29.132168 0.30192053
-32.1497 -18.192053 -6.3877759
-44.900597 -21.614305 -0.3522
-34.604603 -31.778458 0.081799999
-32.103817 -27.428282 6.055913
-45.623001 -25.455994 0.0064056367
-32.1133 -31.534281 10.138475
-32.103764 -18.712011 5.0184131
-32.103668 -24.303083 1.8369023
-33.844887 -32.883316 1.1485
-32.10371 -28.911322 2.5518935
-32.1035 -19.327271 -3.4267955
-32.103622 -20.28742 1.0268186
-44.113197 -21.561893 1.142457
-32.10363 -26.660151 0.54321873
-32.103714 -18.374504 3.7345266
-32.103737 -21.884306 3.9608452
-32.103703 -24.631258 2.7442732
-45.357819 -24.897459 -0.3522
-45.546528 -22.140341 -0.3522
-40.397713 -30.62245 0.1142
-37.485023 -32.326855 0.081799999
-44.627766 -20.419613 1.8141
-32.103802 -30.355721 5.6043258
-32.103432 -31.446741 -5.8659415
-32.103764 -26.571703 4.2769113
-32.103668 -23.510448 1.8679247
-32.103615 -25.300058 0.2872957
-32.103775 -19.900719 5.1951032
-33.897099 -31.286674 1.0396051
-32.10342 -30.950922 -6.0848351
-32.103462 -30.908413 -4.9313416
-32.1133 -24.067249 11.919106
-32.1133 -29.30961 11.264734
-32.103638 -27.722841 0.70345628
-44.170742 -29.315083 -0.3522
-45.623001 -21.233978 -0.087809265
-32.103886 -27.10078 8.5466833
-32.103638 -20.858042 1.3457925
-32.103775 -31.133549 4.6673155
-32.149696 -21.430023 -8.9251461
-32.541599 -27.182873 -4.4095974
-32.377792 -28.895414 -5.5565138
-33.985897 -29.4897 0.47929475
-32.103668 -22.270023 2.0447767
-32.103722 -26.199944 3.1295252
-32.10371 -25.411572 2.8797522
-32.1133 -25.588129 12.547234
-32.103756 -22.913792 4.4348931
-32.1133 -25.814043 13.902977
-45.623001 -24.272007 0.77484596
-44.113201 -25.17491 -0.2793898
-32.103592 -26.488125 -0.4872784
-32.1133 -25.225792 11.837332
-44.113201 -26.699139 0.37880173
-32.103695 -22.280346 2.8042827
-32.1133 -29.562664 15.158343
-32.103706 -27.573959 2.5527873
-32.103664 -25.375639 1.6158352
-32.103863 -32.298115 7.6747093
-32.103642 -21.823008 1.321398
-32.103832 -20.119347 6.846981
-32.541599 -28.313427 -4.6434116
-32.10379 -29.418724 5.1160812
-32.103851 -32.850174 7.3377838
-32.103703 -20.322884 3.1417651
-32.1497 -24.272202 -5.6927643
-32.103771 -30.002575 4.5478525
-44.93364 -27.787443 1.8141
-44.113201 -25.86965 0.51721925
-32.1133 -27.924469 14.658609
-33.029392 -29.56596 1.2987001
-32.103863 -27.027809 7.6291842
-32.103695 -27.235046 2.298846
-32.149704 -28.776508 -9.0080433
-32.1497 -23.45669 -6.5035748
-32.1497 -21.121338 -7.8999071
-34.0481 -29.501205 0.33413884
-32.103821 -21.967175 6.2293453
-45.623001 -26.296757 0.96850562
-37.555462 -30.484718 0.1142
-32.103638 -33.450596 0.070762992
-32.103565 -25.652994 -1.1686081
-33.45665 -33.346592 -0.095499992
-39.066658 -30.240101 -0.025791012
-44.88427 -25.554583 1.8141
-44.305019 -25.411127 1.8141
-32.1133 -26.12727 12.332312
-32.103455 -33.512695 -5.1579523
-32.103752 -27.929968 3.8849213
-45.014694 -23.326706 -0.3522
-32.541599 -28.234694 -4.2779026
-32.432346 -25.962456 -4.1684756
-32.103695 -28.190752 2.2320905
-45.623001 -27.231077 1.8096304
-32.1133 -25.673952 16.570663
-32.1497 -27.67128 -9.900444
-32.103642 -23.306973 1.1862065
-32.103558 -32.920235 -2.2519472
-34.377071 -31.150888 0.081799999
-32.375572 -20.823936 -4.1368179
-32.1497 -19.072315 -6.0991888
-32.103882 -20.910902 8.3525305
-38.865616 -30.831505 0.081799999
-32.103745 -30.508121 3.4645905
-32.1133 -28.269756 11.510711
-32.103836 -26.481453 6.7948885
-32.103706 -20.714821 3.291033
-32.103683 -33.10569 1.4804609
-32.103889 -18.515186 8.6469355
-32.103394 -30.98407 -6.7574387
-44.483807 -26.220757 -0.3522
-32.1497 -26.53603 -6.4568095
-32.1133 -25.922981 15.284382
-32.1133 -25.523624 10.693592
-32.103813 -28.505098 5.9060531
-32.103653 -21.354343 1.7509618
-32.1497 -26.45467 -7.9636917
-32.1133 -26.578148 14.30365
-32.1497 -22.127781 -6.6319008
-32.103638 -29.8873 0.35109615
-32.103828 -18.072792 6.9164548
-32.103832 -30.458427 6.5799508
-32.1497 -23.269875 -7.4707055
-44.697575 -23.100456 1.8141
-32.541599 -18.581583 -4.6067681
-33.410553 -29.605968 1.2987
-32.226067 -27.436848 9.124711
-32.103802 -26.391663 5.5572186
-32.1035 -20.340872 -3.0425253
-36.636665 -30.361504 0.1142
-32.103371 -33.011574 -7.3839574
-32.1497 -28.241446 -5.7768068
-32.10339 -32.77803 -6.9380031
-45.623001 -25.649015 1.0586386
-44.113205 -25.487232 1.23501
-32.103302 -30.576878 -9.2122488
-32.103893 -30.683496 8.781661
-36.260132 -30.6313 0.066379964
-32.103512 -23.204105 -2.7278354
-32.1133 -25.990891 10.667185
-32.541599 -29.052654 -9.9019871
-39.095291 -30.6313 0.0071978308
-32.103355 -33.175819 -7.7869368
-44.808113 -25.095314 1.8141
-32.103817 -25.310524 6.1111889
-45.623001 -22.306129 0.58717859
-32.1497 -28.770027 -4.8308144
-32.1035 -21.433372 -2.8192306
-33.897099 -30.794571 0.55802345
-32.541599 -29.376186 -4.5856237
-32.103466 -31.887623 -4.9281912
-32.103451 -29.834982 -5.2478576
-34.365677 -32.420429 0.081799999
-32.103596 -24.754406 -0.20232594
-32.103546 -32.041508 -2.577754
-32.103542 -24.28871 -1.7114662
-32.103413 -30.398834 -6.2601094
-32.103874 -31.240196 8.0739403
-32.220608 -32.589985 10.026332
-32.1497 -24.133812 -10.775928
-32.1133 -25.003756 12.864838
-45.027565 -23.100174 1.8141
-32.1133 -25.548878 12.541165
-32.1497 -24.547401 -6.2587643
-32.103855 -21.995831 7.3682704
-32.103817 -32.478241 6.1035085
-32.1497 -19.922993 -7.8750882
-32.103638 -25.497993 0.93433666
-32.103424 -33.396168 -5.9647593
-32.1497 -24.869595 -8.6242857
-32.10358 -31.9466 -1.3500128
-32.103836 -30.957237 6.816123
-32.1497 -23.559332 -8.8873005
-32.843864 -29.4897 -0.092568815
-32.103809 -22.469021 5.9517365
-32.1497 -26.279427 -8.7610321
-32.103794 -25.654678 5.3488336
-32.1133 -25.081928 15.471705
-32.103729 -19.471449 3.9402325
-34.874985 -30.610001 0.1142
-32.103848 -26.315968 7.1456299
-32.103771 -20.011198 5.1278477
-32.1133 -21.332355 12.234505
-39.94548 -31.600309 0.081799999
-32.835899 -30.227903 1.2247756
-32.1497 -22.088257 -7.6714759
-33.759918 -30.437017 -0.2457
-32.184284 -27.952171 10.060409
-32.441368 -21.077213 -4.1735072
-32.1035 -19.668837 -3.7724242
-32.103542 -23.317465 -1.5780901
-32.103722 -31.165667 2.7883787
-32.10358 -28.575411 -1.1593819
-33.152058 -32.499344 -0.0955
-32.10376 -18.472466 4.9545097
-32.264576 -29.539913 -7.2793794
-33.897095 -32.645134 0.75348312
-32.1497 -21.543068 -6.9512596
-45.623001 -24.477436 1.4651655
-32.103676 -30.55072 1.4270353
-36.032734 -33.426857 0.081799999
-32.541599 -19.462317 -4.2380161
-32.1133 -28.590376 14.119487
-32.1133 -21.485123 13.142472
-32.103565 -30.301451 -1.5782177
-32.1133 -27.325577 10.934992
-32.1133 -20.32818 10.342726
-32.1497 -25.428661 -7.2003355
-32.103848 -21.712704 7.2298107
-44.882954 -21.194738 1.8141
-32.1035 -19.783575 -2.8393569
-32.541599 -29.284977 -4.9275713
-32.1133 -26.113438 11.653015
-32.103432 -32.271923 -5.8646264
-32.1133 -29.465212 10.702044
-32.1497 -27.225374 -10.812178
-44.59095 -21.800423 1.8141
-45.623001 -26.490791 -0.2804541
-32.103828 -30.645653 6.5295024
-32.103745 -32.910519 3.6548672
-32.1133 -22.094814 13.209942
-32.103657 -20.625378 1.9286611
-32.103886 -29.682575 8.6296635
-32.103813 -28.798431 5.9077024
-32.1133 -24.609776 12.928385
-32.113304 -32.438816 12.843691
-32.103653 -31.806997 0.60885918
-32.103657 -27.826632 1.1437099
-34.775925 -30.631298 -0.078342512
-45.317333 -24.819609 1.8141
-32.103611 -33.587196 -0.64213711
-32.1497 -25.877655 -8.6162624
-32.103649 -32.662872 0.47785962
-44.364376 -22.81321 -0.3522
-32.1035 -28.793423 -3.8955758
-44.113201 -22.312521 1.3738642
-32.103512 -33.195923 -3.6929522
-44.827339 -23.651363 1.8141
-44.113201 -27.988934 0.49538004
-42.704979 -30.240101 0.10862417
-32.3218 -19.711079 9.4164305
-45.623001 -24.959665 1.1532584
-32.1035 -20.689859 -3.3554223
-32.1133 -27.181137 15.057098
-32.113297 -21.652817 11.078352
-32.1133 -27.735245 11.61342
-32.103844 -25.429893 6.9407587
-32.103828 -25.293983 6.5713501
-32.309227 -26.117081 9.9431944
-32.1133 -31.794771 12.965385
-45.623001 -22.008228 0.4638834
-32.1133 -26.481224 10.974059
-33.391479 -32.181458 1.1485
-32.1133 -29.394184 14.195847
-32.10358 -25.852299 -0.80064642
-32.103882 -25.239666 8.3255768
-32.103901 -25.1714 8.9622927
-39.468231 -31.575989 0.081799999
-32.368767 -28.89159 -9.0318909
-32.103573 -20.919411 -0.40999472
-33.897099 -30.966433 0.63027114
-32.269176 -27.103842 -4.077487
-32.541599 -25.796909 -4.6360731
-32.103725 -30.907951 2.9030862
-45.623001 -26.747215 0.35375103
-32.10358 -27.81349 -0.96112812
-32.103439 -29.93256 -5.6027198
-32.103886 -19.663374 8.4024744
-32.3218 -21.671064 9.649827
-37.516304 -31.33268 0.081799999
-32.103832 -20.846794 6.7611709
-32.22599 -21.827883 10.021282
-32.103596 -30.563408 -0.84415048
-32.103867 -25.022358 7.8256068
-45.623001 -26.393805 1.0461199
-32.1497 -22.407223 -5.7980824
-32.541599 -21.214005 -4.4173255
-33.897099 -30.950865 1.1172833
-32.103706 -29.504343 2.4142311
-32.1133 -25.27969 10.824135
-32.103691 -19.234694 2.8696237
-32.1133 -31.005629 13.434214
-32.103737 -27.037476 3.4324241
-32.103661 -30.163612 1.0683925
-32.1497 -28.579733 -7.8851314
-32.103699 -18.304884 3.3246222
-32.103897 -30.388844 8.8784857
-32.1133 -20.655603 11.607582
-32.28405 -28.855709 -9.5570602
-35.812462 -30.6313 -0.14079382
-32.103512 -23.292072 -2.6900785
-32.1497 -27.406301 -8.8008251
-32.103844 -22.894737 7.06142
-32.103863 -29.942057 7.5796795
-32.103722 -30.598545 2.7662363
-32.113304 -28.206465 11.998694
-32.1133 -23.86729 10.561014
-32.103893 -18.815693 8.7348766
-32.1133 -27.582697 15.571054
-38.420925 -31.725664 0.081799999
-34.0481 -30.171837 1.1868857
-32.1133 -24.67985 13.618124
-32.103821 -23.12944 6.2628183
-32.1497 -19.570988 -7.9206538
-44.184692 -21.039095 1.8141
-32.1497 -21.188663 -7.9494839
-32.3218 -20.187891 9.8941936
-32.1497 -25.371319 -8.0601292
-32.103653 -26.810366 1.1485192
-32.1497 -24.122835 -5.0328941
-32.1133 -24.798199 16.694263
-32.10379 -28.267593 5.1123347
-32.303295 -20.207237 -4.0965128
-33.267727 -30.90399 -0.0955
-32.103657 -22.142242 1.7208428
-32.103779 -31.575895 4.7887301
-32.103512 -19.606474 -2.1840167
-32.398239 -19.927317 -4.1494575
-32.1497 -25.36149 -5.947525
-32.540321 -24.935873 -4.2286873
-32.103394 -30.480623 -6.7266817
-32.103565 -28.034134 -1.3664249
-32.103397 -31.290617 -6.666234
-32.103565 -21.498674 -0.82852
-32.986801 -32.966866 0.060653575
-41.91914 -30.6313 0.01812708
-45.623001 -26.889111 0.63335711
-32.541599 -28.676373 -4.5439405
-45.623001 -22.601181 1.3900658
-32.1133 -19.896418 10.838059
-40.429272 -30.520924 -0.1437
-33.858631 -32.595039 1.1485
-45.623001 -27.260143 0.8329283
-38.406528 -32.767735 0.081799999
-32.113297 -30.17388 12.135253
-32.1133 -30.222813 13.99399
-41.546074 -30.504906 -0.1437
-32.103481 -33.486309 -4.5080199
-32.1035 -24.2987 -3.7799451
-32.1497 -25.85902 -5.0055308
-32.1133 -19.719086 10.943541
-32.1133 -27.994587 14.583654
-32.541599 -29.24156 -7.3438835
-32.103565 -26.398476 -1.2337468
-33.610397 -29.4897 0.6288417
-32.10371 -31.524357 2.3426116
-33.534798 -29.889294 -0.2457
-32.103889 -22.060917 8.5748701
-32.103466 -32.774857 -4.9228745
-32.103706 -28.880529 2.4056993
-32.466835 -22.520796 -4.6817875
-32.103584 -18.601368 0.03681469
-40.379269 -31.94519 0.081799999
-41.890675 -30.631298 -0.0095736571
-32.103569 -26.800308 -1.1945728
-44.113201 -24.775831 0.59446013
-44.81881 -24.638203 -0.3522
-32.103691 -31.741707 1.676736
-44.113205 -29.119305 0.30801678
-32.1133 -27.764139 11.271284
-32.10363 -20.594885 1.2285333
-32.1497 -20.878395 -7.2560167
-44.113197 -25.751133 0.79148453
-32.334072 -29.501146 -9.7047882
-32.103737 -19.535313 4.301208
-32.103535 -21.985432 -1.6069974
-32.103691 -22.376404 2.6659319
-44.397846 -24.525501 1.8141
-45.623001 -25.347853 1.6099726
-32.103718 -23.933649 3.2113657
-40.980171 -32.457909 0.081799999
-32.131874 -19.754023 -4.0009217
-34.537224 -32.574268 0.081799999
-32.3218 -19.044365 9.3269625
-32.103874 -28.389542 8.0574741
-32.1133 -27.865179 12.08989
-44.113197 -25.861496 0.50699991
-32.103352 -33.324448 -8.0513067
-45.623001 -21.750515 1.7780639
-32.1497 -23.953985 -5.6729527
-32.103844 -24.030876 7.0604844
-32.103573 -25.466238 -0.92316639
-32.407001 -29.460554 -4.306109
-32.103882 -25.463123 8.3816395
-45.177444 -21.907045 1.8141
-32.103607 -27.227488 -0.12523699
-35.668678 -32.641331 0.081799999
-33.571388 -32.497837 -0.0955
-32.103828 -24.998705 6.5223703
-32.1035 -19.699972 -2.7678196
-32.1497 -21.472752 -6.5498314
-32.103546 -24.100199 -1.6074679
-44.113197 -27.659878 0.80063665
-32.103783 -20.870947 5.3060985
-32.1035 -23.645094 -3.1775482
-32.1497 -19.734703 -6.5708704
-32.314404 -22.598017 9.9383364
-32.10368 -28.337191 1.7365849
-32.1497 -25.7285 -5.9427295
-32.103767 -20.449532 5.0236607
-45.623001 -23.451279 1.8139106
-32.541599 -21.017918 -4.284307
-32.1133 -28.531498 10.158882
-32.103626 -18.689476 1.2460505
-32.103313 -31.847305 -8.8773451
-32.1133 -26.376818 11.74316
-32.1497 -25.021957 -7.6412973
-44.187393 -24.752024 1.8141
-32.493584 -28.454323 -4.6704512
-45.571362 -28.412292 -0.3522
-32.1497 -25.727419 -7.0388064
-32.113297 -27.074619 14.098192
-32.1133 -29.790909 12.40488
-44.922737 -23.755711 -0.3522
-32.103626 -32.780422 -0.11532807
-33.503677 -29.4897 1.2869381
-32.103539 -32.190178 -2.8211939
-32.1133 -25.573238 13.267206
-32.103592 -20.948038 0.15686798
-32.1133 -20.056831 10.393326
-32.1133 -26.070248 14.254299
-32.1035 -24.07736 -3.7811203
-44.113201 -23.203011 0.91360295
-32.10379 -19.624348 5.7073278
-45.529518 -27.721928 1.8141
-44.857101 -26.836903 1.8141
-32.149704 -25.93515 -8.6025238
-32.103504 -27.709867 -3.5966039
-32.103848 -20.369978 7.1978168
-32.103584 -21.007696 -0.1253531
-45.623001 -27.389484 0.11663437
-35.460892 -30.872463 0.081799999
-32.103634 -28.910112 0.35108161
-32.103607 -32.951614 -0.74149334
-32.103718 -19.908451 3.6842082
-32.103554 -33.476723 -2.5004108
-45.623001 -23.783249 1.4332662
-32.103844 -25.633007 7.0267887
-32.1497 -20.598566 -7.2645807
-32.103798 -20.356663 5.8643813
-32.103573 -25.843233 -0.97843361
-32.295059 -31.01685 9.9564857
-32.103863 -23.643904 7.7626081
-37.954826 -31.79973 0.081799999
-45.623001 -26.940903 1.2792472
-37.902882 -32.492249 0.081799999
-32.103798 -19.645884 5.8752794
-34.22126 -30.240101 -0.095459066
-32.103546 -21.610825 -1.2738633
-32.103539 -24.132423 -1.9162054
-32.10376 -32.543392 4.0880971
-32.195896 -26.281063 10.049515
-32.1133 -27.38772 11.046505
-33.897102 -32.270233 -0.013394874
-32.388435 -26.578716 -4.1439896
-32.103687 -22.159529 2.5428154
-32.10384 -23.928516 6.8466854
-32.103539 -23.444881 -1.6544569
-32.103676 -19.595289 2.5374873
-32.1133 -28.345341 14.526176
-45.623001 -20.738617 -0.015083045
-32.103569 -30.927485 -1.6429108
-32.1133 -26.617361 16.33707
-32.103752 -27.089832 3.8074312
-32.103367 -30.623337 -7.4317026
-32.103794 -31.024414 5.2478395
-44.113201 -26.664761 0.56220585
-32.1035 -18.604076 -3.9618144
-32.1035 -18.039303 -2.8605959
-44.113201 -21.021532 1.2252532
-32.41964 -19.973131 -4.7017918
-32.103561 -22.328669 -0.87852979
-32.103683 -24.819384 2.209053
-45.191589 -26.95038 1.8141
-44.227863 -20.406712 -0.35220003
-32.1035 -21.261467 -2.9630284
-32.103851 -31.362762 7.2836804
-34.69146 -30.631302 0.0049688611
-45.623001 -27.78109 0.18719108
-44.775703 -28.147915 1.8141
-32.1133 -28.343449 13.48584
-32.541599 -20.182539 -4.5773711
-32.103878 -25.994869 8.2442799
-45.028191 -23.186485 1.8141
-32.103851 -22.163715 7.2624011
-44.113201 -22.987946 0.93368107
-44.249039 -28.920292 -0.3522
-32.103703 -18.270947 3.4113362
-32.1035 -25.902918 -3.4760904
-32.1133 -28.902834 12.964172
-32.1497 -24.558071 -8.5928469
-32.1035 -27.097826 -3.7182534
-32.1133 -30.457706 12.197916
-32.103424 -30.83037 -6.0065179
-32.1497 -24.116169 -8.8546572
-33.897099 -31.011131 0.37968475
-32.272243 -29.535652 -6.6542215
-32.103592 -21.861105 -0.046202898
-32.103619 -32.587818 -0.3890332
-32.103813 -31.780567 5.9856019
-32.986801 -31.721657 0.97884756
-32.1497 -28.37439 -7.0921822
-32.1497 -23.471886 -7.9669757
-32.1133 -25.182295 11.803017
-44.113201 -22.119007 0.46822059
-32.103809 -21.962677 5.9810305
-32.245838 -20.233381 10.002664
-32.103626 -30.045897 0.057878613
-37.555004 -30.659946 0.081799999
-32.103676 -28.72456 1.5850849
-32.1133 -31.69705 12.27249
-32.1133 -27.995659 12.622677
-32.142876 -24.59268 -4.0070577
-32.103691 -28.679089 2.0423965
-44.113197 -26.592213 0.9876228
-32.1133 -28.77211 12.427528
-32.103355 -30.908964 -7.8268476
-32.103607 -33.498035 -0.80106008
-32.103531 -33.066734 -3.2169275
-43.056839 -30.497559 -0.1437
-32.103764 -30.186214 4.2491765
-45.623001 -26.293642 1.6714853
-32.103653 -29.270733 0.86775792
-32.10368 -22.341059 2.3291831
-32.113304 -25.672665 12.808623
-32.103813 -21.542433 6.1139941
-32.1133 -25.307207 13.849581
-32.103832 -21.745573 6.6954589
-32.1133 -28.910101 14.577714
-44.125576 -21.237814 1.8141
-32.103901 -21.324522 8.9323559
-32.103588 -27.615223 -0.78130674
-32.1133 -26.248882 16.089792
-32.541599 -26.02342 -11.4284
-32.10363 -20.301661 1.1607493
-32.103725 -27.698637 3.0128703
-32.103527 -31.832142 -3.366761
-32.103779 -32.138046 4.7996378
-32.103504 -22.29949 -2.8713799
-32.103512 -30.805984 -3.7501936
-32.103737 -20.453514 4.0400338
-33.63142 -32.20713 -0.0955
-32.103687 -19.737202 2.8462496
-45.257393 -20.937366 1.8141
-32.103851 -20.103466 7.3980932
-32.1497 -18.669933 -6.452569
-32.1035 -19.858843 -3.1553569
-32.10387 -31.882738 7.8648472
-32.103798 -28.908337 5.3527927
-44.113201 -21.484543 -0.069416463
-32.103531 -28.649929 -2.7513733
-32.1497 -24.88699 -6.993597
-32.103531 -24.073843 -2.0413146
-32.1133 -25.243176 12.199759
-32.103558 -26.726576 -1.5358235
-44.113201 -27.628172 0.8496803
-32.1497 -25.833233 -6.1443233
-32.1133 -24.668524 10.665054
-45.613258 -26.569281 1.8141
-45.623001 -27.969194 1.5941107
-32.103798 -26.107437 5.3544927
-44.113201 -25.524124 -0.077087462
-32.51086 -28.951778 -9.1886978
-32.10379 -27.446596 5.1824808
-32.1133 -32.138023 12.551817
-32.103546 -32.374401 -2.6713719
-45.26712 -26.367001 -0.3522
-32.103703 -22.679493 2.9281025
-33.744205 -31.13949 1.1485
-32.1035 -21.484505 -3.2227335
-32.3218 -26.185734 9.7681713
-44.113201 -24.688507 -0.30882111
-32.10379 -20.367111 5.7133007
-32.136494 -22.630169 -4.003499
-45.623001 -27.516712 0.75899071
-44.113201 -24.008253 0.96366405
-32.103348 -30.074955 -8.0736589
-44.113201 -26.279676 -0.13934314
-32.103699 -30.722536 2.1038957
-32.1497 -25.286957 -6.9626131
-39.570015 -33.58255 0.081799999
-32.103603 -22.191618 0.22596967
-32.103653 -19.058634 1.9364178
-32.103748 -30.575298 3.765348
-32.103806 -28.17514 5.6657615
-44.779591 -22.219452 1.8141
-40.198067 -33.167046 0.081799999
-32.103554 -22.411001 -1.108549
-32.1497 -28.740215 -7.0943918
-32.1497 -28.388735 -10.471939
-32.1133 -28.345581 15.046783
-32.103874 -20.733412 8.1504984
-37.349529 -30.582586 -0.1437
-32.1035 -19.979206 -2.6150029
-45.623001 -21.727926 0.075015783
-32.541599 -29.138399 -8.8327999
-32.103634 -18.545734 1.4313937
-32.140915 -21.186836 10.101093
-32.103516 -33.11203 -3.5840015
-32.103886 -28.496368 8.4667196
-33.305004 -32.459244 1.1485
-44.113197 -26.989447 1.6542653
-45.623001 -24.747608 -0.022529408
-35.138195 -33.535618 0.081799999
-32.168488 -28.806757 -9.0827541
-32.1035 -18.346169 -2.8780751
-32.103493 -31.526104 -4.1543188
-32.103584 -19.314905 0.030368805
-32.103703 -18.449713 3.387517
-38.512955 -30.256054 -0.1437
-32.10384 -22.27388 6.8751049
-32.103802 -29.370373 5.6050715
-32.103466 -29.937449 -4.852356
-32.103622 -27.420969 0.29911995
-32.1133 -24.251432 11.238542
-44.113201 -26.400162 0.2434147
-32.103882 -31.346495 8.4045181
-32.287674 -28.857243 -9.5999737
-35.828117 -33.278465 0.081799999
-32.1133 -30.449778 10.593147
-32.103588 -30.113798 -0.97447026
-32.103878 -20.866713 8.2599735
-32.10368 -31.052914 1.5034099
-36.80801 -32.966721 0.081799999
-32.103523 -28.594334 -3.0853078
-32.10379 -26.61607 5.2493334
-32.103886 -30.963484 8.5788603
-44.113201 -24.052376 0.89003861
-32.103523 -18.954533 -1.7137909
-32.1133 -23.852085 15.023383
-32.103733 -20.587261 4.0440092
-32.10371 -33.162834 2.3609018
-32.171165 -18.773077 -4.8071022
-32.103558 -23.493822 -1.1279706
-38.048744 -31.664673 0.081799999
-36.219009 -31.674728 0.081799999
-32.103592 -22.563894 -0.10820162
-32.1497 -28.513115 -10.602412
-32.103519 -26.077698 -2.785954
-36.63842 -31.446726 0.081799999
-32.3218 -18.32896 9.4462223
-32.169724 -18.294004 -4.0220275
-32.10376 -18.692928 4.9471517
-32.103836 -28.131721 6.8201246
-32.103729 -30.572769 2.9656792
-32.103531 -20.779594 -1.7712619
-32.1133 -30.400082 11.993907
-32.1133 -23.776527 15.557247
-32.103642 -24.953926 0.99810326
-34.0481 -30.10054 0.14787373
-35.609116 -33.441944 0.081799999
-32.113304 -30.129467 12.394236
-32.103558 -31.455273 -2.1946709
-32.103649 -32.567249 0.51831901
-32.1497 -18.840355 -6.8691545
-32.103699 -27.19079 2.3488004
-32.103642 -30.866615 0.45865262
-32.10384 -29.626036 6.9141364
-32.103539 -26.536415 -2.194427
-32.103683 -18.854649 2.8829055
-32.103825 -28.20055 6.3416166
-32.10384 -30.967323 6.9436617
-32.103775 -19.05785 5.4157991
-32.103687 -29.257896 1.8631587
-32.1133 -32.194115 11.604498
-32.1497 -23.173988 -5.2876558
-32.1133 -22.277718 10.314133
-32.1035 -19.694904 -3.9064376
-32.541599 -25.240572 -4.32651
-32.1035 -21.140608 -3.5525231
-40.809631 -30.820633 0.081799999
-32.103836 -27.980482 6.6961403
-32.1035 -29.073135 -3.8455982
-32.1036 -24.568138 -0.064233899
-32.1497 -23.888216 -5.1692085
-32.103802 -23.347515 5.680789
-32.3218 -30.175444 9.8595285
-32.103798 -18.225155 6.1027331
-32.215153 -23.153507 9.113883
-32.209045 -19.972584 -4.0439558
-44.456814 -20.334784 -0.3522
-32.541603 -23.330055 -4.649416
-32.103893 -24.079218 8.8012543
-32.10379 -25.380102 5.1493926
-32.103767 -18.83744 5.1172671
-32.103649 -31.842535 0.57876909
-39.002289 -30.240101 0.11222005
-32.1497 -23.593468 -6.1392632
-42.486343 -30.631298 0.022674272
-32.1497 -26.816006 -8.7667418
-44.113201 -25.321054 1.220682
-38.333473 -30.298212 -0.1437
-32.1497 -26.423006 -7.7623487
-33.897099 -33.146515 0.99627012
-32.986801 -31.468794 0.92626643
-44.113201 -21.285381 1.2180091
-32.541595 -29.128649 -10.199292
-32.103737 -31.289959 3.2877595
-32.10347 -30.552547 -4.74968
-32.1133 -24.511971 14.506562
-32.103783 -29.65062 4.9618263
-32.103867 -25.100544 7.8290486
-45.623001 -23.325708 0.13482861
-32.103561 -33.600658 -2.1809218
-32.1133 -32.085869 10.950825
-32.103527 -22.330605 -2.0362811
-32.103596 -29.710499 -0.77681661
-32.103584 -30.750362 -1.1858897
-32.3218 -29.868151 9.3907814
-32.103752 -23.066063 4.2947459
-36.40007 -33.331001 0.081799999
-44.113201 -20.730703 1.1872785
-32.103798 -23.619726 5.532979
-32.103661 -27.439663 1.3095646
-36.113876 -30.865089 0.081799999
-32.3218 -31.48753 9.2661495
-32.1497 -25.600571 -9.6642113
-38.774242 -33.43428 0.081799999
-33.77776 -32.597618 1.1485
-32.1497 -23.455965 -6.4943504
-32.103745 -20.860723 4.2984767
-32.103863 -29.7155 7.6341472
-32.1497 -18.579399 -5.6547756
-32.10379 -26.79557 5.2172704
-32.3218 -29.41272 9.3506908
-32.103577 -24.178247 -0.73503911
-32.103867 -24.414394 7.8157153
-32.1133 -20.114115 11.446385
-32.1497 -24.128006 -10.466078
-44.389557 -20.406788 -0.35219997
-32.103588 -32.204147 -1.2275232
-32.1497 -28.665829 -7.8481836
-32.103619 -24.336468 0.51972318
-32.103745 -19.963154 4.3642774
-32.103516 -22.653524 -2.4052098
-32.103764 -25.597279 4.2952747
-32.103561 -30.843924 -1.8815956
-32.1497 -20.70219 -7.6788731
-32.531403 -25.075693 -11.217281
-32.1497 -18.410456 -5.0431023
-33.454716 -33.123253 -0.0955
-32.103382 -32.921371 -7.073205
-32.1497 -22.394623 -8.7123842
-32.541599 -26.833435 -4.3746018
-32.1133 -20.873198 10.97965
-32.290691 -19.01288 -4.0894842
-32.103481 -30.867876 -4.5565052
-32.103867 -19.72665 7.7928591
-33.95863 -30.627567 0.36708504
-32.103588 -25.207668 -0.42483371
-32.1497 -21.207916 -7.1180153
-32.1035 -19.442986 -3.5072572
-32.10363 -25.557621 0.70316458
-32.103741 -31.975906 3.4383361
-32.103371 -30.835815 -7.3545718
-32.1133 -28.998913 14.55636
-32.1133 -26.951157 13.282066
-32.1133 -23.776031 15.037482
-32.1133 -31.913498 10.548082
-32.103825 -23.351051 6.334444
-32.1497 -20.232155 -5.3904829
-32.103649 -22.251759 1.5313033
-32.13147 -31.25267 10.109956
-32.103561 -27.923002 -1.4442533
-32.1497 -22.072083 -5.1065626
-32.1497 -22.113167 -6.3681712
-32.1133 -31.477554 11.522302
-32.103706 -26.977804 2.595068
-32.103622 -24.562761 0.47231221
-32.103897 -31.484018 8.9124737
-33.897099 -33.22633 0.28464326
-45.186363 -26.799212 1.8141
-32.1133 -24.525412 15.475504
-32.103462 -29.748774 -4.8587165
-32.103786 -24.165958 5.1285033
-32.1133 -23.13765 10.897317
-32.103638 -21.103573 1.3574128
-34.748482 -31.093491 0.081799999
-32.103561 -19.101715 -0.6436885
-32.103722 -18.681137 3.8920693
-32.3218 -24.131886 9.2829361
-32.103615 -22.972473 0.42951035
-32.10334 -31.983229 -8.235527
-40.848553 -31.131542 0.081799999
-32.835899 -29.696655 1.0588641
-38.414055 -32.506363 0.081799999
-32.1497 -22.510672 -6.2828126
-32.1497 -27.924019 -6.0863791
-32.103745 -25.640583 3.7772532
-32.103889 -31.181124 8.5517244
-32.10355 -23.306288 -1.4130284
-32.977066 -30.224741 1.2987
-32.1497 -23.329437 -4.9188981
-36.660858 -31.794916 0.081799999
-32.103794 -23.024481 5.4498162
-32.1133 -22.677275 12.921842
-32.103798 -25.117645 5.3692474
-32.103611 -25.372831 0.18958807
-32.1497 -21.188404 -6.0666275
-32.1497 -25.548592 -6.8097792
-45.623001 -24.950495 0.28036517
-32.149704 -26.799925 -10.091983
-32.103863 -31.495476 7.6855149
-32.103695 -28.394873 2.2365012
-32.10387 -24.274698 7.9435506
-32.103718 -21.966135 3.5297432
-32.1133 -20.941372 10.782645
-34.750687 -30.717928 0.081799999
-41.287544 -30.714912 0.081799999
-44.113201 -28.487642 1.3412497
-32.1497 -25.485516 -10.954439
-32.1035 -23.879845 -3.3583391
-32.103371 -31.445562 -7.2986951
-32.103638 -29.138103 0.57229853
-32.10376 -25.356855 4.2187505
-32.103836 -32.144691 6.7709451
-32.103573 -32.497143 -1.787845
-32.103718 -28.052952 2.7924628
-32.103626 -23.056751 0.76181984
-32.10358 -28.205879 -0.99485832
-32.1497 -22.824749 -5.616785
-32.103394 -30.423153 -6.8262835
-38.208351 -33.368549 0.081799999
-32.103821 -22.780918 6.1759415
-32.26178 -23.194794 9.987709
-44.65107 -25.998085 1.8141
-32.1497 -20.287102 -6.1644096
-32.1497 -21.462147 -5.7665844
-32.3218 -32.692574 9.4219685
-32.1133 -20.270233 11.140482
-32.893158 -30.586185 0.26973432
-32.103893 -30.089123 8.8830833
-32.1133 -28.182522 13.254222
-45.623001 -27.929132 1.4962783
-32.1133 -29.528267 12.826365
-32.1035 -20.529884 -2.9590921
-32.302303 -18.694214 9.2003536
-32.24651 -27.267729 10.002032
-45.623001 -25.252209 1.7224134
-32.103878 -28.71365 8.1601505
-32.103615 -23.685223 0.42719126
-32.103401 -33.166786 -6.6500058
-32.10358 -27.627024 -0.85930145
-32.103378 -33.304836 -7.2493
-32.986801 -31.752533 0.68345165
-32.1497 -28.17487 -10.658877
-39.987099 -31.610954 0.081799999
-39.510147 -31.925285 0.081799999
-32.103508 -21.352695 -2.5610151
-44.113201 -20.842453 0.89816874
-32.1133 -20.350948 11.456511
-32.1497 -18.528183 -6.6210861
-32.524338 -27.915382 -4.6574163
-32.1035 -18.095798 -2.5481672
-32.103565 -26.538771 -1.2787055
-32.10342 -32.774471 -6.0721855
-32.1133 -29.064575 10.46632
-32.103882 -27.650721 8.2858639
-32.1133 -29.91785 14.750929
-32.10379 -30.488571 5.2497029
-32.103798 -30.865669 5.5221491
-32.1497 -26.051872 -10.779678
-32.1497 -22.261639 -6.956418
-32.1133 -24.794636 16.761738
-35.825451 -31.713598 0.081799999
-32.1133 -25.439877 10.871505
-32.3218 -24.619022 9.7836323
-44.113197 -28.155411 1.579192
-37.316772 -30.612188 -0.1437
-32.103523 -21.231512 -1.9302117
-32.3218 -18.70373 9.3569031
-32.835899 -29.718756 0.33716494
-32.1497 -22.362785 -8.0008469
-45.194962 -26.764446 -0.3522
-32.103539 -27.916504 -2.3371551
-44.113201 -24.268278 0.90622473
-32.103703 -24.042147 2.8503308
-32.3218 -28.765593 9.4042892
-32.103897 -18.436558 8.8810081
-32.103653 -29.916735 0.82967889
-33.897099 -31.615147 0.88736618
-32.103531 -21.963219 -1.8068364
-39.374088 -30.393425 -0.1437
-32.269253 -29.878323 9.1675606
-44.202789 -24.550238 1.8141
-32.103798 -31.297745 5.4575987
-32.3218 -20.781975 9.5027828
-32.429913 -25.843637 -11.704535
-38.962372 -32.110081 0.081799999
-33.475674 -29.4897 1.0588336
-34.0481 -29.944645 0.63309115
-32.103874 -30.559738 8.0027952
-32.103718 -21.74577 3.4904454
-45.255775 -26.693523 1.8141
-41.934139 -31.162846 0.081799999
-32.103508 -20.000431 -2.4233725
-32.499264 -20.513634 -4.205791
-32.103615 -31.24345 -0.39208925
-32.103767 -23.591852 4.5868869
-44.113201 -29.714882 -0.049577564
-32.103683 -22.825045 2.4131479
-38.980095 -30.633785 0.081799999
-32.10355 -30.844843 -2.2624578
-32.1133 -22.363163 11.66634
-32.1133 -29.3379 11.476913
-35.264771 -30.631298 -0.08541958
-44.295132 -25.103098 1.8141
-32.1497 -28.219051 -7.2707586
-32.329273 -29.503849 -6.5571432
-32.103821 -30.540966 6.2966337
-32.103413 -31.46191 -6.2617064
-45.623001 -24.54331 0.14659885
-32.103802 -26.880255 5.5424056
-44.97263 -25.568611 -0.3522
-32.103893 -22.44525 8.7637768
-32.103447 -32.858086 -5.361587
-32.103554 -18.136358 -0.66423744
-34.0481 -30.41593 0.45628336
-32.3218 -23.605381 9.5769806
-32.103844 -22.045338 7.029448
-32.1497 -18.455667 -5.8393111
-32.103745 -23.84573 3.9078541
-32.1133 -30.562412 10.728304
-33.655991 -31.282234 1.1485
-32.1133 -24.792147 16.286877
-32.103638 -29.141655 0.47792423
-44.113205 -21.494446 0.81390041
-32.103806 -19.394781 6.1319256
-32.103691 -27.002363 2.2141495
-32.103588 -33.557953 -1.2619841
-32.1497 -20.500051 -4.8995409
-40.769421 -30.631298 0.027859982
-32.103542 -26.469696 -2.1339731
-32.1497 -21.642138 -6.0653362
-38.648876 -32.215271 0.081799999
-32.10355 -24.500662 -1.4130638
-32.10358 -33.078037 -1.5984807
-41.416992 -31.547363 0.081799999
-44.737961 -23.83091 1.8141
-32.103642 -21.010048 1.4203871
-45.623001 -23.09528 0.60084438
-36.016258 -32.605518 0.081799999
-32.1133 -21.206291 11.620009
-32.10363 -33.521217 -0.23128402
-32.1036 -30.69536 -0.79257393
-32.1133 -21.572884 11.904706
-32.1133 -23.946896 11.502817
-32.1497 -23.888987 -8.8193693
-32.1133 -28.102337 10.608812
-32.3218 -23.426529 9.3415737
-32.103504 -19.301558 -2.4166358
-32.103786 -21.763893 5.3773575
-45.623001 -20.641455 0.50509584
-32.103817 -31.864782 6.0175138
-44.113201 -22.530607 1.7391193
-44.113201 -21.154686 0.7715115
-32.1133 -29.597395 12.353467
-32.103485 -30.261877 -4.3854742
-40.907433 -31.135612 0.081799999
-39.191471 -30.240101 -0.064962313
-32.986801 -31.285793 0.42930561
-32.103321 -30.712543 -8.6989489
-32.216087 -29.566952 -7.2695293
-32.1133 -31.630476 11.915479
-32.282536 -28.836025 -4.7598987
-32.103806 -22.358147 5.9207716
-37.66552 -30.706493 0.081799999
-32.103546 -18.192699 -0.91450357
-32.103554 -20.841675 -1.0789279
-33.381931 -31.064606 -0.0955
-32.103561 -26.317675 -1.3890636
-32.105732 -19.624521 -3.9863458
-44.113201 -26.452587 0.44491053
-32.1497 -28.120983 -9.3043518
-32.103825 -19.858528 6.6760006
-45.623001 -21.854023 1.4003222
-44.113201 -21.63607 1.7298269
-32.173172 -20.547749 10.070833
-32.103672 -31.482311 1.2104912
-32.103615 -25.460327 0.17503631
-32.103619 -27.849527 0.057450175
-38.939293 -33.236324 0.081799999
-45.273682 -23.229271 1.8141
-32.1497 -19.801321 -5.561862
-32.103523 -19.856207 -1.907269
-32.103428 -31.60643 -5.9487772
-32.103867 -25.576046 7.8084922
-32.1133 -25.026302 13.425648
-32.3218 -21.590742 9.5638971
-32.280632 -25.083958 9.9700212
-32.103615 -31.868744 -0.47110832
-32.103714 -20.189354 3.5009675
-32.10355 -27.529831 -1.8893511
-35.364361 -31.617336 0.081799999
-45.623001 -21.453564 0.85280067
-32.263363 -18.806728 9.9862242
-32.1133 -31.615347 13.199056
-33.897099 -31.093868 0.26086974
-32.103695 -22.084652 2.7833209
-32.1497 -23.623491 -4.9727316
-45.623001 -26.939201 -0.2828331
-32.113297 -30.597385 11.971348
-32.10376 -21.91605 4.6060939
-32.103813 -26.408714 5.9513645
-32.119839 -19.970238 9.0193148
-32.1497 -25.008398 -9.3003311
-32.103794 -32.671951 5.3403182
-44.753754 -20.799995 -0.3522
-32.103661 -32.961018 0.84748089
-32.103813 -23.677357 5.9111896
-45.623001 -22.812202 0.027887985
-44.783073 -21.133133 1.8141
-44.113201 -24.64436 0.40734124
-32.1133 -29.036077 15.169882
-32.103531 -24.590281 -2.2011316
-32.103844 -23.038118 6.9583707
-32.10334 -29.83337 -8.2351055
-45.623001 -23.187832 0.27627003
-32.1035 -21.227308 -3.2829547
-45.477173 -27.65674 1.8141
-32.103668 -22.580547 1.9305289
-32.103863 -25.574432 7.7527819
-32.103748 -28.794411 3.6855664
-32.1133 -28.563646 13.64604
-33.897099 -33.215 -0.069314145
-32.1133 -23.184938 12.472721
-32.3218 -30.174526 9.5948925
-32.103798 -21.464815 5.7445745
-32.1133 -30.40304 11.24455
-32.3218 -28.797337 9.4708118
-32.541599 -19.522289 -4.5498581
-32.541599 -29.25629 -8.3394032
-32.103828 -18.682249 6.7816095
-44.539909 -21.673574 -0.3522
-44.113201 -26.238049 0.76428258
-39.393707 -30.240101 -0.037516907
-44.113201 -24.738741 -0.22100452
-32.10363 -18.911018 1.2408384
-32.103649 -32.683048 0.55215085
-32.103676 -26.141209 1.9601061
-34.0481 -29.833092 -0.18396845
-32.103676 -21.263386 2.4033737
-32.103512 -27.810429 -3.2199874
-44.113201 -23.32085 -0.1303324
-32.103828 -30.525265 6.4069853
-32.103741 -18.627693 4.3878188
-32.10376 -18.58559 4.9463124
-45.461685 -24.884783 1.8141
-32.388977 -29.470549 -7.3391032
-32.103584 -27.401009 -0.82895815
-32.103527 -33.015007 -3.3040471
-32.103626 -26.504101 0.44505775
-32.103619 -21.426418 0.77811146
-45.623001 -22.469002 0.16160482
-32.1035 -20.153513 -3.1813002
-45.623001 -27.602114 -0.15729851
-32.103806 -28.108795 5.6544161
-32.149696 -24.385567 -10.409808
-45.623001 -28.568071 -0.041274115
-32.103878 -26.811234 8.2365847
-32.103336 -30.118896 -8.2970238
-32.541599 -19.361322 -4.4379802
-32.103539 -18.838436 -1.1433363
-32.103668 -31.619509 1.0972191
-32.1497 -26.251965 -7.6829653
-32.103546 -19.413591 -1.0071303
-44.113201 -27.726982 -0.034363836
-32.1133 -24.754105 16.067701
-32.1133 -25.001036 11.747669
-32.103554 -25.825535 -1.4794674
-32.154411 -28.800795 -8.1489534
-44.113201 -29.29108 1.1678934
-32.103878 -20.315554 8.1771784
-32.149704 -27.093029 -8.2911482
-45.623001 -22.009638 0.22432309
-32.1497 -27.862795 -6.631568
-32.103806 -20.688442 6.0756235
-32.1133 -28.553211 13.337204
-33.897099 -31.243547 0.28432712
-32.103504 -32.536091 -3.8861122
-32.1497 -27.050549 -10.321574
-32.261326 -19.170002 9.9881372
-32.103519 -28.346558 -3.1090081
-44.723846 -22.033962 1.8141
-44.113201 -25.730724 1.1786296
-45.623001 -28.151947 1.1016027
-32.103867 -31.879488 7.8553219
-32.986801 -32.910919 0.88249552
-32.10384 -20.730267 6.986073
-32.1035 -20.184155 -2.6580904
-32.103825 -27.505646 6.3723884
-32.1133 -20.037994 10.230847
-32.103832 -20.340853 6.752965
-32.1133 -28.859173 13.833293
-32.1133 -25.132824 13.374323
-32.103767 -25.510952 4.3889966
-32.103531 -26.558374 -2.4580269
-45.25547 -27.127052 1.8141
-32.103523 -26.422661 -2.6135025
-32.103836 -28.344004 6.8314905
-45.623001 -28.229866 0.30283052
-32.103767 -19.437298 5.1118279
-45.623001 -24.35714 0.58729428
-42.818642 -30.440044 -0.1437
-32.10363 -32.131035 -0.018589139
-44.247601 -27.494488 -0.3522
-32.1133 -26.972588 15.918043
-32.103859 -18.054852 7.7566609
-32.103672 -33.437809 1.0597622
-32.103611 -31.218493 -0.43089074
-32.1497 -24.167969 -8.3119068
-45.623001 -22.047943 0.63685709
-32.103821 -31.721783 6.2295403
-32.986801 -31.462715 0.66427362
-45.623001 -24.312313 0.68093413
-32.103859 -24.635273 7.5622334
-32.10384 -24.755985 6.8652496
-32.10379 -21.441559 5.5711813
-32.103794 -26.790657 5.3196139
-45.623001 -22.631327 -0.038129166
-45.623001 -20.745218 1.0716482
-32.1133 -29.77022 13.746243
-32.1133 -26.952147 12.095434
-32.103672 -24.735924 1.9496034
-32.103844 -29.999752 7.0197568
-32.1133 -25.297361 10.33403
-32.10387 -27.167809 7.9193077
-32.3218 -20.685501 9.8326406
-32.103867 -27.227564 7.7651949
-44.113201 -24.197523 0.63547873
-32.10363 -28.589149 0.31300855
-32.1497 -28.703129 -6.4465656
-32.541599 -25.909124 -11.566545
-32.10363 -28.651173 0.39614797
-32.103603 -18.616648 0.64193809
-32.103889 -21.527847 8.5783625
-32.1035 -22.367796 -3.4800923
-39.203541 -32.551785 0.081799999
-32.1133 -28.462616 10.223982
-44.718685 -24.200027 1.8141
-32.1133 -31.133944 14.168198
-32.1497 -26.401516 -9.2257023
-32.103573 -29.296978 -1.3563775
-32.103878 -32.964668 8.2285891
-32.103287 -30.181416 -9.6241093
-32.103889 -29.769279 8.5488491
-32.1133 -24.640339 12.556433
-32.1133 -30.507698 11.650453
-32.171577 -20.314018 -4.8069272
-45.219379 -23.697151 -0.35220003
-32.1497 -22.939194 -8.6687946
-32.103661 -28.416809 1.1701146
-32.1133 -27.552467 12.350089
-32.1133 -24.967182 14.509535
-32.1497 -20.159569 -7.6148143
-32.103706 -22.578363 3.102797
-32.103592 -28.903975 -0.70760655
-32.103806 -23.930639 5.6846938
-45.594955 -22.593924 1.8141
-32.103603 -31.26709 -0.67432028
-32.103806 -25.779871 5.6718364
-32.103828 -24.900043 6.5104027
-32.191017 -28.816301 -6.214045
-32.986801 -30.980907 0.167402
-32.1035 -22.0856 -3.529392
-32.297173 -18.565453 9.954505
-44.113201 -23.239248 -0.070513606
-44.113201 -22.339901 -0.21646845
-32.103546 -33.612804 -2.781673
-32.103592 -32.410297 -1.0493163
-32.172989 -21.069494 -4.8063297
-32.103733 -24.349613 3.6031101
-32.103493 -30.327219 -4.0830054
-32.103645 -23.826885 1.2081193
-32.103603 -24.435394 0.046759129
-32.103848 -18.57255 7.3620462
-32.1497 -27.951275 -6.600564
-32.202599 -24.217709 9.1014271
-32.541599 -26.867315 -4.3140059
-32.1133 -22.175018 12.859692
-32.103558 -19.053646 -0.7011866
-32.10379 -32.461243 5.2168131
-32.1497 -20.14892 -7.3940487
-32.3218 -30.072939 9.866704
-32.103573 -33.660801 -1.9222503
-32.103344 -31.685162 -8.082284
-32.1035 -24.758268 -3.9647713
-32.103821 -28.859421 6.2273316
-44.570629 -26.234465 1.8141
-32.1035 -24.038542 -3.0681586
-32.103569 -33.127602 -1.8801646
-32.1133 -23.845448 11.961563
-32.1497 -25.224436 -5.0795364
-44.318214 -22.636858 1.8141
-32.103523 -26.705156 -2.7558835
-32.103771 -21.368237 5.005373
-32.1497 -28.559525 -6.1900659
-44.847984 -25.93261 -0.3522
-32.103802 -18.576555 6.1169987
-32.103554 -31.19034 -2.2914183
-32.103729 -20.102173 3.9275074
-32.103497 -33.324203 -4.122086
-32.1133 -22.990791 10.705802
