# .PCD v0.7 - Point Cloud Data file format
VERSION 0.7
FIELDS x y z
SIZE 4 4 4
TYPE F F F
COUNT 1 1 1
WIDTH 1560
HEIGHT 1
VIEWPOINT 0 0 0 1 0 0 0
POINTS 1560
DATA ascii
42.37973 -14.155674 39.752548
36.252419 -13.871887 39.752502
31.649483 0.43391216 39.752499
42.695274 -5.0631371 39.752502
29.942764 -5.272223 39.752502
24.074448 -8.4692764 39.752499
40.67712 -9.6707211 39.752518
29.174698 -17.651682 39.752502
30.937954 -7.3838072 39.752499
23.590393 -1.1093433 39.752495
40.274876 -11.317419 39.752518
31.162996 -21.435556 39.752525
29.845284 -0.0683918 39.752499
31.239069 -21.394308 39.752525
37.056046 2.9649408 39.596298
36.180225 0.59560269 39.596298
20.553579 -5.2975588 39.752499
30.875694 2.0999711 39.752499
28.328819 -19.261253 39.75251
29.092541 4.5429716 39.752499
38.748329 -8.0696726 39.752499
30.209488 -0.21476901 39.752495
29.847488 3.0285337 39.752502
31.784506 -18.088631 39.752506
39.186943 -1.9677532 40.005501
21.338886 -4.1022129 39.752499
21.8829 -8.7082701 39.752499
38.069824 -3.4107594 39.752499
35.305737 -5.8126111 39.752495
24.531775 -15.648308 39.752499
22.894791 -1.8350894 39.752499
26.151743 -9.8971119 39.752499
28.436226 -12.616434 39.752499
30.046024 -1.9981141 39.752499
28.46521 -8.2260151 39.752502
34.567333 -2.5642607 39.752499
43.873909 0.9213711 39.752525
40.27174 -17.712179 39.902081
35.166382 -13.022438 39.752499
30.060335 -20.382193 39.752518
41.877979 -16.170582 39.752556
41.843224 2.3010755 39.596298
17.850498 -11.866115 39.752495
18.781458 -3.6353829 39.752495
41.484695 1.5836188 39.596298
18.355968 -9.9975271 39.752499
22.02853 2.5079119 39.752499
34.774574 -0.14248745 39.752499
29.649368 -3.3560638 39.752502
27.087812 -7.1607666 39.752499
36.265465 0.64533883 39.596298
42.85535 -4.2217188 39.752502
23.223206 -15.624788 39.752499
43.404018 0.091762781 39.907959
32.249611 -21.384676 39.752525
21.956409 -6.2938366 39.752499
31.487724 -5.5207615 39.752499
20.280626 -7.2689805 39.752499
33.980366 -0.032394499 39.752499
27.549086 -21.855963 39.752525
33.859108 3.7556376 39.752499
31.600235 -3.2062159 39.752499
23.243692 -9.673049 39.752499
39.863312 -5.333539 39.752499
17.883671 -4.7614708 39.752499
34.916161 -19.828407 39.704102
42.256863 -4.1030684 39.752499
40.813805 -17.957569 39.959
29.489922 3.7808309 39.752499
20.100559 -9.392416 39.752499
38.608711 -16.957333 39.752537
22.250593 3.2974372 39.752495
41.066483 -17.866806 39.959
20.487854 -19.375496 39.752502
24.79196 -15.446136 39.752499
34.370094 -1.1127061 39.752499
37.084545 -4.837656 39.752499
18.324299 -2.725611 39.752499
35.503597 -3.7405424 39.752499
22.149384 -11.375515 39.752499
29.149433 -7.6339426 39.752499
22.426767 -10.173204 39.752499
28.367126 -3.4490416 39.752499
20.437057 2.5921376 39.752499
35.357899 2.3908114 39.873604
20.277876 2.7041261 39.752499
32.927071 -6.7901764 39.752499
33.211903 -15.447689 39.752499
37.831017 -12.226144 39.752506
25.917938 -18.896801 39.752502
37.274632 0.43654442 39.596298
32.429779 -7.945106 39.752499
39.348808 -20.528009 39.749924
40.929665 -14.525518 39.752541
27.9599 -18.315195 39.752502
20.563145 -8.2794504 39.752499
42.051571 -2.0558243 40.009136
36.578732 -6.6226921 39.752499
23.893419 0.39528966 39.752499
32.716026 -0.88592994 39.752499
41.667759 -7.6500607 39.75251
30.789635 -9.1089621 39.752499
30.445116 -15.35534 39.752495
28.201958 -0.19166946 39.752499
37.387558 -1.3931681 39.596298
26.562313 -20.707615 39.752514
39.405388 -15.97773 39.752541
28.955925 -8.9428034 39.752499
39.445183 -0.35954785 39.596298
29.516109 -7.3244658 39.752499
24.804016 -9.9070988 39.752499
38.740513 -9.233779 39.752499
22.570976 -1.8980551 39.752499
31.923248 -16.141092 39.752499
35.29184 -4.9127641 39.752499
31.230686 0.29099023 39.752499
31.768747 -18.291157 39.752502
38.56649 -13.604312 39.752518
17.541965 -13.560846 39.752502
21.834089 3.5705547 39.752495
32.579666 -14.688957 39.752499
40.369339 -1.9142489 39.879173
36.840099 2.1897488 39.596298
37.222805 1.9090244 39.596298
25.890905 -0.64888763 39.752499
28.179636 -19.191992 39.75251
24.079527 -22.404715 39.752499
40.192818 -16.64027 39.752548
38.267151 -3.9985471 39.752499
34.489025 -16.682684 39.752506
24.672825 -16.059338 39.752495
29.557161 -2.977087 39.752499
42.804932 0.86051667 39.880543
21.185057 -10.902163 39.752499
25.430128 -10.894972 39.752495
43.306808 0.20378757 40.00491
39.242531 1.7833786 39.596298
41.777496 -17.675045 39.880825
39.872116 -7.450676 39.752499
19.405767 -15.454585 39.752502
27.324242 -15.714271 39.752499
28.035566 -6.4925165 39.752499
38.734779 -12.761139 39.752518
20.372587 -0.72288001 39.752499
23.400497 -20.534304 39.752499
21.00375 -11.842038 39.752499
20.920712 -9.2858906 39.752502
19.441513 -8.4070892 39.752502
25.158712 0.43937945 39.752499
24.783762 -15.294611 39.752499
36.68351 -21.262218 39.704102
33.001476 -20.475136 39.797771
17.475277 -15.458263 39.752499
34.850334 -14.250454 39.752499
39.016285 -9.6840467 39.752506
32.432182 -8.7508917 39.752499
39.914963 -3.8107464 39.752499
43.151012 0.62700903 40.009167
35.887108 -5.3280187 39.752502
36.510765 -1.2322859 39.596298
30.194853 -0.1255846 39.752499
25.903135 4.8198037 39.752499
34.420662 -4.064446 39.752499
32.690109 -2.5133359 39.752499
19.986237 -12.739524 39.752499
39.740353 -8.3206644 39.752495
21.133781 -8.503334 39.752499
27.848152 -15.352917 39.752499
26.152081 -3.4123161 39.752499
25.103323 -18.118252 39.752495
30.179634 -17.611855 39.752502
20.530369 -3.5389197 39.752499
26.690191 -9.0687675 39.752499
27.024529 3.3431895 39.752502
24.212202 -6.001214 39.752495
24.434511 4.6975374 39.752495
29.802757 -1.4607134 39.752502
27.029211 -2.7426934 39.752499
28.276405 -1.6956615 39.752499
26.308594 -20.601479 39.752506
23.68969 -1.7322299 39.752499
31.443935 -3.8557694 39.752495
37.049728 -20.628544 39.704102
40.044018 2.3565903 39.596298
25.549324 -9.8640213 39.752499
22.578348 3.6354144 39.752502
31.258511 1.7232764 39.752499
20.148479 -16.680134 39.752499
38.397053 -21.098034 39.704102
26.272707 -13.040772 39.752499
32.899467 -3.6527324 39.752499
22.852705 -18.408344 39.752499
42.833241 -1.4693735 39.947357
27.431135 -13.394634 39.752499
39.127865 -7.2800541 39.752499
42.815132 1.4509423 39.90461
41.114933 2.3654225 39.596298
20.683004 1.9302881 39.752499
20.942938 -21.244617 39.752499
20.028103 -19.247875 39.752499
24.337231 -3.4507766 39.752499
42.251762 -2.4855652 39.936306
22.694359 -8.7585154 39.752499
27.735157 -11.738632 39.752499
24.270317 -11.198494 39.752502
18.153717 -14.25136 39.752499
34.721329 1.9356523 39.752502
37.682549 -6.2055683 39.752499
35.73175 -5.2521529 39.752502
25.5214 2.4927197 39.752499
31.570816 -21.092342 39.752525
32.919769 0.76155812 39.752499
38.443192 -19.954069 39.704102
21.212055 -10.674861 39.752499
32.735954 2.3665979 39.752495
21.996227 -12.379723 39.752499
23.883221 -10.945275 39.752499
36.996357 1.9665219 39.596298
33.140068 -14.315229 39.752499
25.936678 2.7954316 39.752499
33.676105 -13.803563 39.752499
28.032337 -11.347391 39.752499
34.6632 -2.7143612 39.752499
34.723812 1.0168595 39.752499
36.669483 -10.398128 39.752499
38.523907 -12.82523 39.752514
37.11031 -7.4794044 39.752499
30.088869 -14.552514 39.752499
18.246485 -13.768353 39.752499
21.04792 -3.4244347 39.752499
20.474407 -18.733932 39.752502
42.784363 0.89631701 39.831985
31.520058 -2.1723471 39.752499
24.238602 -10.012815 39.752499
29.327179 -20.52644 39.752522
26.790283 -20.080095 39.752514
40.419434 -15.78733 39.752544
38.932831 -4.9769959 39.752499
36.222435 -3.488903 39.752499
31.942951 -6.1718845 39.752499
26.350452 -14.57466 39.752499
43.19817 -4.0522957 39.752499
36.684696 -7.1179471 39.752499
34.080257 -9.4553843 39.752495
29.694801 -4.0393944 39.752499
22.349783 -4.2858224 39.752499
23.571806 -1.7362916 39.752499
21.955933 -17.602848 39.752499
38.974457 0.29231918 39.596298
34.142685 -17.925682 39.959
26.570423 -15.581192 39.752499
28.308796 -16.47942 39.752499
30.962337 -3.8881211 39.752499
38.863617 -11.743393 39.75251
38.744072 0.8984164 39.596298
36.191288 -13.408325 39.752502
26.952644 -1.9570733 39.752495
19.380222 -14.507144 39.752499
23.852127 -12.207808 39.752502
31.532156 -18.244783 39.752506
19.564037 -3.401011 39.752499
23.941017 -4.5836697 39.752499
28.971525 -8.1222219 39.752499
20.591717 -4.1736107 39.752499
20.183529 -9.8096352 39.752499
29.306559 -16.344692 39.752502
21.390701 -5.7976193 39.752499
24.335932 -10.23929 39.752499
41.223465 0.14016131 39.596298
25.316769 2.1395164 39.752499
24.087521 -20.460752 39.752499
29.453348 -4.1621852 39.752499
28.623505 -15.522566 39.752499
39.312775 -12.160563 39.752518
29.349953 -8.2914009 39.752499
37.425629 -19.008932 39.704102
39.972042 1.829222 39.596298
26.806787 1.5128961 39.752499
41.838318 -1.9950556 40.009121
28.765684 -19.83934 39.752518
29.860886 -14.360023 39.752499
43.090633 -0.19259548 40.009155
26.728357 -7.0401187 39.752499
27.921175 2.7286692 39.752499
29.706081 -1.4990685 39.752499
18.656357 -7.0114193 39.752499
29.270519 -4.5234566 39.752495
29.119968 -21.421648 39.752525
35.833351 1.7947677 40.009148
32.657726 3.6083255 39.752499
31.615284 -5.7522516 39.752499
35.653259 -8.5342007 39.752495
35.963795 -15.036955 39.75251
29.816441 0.33170879 39.752495
20.92207 -16.67791 39.752499
42.984253 -3.2137816 39.752499
31.125931 -1.7929707 39.752499
32.743004 -0.72113788 39.752499
29.577133 -0.45894468 39.752502
40.434647 1.7910397 39.596298
24.032377 -0.14202857 39.752495
34.495693 -17.191814 39.75251
39.080894 -11.142628 39.75251
33.334793 -3.2495589 39.752499
18.060997 -14.430934 39.752499
30.362959 -7.9974055 39.752499
27.38032 -9.9853554 39.752499
40.286091 -4.5347009 39.752499
32.605957 0.24040359 39.752499
35.284809 1.1268225 39.800705
38.166504 -7.8228054 39.752499
30.498451 -21.223614 39.752525
25.677481 -5.1614408 39.752502
23.166269 -18.063498 39.752499
18.697475 -14.416578 39.752499
34.084885 1.6259459 39.752499
24.290194 -0.97227871 39.752499
41.288795 -2.1108146 40.009155
21.307133 -2.2372873 39.752499
33.665245 2.1385467 39.752502
23.053883 -1.2917625 39.752495
33.153286 -14.383009 39.752499
32.783363 -9.8819952 39.752499
33.421387 -20.410646 39.959
35.757885 -19.105923 39.704102
43.105808 -1.2037199 40.009159
30.595551 -19.394808 39.75251
25.102728 -18.566624 39.752499
33.233131 2.500375 39.752499
19.800529 -2.2381065 39.752499
19.042583 -1.4611696 39.752499
27.256189 -19.525209 39.752514
39.187733 -3.9212303 39.752499
31.86298 -7.6993852 39.752499
38.549381 -9.6390619 39.752499
32.00552 -2.8587408 39.752499
40.246735 -16.885815 39.752548
32.145641 1.5862353 39.752499
36.484314 -14.641562 39.75251
42.438713 -9.0313225 39.752525
40.623035 -12.289255 39.752525
27.23222 -11.07419 39.752499
23.64538 -8.195919 39.752499
19.905479 -8.3571672 39.752499
39.887577 -6.5739036 39.752499
21.037411 -5.6380591 39.752502
19.683571 -13.822559 39.752499
28.105953 -19.600189 39.75251
30.638794 -20.437893 39.752518
34.589031 -21.567808 39.704102
36.885273 -3.1490278 39.752499
39.420456 1.8373888 39.596298
36.628593 -20.330545 39.704102
21.838022 -6.2335067 39.752499
37.281593 -13.42484 39.75251
22.039793 -0.49158216 39.752499
25.10548 1.5215507 39.752502
34.485779 -6.4598808 39.752499
40.190571 -10.049756 39.752514
36.423275 2.2514033 39.596298
33.940212 -14.424356 39.752499
34.312088 -17.703522 39.897125
28.660967 -18.497841 39.752506
30.182613 -13.69507 39.752502
22.386402 -4.5205293 39.752499
28.104805 0.1546793 39.752499
26.939167 -12.396895 39.752499
32.877319 -3.8756883 39.752499
35.181721 -11.63308 39.752499
42.970699 -10.000933 39.752533
22.309917 -22.298542 39.752495
30.264481 -17.313877 39.752499
40.873581 -9.8658667 39.752518
25.231298 -16.272461 39.752495
28.475922 -20.790588 39.752522
39.615597 -9.624115 39.752506
24.975744 4.4893112 39.752495
27.878336 -13.914688 39.752499
28.356394 -6.0624876 39.752495
19.279642 -7.4159069 39.752499
25.605873 -5.0865526 39.752499
19.938358 -20.565723 39.752499
24.718248 -8.7761383 39.752499
36.789795 -8.3495483 39.752499
39.382591 -7.9858413 39.752502
40.47121 -0.84434259 39.596298
42.800713 -8.7429352 39.752525
37.504242 -19.647985 39.704102
33.25127 -7.3443885 39.752499
41.113808 -13.229485 39.752537
28.597631 -7.6743922 39.752499
18.016861 -17.656794 39.752499
24.996346 -15.774323 39.752499
39.848808 -12.445369 39.752522
38.072449 -11.831358 39.752506
27.07151 -16.643784 39.752499
38.219498 -5.8391881 39.752499
18.282906 -14.99078 39.752499
34.711292 -19.258881 39.704102
24.364985 -2.3007574 39.752499
42.45451 2.1790287 39.596298
37.145004 -17.695175 39.892345
26.154364 -9.1618452 39.752499
22.66032 0.47424459 39.752499
33.579941 -7.2211394 39.752499
28.338346 -13.580119 39.752499
39.545662 -13.70461 39.752525
24.905695 -1.6726331 39.752499
23.572117 -16.201956 39.752502
20.320322 -14.210524 39.752499
39.36404 -19.57243 39.780514
41.626545 -12.662366 39.752537
39.468281 -8.9684544 39.752499
43.239994 -7.9295936 39.752525
39.242786 -17.773853 39.937389
22.793879 -6.4971666 39.752499
25.305956 -19.611362 39.752499
35.094482 -19.146156 39.704102
31.734562 -0.95893991 39.752499
33.811745 -13.064814 39.752499
37.239304 -7.6293335 39.752499
21.683029 -20.272646 39.752499
19.355839 -20.214252 39.752499
32.488655 -1.352383 39.752499
23.911419 -8.727602 39.752499
17.883135 -8.4522572 39.752499
18.444599 -16.423607 39.752499
38.907631 -7.7710557 39.752499
31.731525 -4.6257887 39.752502
25.979731 -6.313426 39.752495
42.84761 -10.84747 39.752541
36.404617 -10.47899 39.752499
37.547485 0.13884342 39.596298
29.272274 -3.5319195 39.752502
37.191864 -17.197386 39.752529
19.24748 -2.4019811 39.752499
19.379868 -16.136311 39.752499
25.257618 -9.654356 39.752499
30.885151 -9.1883554 39.752499
33.137749 -0.39487207 39.752499
29.145739 -20.406021 39.752518
19.746363 1.2618983 39.752499
24.919384 -14.016156 39.752499
27.383913 -18.229252 39.752506
29.858089 -19.804916 39.752518
18.698538 -7.1878233 39.752499
27.73707 -9.0659323 39.752499
38.546257 -15.412828 39.752529
40.073837 0.98544067 39.596298
22.633078 -1.9832127 39.752499
38.349457 -17.663818 39.874397
31.373068 -5.0292482 39.752499
42.092125 -9.2662048 39.752522
36.678787 -8.1170692 39.752499
35.263447 1.2984627 39.7794
41.684849 -10.183846 39.752525
36.485409 -10.710894 39.752499
33.9981 -21.019503 39.745049
34.818371 -17.767014 39.933475
29.480011 -15.758354 39.752499
18.809727 -19.480953 39.752499
31.096504 -12.775423 39.752499
38.233803 -6.5559297 39.752499
27.184826 -21.294733 39.752522
39.796303 -20.562344 39.959
24.596012 -22.147453 39.752499
23.688614 4.4373102 39.752499
25.413389 -5.6289697 39.752502
20.844906 -18.535206 39.752495
35.669926 -13.872313 39.752499
19.833939 0.080482244 39.752499
19.953844 -17.72744 39.752495
40.071175 -20.938763 39.959
36.947136 -16.971096 39.752525
30.663914 3.0179706 39.752499
35.528099 -1.3726635 40.009102
34.240158 0.81712723 39.752499
42.5746 0.3815614 39.596298
24.359531 -0.74860489 39.752499
17.468588 -11.884929 39.752502
39.192295 -3.4197416 39.752495
34.383865 -18.472885 39.862648
36.575157 -6.5004077 39.752499
38.42424 -2.7217832 39.752499
32.278095 -20.589701 39.752522
41.313732 -20.175417 39.704102
17.64175 -9.4085522 39.752499
37.647789 -2.3295636 40.009144
34.001068 -7.3380532 39.752499
28.144419 -8.3445301 39.752499
25.296131 -1.6168869 39.752499
30.100864 -8.9720545 39.752499
22.021109 -1.5468395 39.752499
38.651367 -15.598421 39.752533
22.972115 -21.672359 39.752499
39.158211 -5.95257 39.752499
39.774864 -7.4436374 39.752499
40.292484 -18.506304 39.959
39.74604 -1.5932606 39.596298
37.361893 -0.28927386 39.596298
29.971085 -18.733736 39.75251
27.213505 1.0014968 39.752499
39.836258 -11.540402 39.752518
40.901936 -11.215619 39.752525
30.02323 2.4720993 39.752499
40.714535 -4.4913602 39.752495
39.888336 -5.5269837 39.752499
22.150578 -0.43953419 39.752499
21.655056 -20.190964 39.752499
37.460773 -21.051296 39.704102
40.549286 -15.312658 39.752544
30.167721 -6.6251268 39.752499
35.482651 1.8975962 39.997986
39.682026 -14.533817 39.752533
26.342911 2.2626123 39.752499
20.524973 -13.062378 39.752499
18.738119 0.38875389 39.752499
40.005085 -18.931065 39.959
39.680397 -9.94697 39.752506
20.385502 -1.8892455 39.752499
41.688469 -0.50072891 39.596298
25.930592 1.7793502 39.752499
18.29089 -16.991589 39.752499
29.659172 -11.686116 39.752502
27.72574 3.0527728 39.752499
36.937206 -6.6985788 39.752499
36.381104 -15.621336 39.752518
36.025558 -9.6494589 39.752499
23.14773 -22.758732 39.752499
29.117912 -12.082634 39.752499
18.888535 -18.538292 39.752502
25.397417 -3.985153 39.752499
38.957371 -12.454468 39.752514
25.606483 1.5112371 39.752499
27.526323 -17.623674 39.752499
22.271959 -11.256905 39.752499
36.626034 0.96133041 39.596298
39.633881 -9.1472778 39.752502
37.919991 -8.2031326 39.752499
23.515076 -19.196133 39.752495
24.690016 -18.794827 39.752495
18.289593 -8.997776 39.752499
37.882122 -14.379501 39.752518
41.071964 -4.0691738 39.752495
27.162487 -13.244455 39.752499
35.903973 -5.9539976 39.752502
21.654163 -11.503953 39.752499
26.231571 -6.1282587 39.752495
24.139269 -6.3921161 39.752499
24.464958 -4.232584 39.752499
31.91256 4.1273918 39.752499
32.291969 -12.874264 39.752499
30.95422 -14.095601 39.752502
23.687801 -10.696285 39.752499
20.036184 2.4646926 39.752499
31.910627 -7.1462145 39.752499
37.817677 -11.691869 39.752502
38.331779 -15.037699 39.752525
38.990631 -1.1206868 39.596298
38.315689 -2.1694329 40.009186
39.264481 -7.0281935 39.752495
34.96566 -4.2217646 39.752502
38.1954 -4.6998577 39.752502
43.558079 -0.94269335 39.75433
33.708374 -6.3049321 39.752499
39.840599 -1.6683323 39.596298
42.876968 -4.5947199 39.752502
20.476524 -18.933456 39.752499
24.499113 -5.0538054 39.752499
25.745949 -15.941266 39.752499
31.43988 0.13593519 39.752499
33.705475 -5.8382492 39.752502
31.741123 -8.1047287 39.752499
27.359322 -11.388227 39.752499
37.635597 2.6050744 39.596298
27.25037 0.75556409 39.752502
37.150856 -3.8218505 39.752499
19.207607 -14.781073 39.752502
40.750633 -18.502945 39.807877
28.194714 -7.9876175 39.752499
27.516626 -2.8544188 39.752499
40.316105 -16.843483 39.752548
33.082085 1.1545992 39.752499
30.15719 -17.62187 39.752502
24.26833 -5.5880136 39.752499
43.193672 -0.044412017 40.009174
31.782433 3.5642991 39.752499
30.379616 1.7401661 39.752499
18.209381 -1.0262941 39.752495
19.713614 -13.914951 39.752502
18.920334 -4.5550265 39.752499
42.065865 -8.7178679 39.752522
28.486023 -10.763556 39.752499
27.079735 -2.7792556 39.752499
26.30331 -4.7833128 39.752495
29.230648 -20.758268 39.752525
21.75428 -10.250834 39.752499
30.100958 -4.2758045 39.752499
36.985291 1.7257948 39.596298
24.727919 -12.603011 39.752499
35.250046 0.33945131 39.766029
18.829662 -12.468286 39.752495
34.365868 -12.98736 39.752499
23.806377 -5.5122776 39.752499
40.625389 -17.053455 39.752556
31.542715 -19.44722 39.752514
26.341686 -11.755907 39.752495
18.910767 -0.54644692 39.752499
23.312813 -13.88719 39.752499
20.632914 -3.9721632 39.752502
22.654737 -18.446301 39.752499
41.623562 -1.8575827 39.745422
22.042658 1.865733 39.752499
24.631615 -21.320944 39.752499
23.208561 -17.929821 39.752502
42.519272 -8.8340034 39.752525
27.013227 -2.9182518 39.752502
37.078865 -9.2815151 39.752499
27.868481 -21.209782 39.752525
29.393528 -12.920635 39.752495
21.077682 -10.911387 39.752499
18.72298 -6.3748965 39.752499
41.985096 -1.7447075 39.596298
30.580162 -21.60976 39.752525
20.343531 0.24867439 39.752499
37.784405 -0.21454346 39.596298
37.367168 -12.69121 39.752506
41.441174 -8.4739838 39.752514
22.438805 -0.98673117 39.752499
35.380299 -12.098817 39.752499
24.333986 -20.002865 39.752502
43.829205 1.0443052 39.752529
20.249441 1.0795696 39.752499
28.306501 -14.030843 39.752499
40.62722 0.48066378 39.596298
17.637077 -17.25246 39.752499
37.25264 -10.22363 39.752499
29.96748 -22.138699 39.752533
34.449146 -13.639482 39.752495
30.684582 -8.204216 39.752499
20.281273 -7.3403397 39.752499
41.818176 -16.712402 39.752563
32.814117 -2.9854641 39.752499
19.824383 -1.0654266 39.752495
20.345295 0.23175955 39.752499
24.038094 -5.1520844 39.752499
43.224274 -0.60604882 40.009182
42.800667 -1.6146559 39.870476
28.978745 -16.982761 39.752499
32.382828 -8.6078806 39.752499
24.798552 -8.3348589 39.752499
20.131203 1.3349085 39.752499
38.926655 -9.2772923 39.752499
38.648796 -16.352938 39.752533
24.013607 -14.414154 39.752499
23.200592 -0.69949925 39.752502
19.24102 -4.3870668 39.752499
37.802433 -13.662032 39.752514
42.680283 -5.9327497 39.752506
34.212982 -19.357754 39.704102
33.36702 -2.4836488 39.752499
17.594435 -8.2892513 39.752499
22.396938 2.1981077 39.752499
42.103352 -9.9159393 39.752525
25.815594 -21.173195 39.752502
35.243153 -1.0390009 39.759144
21.015512 -18.247671 39.752499
24.746838 -14.55636 39.752499
38.513409 -9.8773966 39.752495
29.31562 -15.887663 39.752495
35.838951 -1.0062582 40.009171
37.828423 -1.8095332 39.632015
35.099228 1.9694699 39.752499
25.346889 -6.848856 39.752499
37.050758 -14.415149 39.752514
31.753361 -4.6803603 39.752495
35.293064 -18.508648 39.797482
20.86623 -1.1322399 39.752499
27.230694 -16.416016 39.752499
26.926035 -21.318905 39.752518
26.557461 -10.567268 39.752499
30.760363 -20.103827 39.752518
40.176506 -20.656933 39.959
27.630993 -3.6122217 39.752495
33.996208 -13.478049 39.752499
38.949299 -13.618874 39.752525
25.352116 -11.862669 39.752499
20.360918 -18.331245 39.752499
35.36533 -3.4152408 39.752499
30.410805 -18.119774 39.752502
39.319756 -16.596756 39.752544
22.941559 -2.773602 39.752499
22.16589 -13.587729 39.752499
39.49337 -9.660738 39.752506
25.855762 -13.40354 39.752499
40.027203 -15.865603 39.752541
21.020271 -16.272738 39.752499
24.426071 -21.570728 39.752499
38.380699 -16.25185 39.752529
24.160999 -12.16881 39.752502
29.041874 1.4643105 39.752499
25.580444 3.864943 39.752499
32.141651 -17.476498 39.752499
33.544449 2.9142919 39.752499
34.059044 -9.7348032 39.752499
42.331085 -2.6834643 39.752499
25.526489 0.2783885 39.752495
24.637972 -16.047245 39.752499
26.126614 4.7752285 39.752499
24.568014 -2.2205272 39.752499
39.702133 -8.30338 39.752499
25.52718 0.10595989 39.752499
25.011566 -13.765779 39.752499
38.845322 -9.3347874 39.752499
29.504477 -8.2485476 39.752502
17.62752 -11.6614 39.752499
18.182842 -5.5595264 39.752499
40.574123 -20.695229 39.846752
33.048771 -15.228191 39.752499
24.432541 -6.4343071 39.752499
30.073235 -13.195804 39.752502
22.27227 -20.852301 39.752499
40.975788 -18.474258 39.860146
32.960941 -19.541634 39.774567
18.310656 -12.904035 39.752499
42.580704 -12.61623 39.752544
42.754169 -0.16264105 39.760735
36.007 3.2570672 39.843945
30.803242 -3.1100082 39.752499
27.378006 -16.642773 39.752499
34.302879 -19.940922 39.704102
18.68692 -13.413637 39.752499
28.919605 -2.0444713 39.752495
25.643637 -8.6811256 39.752499
36.357788 -17.267368 39.752525
18.835241 -8.6781082 39.752499
27.391319 -11.653793 39.752499
34.764061 -15.144692 39.752499
18.869507 0.76934457 39.752499
35.036598 -3.8907032 39.752499
40.066139 2.2879713 39.596298
36.094357 0.52595723 39.637714
28.482492 -8.6358395 39.752499
25.286999 -4.3257113 39.752499
32.531902 -13.161916 39.752499
21.010487 3.4562991 39.752499
38.609337 -9.8396959 39.752499
24.206436 -8.2300072 39.752499
25.374464 5.1005621 39.752499
22.598797 -13.290442 39.752495
33.093929 -21.074253 39.8507
27.319923 1.982637 39.752499
32.149178 2.9234247 39.752499
37.047432 -14.798865 39.752518
23.359039 -11.783219 39.752499
36.526039 -18.518665 39.779232
24.572252 -13.085954 39.752499
43.946747 0.059394598 39.752522
28.795141 -11.382904 39.752499
24.920574 -2.8752215 39.752499
34.945934 -20.816303 39.704102
29.080845 -7.3040833 39.752495
43.954006 -0.083904266 39.752525
26.430346 -8.1190195 39.752499
21.100254 -18.647997 39.752499
29.107826 0.0024819374 39.752499
24.083517 -1.8688931 39.752499
34.584759 -18.405552 39.959
22.131306 -11.265499 39.752499
36.333828 -8.9656439 39.752499
34.632484 -21.125252 39.704102
24.587149 -4.692256 39.752495
37.912491 -2.1885331 40.009178
41.082989 -2.2314272 40.00919
19.160984 -2.7703483 39.752499
37.985222 -19.518461 39.704102
39.311901 -0.19674027 39.596298
28.661577 -5.806109 39.752495
26.874413 -11.877295 39.752499
33.456299 -12.806356 39.752499
17.991943 -1.5170188 39.752499
28.384203 4.3280363 39.752499
21.017178 2.7611132 39.752499
27.692364 2.527457 39.752499
20.834351 0.32999921 39.752499
25.416512 -12.881061 39.752499
31.345547 1.562519 39.752499
36.66666 0.87732422 39.596298
27.568474 -15.680933 39.752499
25.463167 -21.664631 39.752499
25.978983 3.3399994 39.752499
36.984234 -6.5689101 39.752499
40.814232 -14.338491 39.752541
23.493286 2.6307621 39.752495
37.58535 -11.467035 39.752502
21.305252 -2.6182759 39.752499
18.392174 -13.694082 39.752499
20.090687 -19.089006 39.752502
20.940563 -18.20693 39.752499
36.46397 -6.1700497 39.752499
21.803604 -20.80192 39.752499
40.918804 -18.823296 39.704102
36.649288 -18.588879 39.704102
40.489761 -6.3173428 39.752499
23.460787 -3.7588439 39.752499
42.840233 -5.8415174 39.752514
41.045399 0.14621463 39.596298
38.580582 -18.61405 39.704102
31.927431 -16.493536 39.752499
19.935785 -16.355286 39.752502
23.236595 -14.496099 39.752499
23.619663 1.2370977 39.752499
26.594271 -15.153613 39.752499
30.247559 0.23751581 39.752495
36.080269 -16.379316 39.752518
21.864658 -2.3760867 39.752499
22.335859 1.3153889 39.752499
34.036205 2.7975976 39.752495
20.702435 -14.023427 39.752499
27.932158 1.5537373 39.752499
36.287148 -6.7519746 39.752499
42.366982 -12.813483 39.752541
37.127632 -20.473629 39.704102
38.130463 -1.6160651 39.596298
29.757944 -9.386344 39.752499
24.982285 4.2834778 39.752499
24.167009 -3.4195395 39.752499
31.348808 -20.01932 39.752518
21.13105 -16.784452 39.752499
35.542427 -19.350559 39.704102
31.091595 -10.297581 39.752499
22.03627 -17.981943 39.752499
42.33913 -12.06724 39.752541
36.497219 -16.872488 39.752522
21.831501 3.5396063 39.752499
37.518593 -17.269306 39.752529
41.204922 -1.9871323 40.009129
39.192917 -2.5199361 39.902004
26.825499 -5.4087062 39.752499
27.270947 -10.586381 39.752499
43.100552 -6.26682 39.752514
25.258869 0.83742404 39.752499
19.877449 -4.2013664 39.752499
23.706671 -2.7909713 39.752499
18.303143 -17.69088 39.752499
26.153267 -21.661362 39.752506
21.375256 -0.56025469 39.752499
36.43671 -18.239328 39.959
37.650723 -16.336634 39.752525
37.352608 -5.4836693 39.752495
26.058138 -13.187318 39.752499
35.908764 -2.8421605 39.752495
17.618664 -15.497455 39.752499
41.125755 -13.648872 39.752541
35.273609 -18.66531 39.704102
18.350361 1.2082529 39.752499
29.26008 -10.007423 39.752499
35.216476 -16.096748 39.75251
37.401283 -1.3542384 39.596298
22.799383 -20.193764 39.752499
23.426256 1.8639947 39.752499
18.694735 -10.397729 39.752499
25.225752 -15.611246 39.752499
25.935116 0.40471125 39.752499
23.305763 -0.91584039 39.752499
40.118244 -1.9319956 39.921074
36.955845 -0.4242903 39.596298
42.518345 -7.4272871 39.752518
18.348061 -18.126022 39.752499
28.720455 -14.953263 39.752499
40.027725 -11.883235 39.752522
42.957817 -6.1509175 39.75251
38.596237 -1.4401892 39.596298
24.994186 -2.4689565 39.752499
17.58098 -16.37067 39.752499
36.325085 -4.3239894 39.752499
40.298981 -7.0998745 39.752499
22.944334 -12.105022 39.752499
26.696861 -2.284534 39.752499
31.574011 -21.246506 39.752529
18.811489 -15.369495 39.752495
24.669388 -15.5148 39.752499
22.716473 -18.070002 39.752499
34.496258 -18.563934 39.704102
24.878267 -0.89794803 39.752499
24.770973 -19.878696 39.752499
37.923378 -10.073492 39.752499
40.228523 -1.3463377 39.596298
21.312225 -19.671455 39.752499
38.12648 -12.103295 39.752506
38.483829 -2.6540542 39.768211
30.97086 -1.5980849 39.752499
22.65502 0.81935334 39.752499
22.313774 -11.755881 39.752499
25.302679 -5.6225762 39.752499
36.313026 -17.578754 39.825695
38.402489 -15.151102 39.752525
28.655369 4.369277 39.752499
40.463333 -7.4540238 39.752499
38.847706 -2.0740709 40.009186
25.373079 -16.324566 39.752495
27.436733 -12.349782 39.752499
32.101006 -8.8356495 39.752499
32.119453 0.2013371 39.752499
30.99091 4.1612415 39.752502
37.448349 -13.637636 39.752514
23.972198 -14.683207 39.752499
41.616264 0.023281842 39.596298
39.358383 0.14697015 39.596298
24.296728 -18.233849 39.752499
33.769333 -16.109272 39.752499
40.934685 -18.523474 39.77047
18.671719 -9.5501347 39.752499
26.297108 0.89225507 39.752499
37.764908 -19.469999 39.704102
27.448654 -2.3163416 39.752499
22.077351 -15.855056 39.752499
43.783474 1.1275295 39.752529
32.805466 -1.0904615 39.752499
37.783344 -15.970575 39.752529
42.167969 -9.2604218 39.752522
37.673504 0.37562168 39.596298
30.986393 0.0050060749 39.752499
39.317711 -17.670767 39.878372
24.016066 -12.628451 39.752502
41.460838 -14.17042 39.752544
23.963636 -2.0480008 39.752499
26.836521 -3.185674 39.752502
19.99522 -7.9471478 39.752499
34.745598 -10.743691 39.752499
28.082804 3.705673 39.752499
18.817028 -13.31071 39.752495
33.175953 -15.433622 39.752499
41.849602 -13.757303 39.752544
39.044853 -8.2168274 39.752495
34.767086 -21.096968 39.704102
26.073544 -3.1234441 39.752502
26.538496 -14.687231 39.752499
35.186417 -18.644039 39.704102
27.99786 0.7945255 39.752499
25.382799 -21.650099 39.752499
33.030674 -21.546349 39.814487
29.897106 3.0071602 39.752495
35.479637 -2.0034559 39.99498
28.015312 -1.1757617 39.752499
32.744812 3.5001838 39.752499
43.573856 -4.2747345 39.752506
34.387821 -5.1830192 39.752499
25.612232 -22.245022 39.752499
22.6618 -8.335537 39.752499
38.4772 -16.537584 39.752533
41.629276 0.098996431 39.596298
26.872759 -1.7342803 39.752499
26.32412 -18.812296 39.75251
22.597084 -7.6384912 39.752499
29.457966 1.075029 39.752499
28.612947 0.080193996 39.752499
33.026981 2.8383136 39.752499
30.372847 -17.596447 39.752499
39.983032 -5.2813449 39.752499
27.085485 -15.185978 39.752499
26.821686 4.3034062 39.752499
20.713167 -0.64831448 39.752495
24.385483 -5.1451664 39.752499
36.320354 -15.251739 39.752514
36.93808 -16.37228 39.752522
25.872766 -6.8123922 39.752499
24.289238 -9.6909018 39.752499
41.09343 -4.0736747 39.752499
41.012383 -6.2687488 39.752499
23.487007 -7.0625362 39.752499
28.227766 -8.0189724 39.752499
37.614685 -0.38833028 39.596298
40.174129 -3.4602671 39.752495
28.384819 -8.5468006 39.752499
35.972206 2.6471071 39.926071
20.41272 -13.34923 39.752502
29.247885 -21.741993 39.752529
23.66725 -10.526006 39.752499
25.047722 -9.7405796 39.752499
23.972574 -8.7193174 39.752499
19.408165 -8.1758118 39.752499
37.193291 -3.8604832 39.752499
35.337723 -13.129661 39.752499
19.151588 -15.69021 39.752495
32.37233 -7.4588332 39.752499
35.649643 -0.80551136 40.009125
42.235806 -8.4201107 39.752518
43.404655 -5.6416693 39.75251
24.200087 -22.069099 39.752502
36.184715 -21.097143 39.704102
19.214052 -12.308544 39.752499
38.26759 -5.8542242 39.752499
38.007889 -18.057541 39.959
37.661427 0.22239244 39.596298
39.249088 -18.896769 39.704102
27.083553 -8.4560623 39.752499
30.617916 -20.488937 39.752518
42.671326 -1.8720417 39.779549
23.668997 4.0834904 39.752499
27.439632 -16.953308 39.752499
21.642094 -1.3768872 39.752499
20.605326 -11.211299 39.752499
25.956131 -20.930744 39.752502
28.548433 0.39188838 39.752499
41.719574 -8.229455 39.752514
37.539268 -2.9391 39.752499
38.104103 -14.890503 39.752525
34.796082 -9.4194803 39.752499
38.030258 -11.860037 39.752506
20.751762 -17.214849 39.752499
37.371826 -9.320775 39.752499
34.938015 -16.028414 39.752506
36.54282 -4.5742078 39.752499
25.887749 -1.4075822 39.752499
27.14959 -2.7437522 39.752499
19.157059 -12.667103 39.752499
24.186625 -15.623958 39.752499
20.278484 -15.234632 39.752499
39.978233 -11.552459 39.752518
35.331264 -8.813365 39.752499
33.640854 -5.8280296 39.752499
22.94516 2.3614573 39.752499
32.148735 0.45388395 39.752499
36.268673 -21.301756 39.704102
29.150343 0.72518754 39.752499
25.5023 -13.508624 39.752499
17.680048 -8.0005255 39.752495
39.073463 2.535852 39.596298
24.891685 -10.317482 39.752499
43.09066 -5.6638308 39.75251
21.361208 -16.081993 39.752499
37.661865 -19.253412 39.704102
42.810863 -6.4481359 39.752514
21.76284 -16.822624 39.752495
40.152237 0.6543237 39.596298
17.77552 -11.764661 39.752499
35.259064 -2.9217484 39.752499
18.060711 -1.1016736 39.752499
20.02635 -10.098817 39.752499
21.279781 -16.737652 39.752499
33.954075 -17.400711 39.752502
37.504532 -6.2741885 39.752499
29.061779 -4.5498104 39.752499
20.167233 -16.791775 39.752499
29.825277 -2.773407 39.752499
30.499435 -19.594427 39.752514
30.664783 -18.542198 39.752506
19.131907 0.42313433 39.752499
30.323206 -7.648737 39.752499
28.664009 -14.759491 39.752499
22.484365 3.7971058 39.752499
26.453655 -22.455551 39.75251
40.301796 -15.774558 39.752544
21.278343 -0.3622812 39.752499
31.84164 -13.089459 39.752499
25.521929 -17.646488 39.752499
28.817732 -9.6624508 39.752499
34.010284 -12.231169 39.752499
23.762318 -10.390032 39.752502
37.739403 -18.169247 39.959
19.009325 -8.0677509 39.752499
30.204531 -20.927099 39.752525
30.311241 -14.810637 39.752499
38.002743 -20.390961 39.704102
18.395073 -3.1944442 39.752499
26.108978 -21.491451 39.752506
27.498158 -17.487583 39.752499
32.288223 -8.0286579 39.752499
27.356466 -6.0536208 39.752499
32.870884 -13.194763 39.752499
28.90279 -2.168891 39.752495
34.577259 1.4702533 39.752499
34.263542 -13.667798 39.752499
43.48687 -5.9967289 39.75251
34.817444 -19.133644 39.704102
32.8647 2.8760123 39.752499
31.484676 -9.1795597 39.752499
31.563623 1.3831185 39.752499
25.962837 -19.552982 39.752502
34.062401 -0.83523607 39.752502
39.567158 -1.8058476 39.623314
26.395844 -19.579229 39.752506
30.403242 -11.513077 39.752499
29.572514 -1.6240082 39.752495
22.187916 -17.878645 39.752499
38.830391 -3.0084476 39.752499
27.173729 -3.1049416 39.752499
21.910007 -21.567295 39.752495
23.279032 -1.205393 39.752499
36.378864 -14.711291 39.75251
40.408234 -4.5656233 39.752499
38.945099 -1.9429319 39.946907
23.90324 -1.4039277 39.752499
34.726086 -7.0324259 39.752502
38.450798 1.3462353 39.596298
28.180656 -17.98209 39.752502
27.988626 -18.885609 39.75251
35.898422 -7.8304863 39.752499
20.656971 -19.696306 39.752499
29.751339 -15.820659 39.752499
25.791294 1.3931532 39.752499
24.802197 -6.0305047 39.752499
23.07309 4.4820642 39.752499
35.503632 -10.836723 39.752499
36.309933 -14.410305 39.752506
30.191669 -7.2400031 39.752499
26.62615 2.3122923 39.752499
34.065102 -7.7277861 39.752499
35.47924 1.1728258 39.994587
44.247314 -0.43498063 39.752518
27.018005 -5.7254157 39.752499
23.218161 -3.8399484 39.752495
17.933056 -11.08435 39.752499
19.998405 -18.934839 39.752499
40.912369 -11.988293 39.752529
19.935196 -12.333248 39.752499
41.680614 -14.939529 39.752548
41.116238 -8.7831554 39.75251
19.700268 -0.43775976 39.752502
41.24374 -11.62417 39.752533
31.537052 -20.971899 39.752522
26.878012 4.5582643 39.752499
29.839085 -2.0096319 39.752499
30.1861 -20.945457 39.752522
39.063675 -20.063532 39.704102
19.964611 1.1309323 39.752499
36.190441 -15.347317 39.752514
35.284962 -18.133064 39.959
36.330978 -1.0133998 39.596298
18.240953 -13.278734 39.752495
19.373259 -16.788925 39.752502
27.191227 -10.468682 39.752499
40.595234 2.1426539 39.596298
30.314882 -18.561415 39.752506
29.689503 -13.670362 39.752499
28.27462 -3.4449158 39.752499
19.549894 -16.145325 39.752499
20.769545 -17.177813 39.752499
24.592453 -0.82077765 39.752499
20.005516 -5.0417223 39.752499
26.252924 -21.803261 39.752506
19.536667 -1.8675554 39.752499
37.997295 -3.4410875 39.752499
31.137535 -9.5670118 39.752499
40.948303 -3.1502247 39.752499
38.40477 -18.551304 39.719765
23.992741 -2.1491878 39.752495
31.563526 -10.971577 39.752499
40.334187 -9.4585867 39.75251
40.567802 -20.731678 39.859447
23.093718 -13.246058 39.752499
25.015646 -19.455845 39.752499
20.738575 -2.9692774 39.752499
21.744734 -3.934283 39.752499
17.595301 -13.93166 39.752502
34.779552 -7.9515114 39.752499
25.144411 -9.1891394 39.752499
25.452562 -16.604471 39.752499
25.526731 -13.719756 39.752499
38.620216 -19.302246 39.704102
22.603264 -16.432085 39.752499
33.698578 -17.820452 39.959
35.121326 -7.2017002 39.752499
42.27911 -9.841856 39.752525
40.298702 -18.695271 39.959
35.742462 -9.554986 39.752499
41.658978 -10.966963 39.752533
23.975601 3.2602663 39.752499
23.664366 -6.0495086 39.752499
30.446148 2.8138227 39.752499
29.472759 -18.027977 39.752502
28.250639 -11.235277 39.752499
26.093548 -6.049675 39.752499
36.366203 -3.697619 39.752499
39.458897 -14.275236 39.752529
19.524067 2.4406195 39.752499
22.447983 -1.0785977 39.752499
17.97299 -17.920855 39.752499
33.090874 -3.6326957 39.752499
22.810419 1.2374382 39.752499
20.282719 -12.793337 39.752499
42.140007 -5.2424817 39.752502
29.432163 -18.014793 39.752502
23.297544 1.5390174 39.752499
36.274399 -0.84748811 39.596298
36.106373 -0.10191048 39.609348
38.427345 -0.22539032 39.596298
39.086273 0.13249481 39.596298
37.94265 -7.1554976 39.752499
31.473516 -15.250175 39.752499
38.263275 -13.817902 39.752518
35.088238 -20.212189 39.704102
21.855503 -16.739944 39.752499
28.397959 -17.928997 39.752502
43.155323 -2.2307639 40.009167
31.030676 -15.531616 39.752495
20.635685 -11.69042 39.752499
33.365692 -18.872063 39.959
20.517744 -13.434141 39.752502
25.39119 -0.88004422 39.752499
19.020618 -0.82842731 39.752499
23.710854 -6.3220229 39.752499
33.928497 -5.8577971 39.752499
19.648643 -13.499063 39.752499
33.956802 -12.209937 39.752499
39.363182 -20.251434 39.778782
24.00124 -12.60557 39.752502
40.537922 -1.8434908 39.712166
38.918495 -4.4344673 39.752499
38.599461 -3.5810771 39.752499
42.0793 -2.9386964 39.752499
23.682384 5.084764 39.752499
25.103111 -6.3250399 39.752499
19.691074 -9.7982769 39.752499
43.572056 -2.1943216 39.752502
17.635994 -15.797074 39.752499
27.061768 -16.246191 39.752495
24.300209 -17.146448 39.752499
24.423908 -10.36364 39.752499
22.677269 -3.4428959 39.752499
20.965263 0.62859821 39.752499
26.577337 -6.5727973 39.752495
34.162598 -7.5132933 39.752499
40.220573 2.4798002 39.596298
27.419493 -0.47499168 39.752499
20.2036 -9.575695 39.752499
28.827154 -11.395355 39.752499
31.875977 -10.340557 39.752499
28.469105 -10.744877 39.752499
38.715569 -18.611063 39.704102
33.834419 -8.3373079 39.752499
25.940931 -19.301987 39.752506
34.509521 -11.721806 39.752499
40.02729 -10.781189 39.752514
17.776552 -19.095011 39.752495
26.350267 3.5436246 39.752499
23.859783 3.8099937 39.752499
27.935169 -11.871918 39.752499
24.130413 -7.6614065 39.752499
36.40015 -17.772318 39.936512
29.667103 -6.764997 39.752499
28.015562 2.9591525 39.752499
23.82531 -13.352495 39.752499
27.387001 -16.243904 39.752499
36.137119 0.46321195 39.596298
18.185707 -5.1620383 39.752499
20.924704 -10.047705 39.752502
21.753296 -5.9944134 39.752499
27.39987 -2.7007046 39.752499
22.339104 -6.6730609 39.752499
27.731495 1.1843213 39.752499
38.731873 0.15320492 39.596298
42.791859 -0.89237404 39.849682
32.254696 3.8088439 39.752499
27.82942 -6.504621 39.752499
32.471165 0.71258259 39.752495
38.631798 -13.917044 39.752522
29.941992 -14.408227 39.752499
20.848068 -10.955389 39.752499
26.590372 1.0466415 39.752499
18.392344 -4.2024431 39.752499
22.374287 1.75511 39.752499
22.322069 -0.28262734 39.752499
29.490746 -10.083151 39.752499
22.606382 -9.5600367 39.752499
27.152542 -9.2864838 39.752499
40.679523 -9.1704264 39.75251
28.936699 -18.327536 39.752506
36.154819 -17.955452 39.959
35.567654 3.1308117 40.009102
21.833868 -5.7480497 39.752499
30.2213 -17.041164 39.752499
19.947514 -16.55632 39.752495
20.868643 -20.002964 39.752499
20.129639 -3.0235143 39.752499
34.26519 -2.1731112 39.752499
19.269085 -8.7140818 39.752499
28.077288 0.10780263 39.752499
33.822052 -19.526211 39.959
42.756985 -1.9887784 40.009109
23.95517 -15.674994 39.752499
24.620562 -8.5854893 39.752499
35.575527 -10.658428 39.752499
29.263166 -16.499126 39.752499
30.099661 -9.1539307 39.752499
22.846972 -16.336166 39.752499
27.836714 -15.457724 39.752502
32.927685 -19.167557 39.755527
25.023876 4.6448879 39.752499
27.557352 -15.434745 39.752502
30.428257 -15.843159 39.752499
25.920753 -6.5708933 39.752499
38.986389 -4.9835896 39.752499
29.597649 -13.796213 39.752499
30.438309 -7.6766677 39.752499
38.652489 -1.1158123 39.596298
34.278233 2.6872857 39.752499
31.583229 -15.499749 39.752499
17.794613 -3.0561419 39.752499
26.608299 -2.3180928 39.752499
27.701193 -21.227829 39.752525
40.8116 1.7402551 39.596298
27.4998 -17.888166 39.752502
22.185709 -1.7078519 39.752499
35.348099 -0.1381402 39.863811
24.344316 -5.0568247 39.752499
37.069199 0.32210004 39.596298
27.972319 -6.1214948 39.752499
22.782936 -20.897022 39.752499
21.983368 -9.3817291 39.752499
31.731133 -20.084679 39.752518
22.382784 1.2932661 39.752499
35.016872 -0.80222583 39.752499
19.678169 -3.4696755 39.752499
36.858067 -5.8858962 39.752499
41.151268 -20.192123 39.704102
41.732849 -12.388094 39.752537
39.031376 -8.3148632 39.752502
37.650444 0.48379445 39.596298
22.294386 -6.3022289 39.752499
33.549667 -11.898467 39.752499
18.359663 -9.1367979 39.752499
32.395901 -5.7988548 39.752499
32.787254 -11.909739 39.752499
38.092827 -11.835577 39.752506
41.388134 -4.3595171 39.752502
24.113163 -16.642254 39.752499
33.83197 -19.192274 39.959
31.969667 -6.9365492 39.752499
35.548775 -2.0080531 40.009113
40.591747 -19.08692 39.81139
38.741291 -19.689011 39.704102
28.291656 -21.989658 39.752533
27.362782 -13.462242 39.752499
30.267048 -4.5563984 39.752499
30.027908 1.6425654 39.752495
37.003288 -1.9607738 39.989052
33.872944 -4.5342274 39.752499
33.751122 -14.489435 39.752499
25.824062 -12.791658 39.752499
22.61285 0.57881117 39.752499
39.061378 1.6495228 39.596298
24.028917 -19.071781 39.752499
25.334286 -3.257241 39.752499
18.989134 -5.5623322 39.752499
29.021706 -8.3860092 39.752495
39.958355 -12.644256 39.752525
24.459368 -12.601886 39.752499
26.159613 2.9586334 39.752499
20.859077 -5.4780617 39.752499
28.912418 -5.0017567 39.752502
21.072214 -8.1200275 39.752499
18.70986 -6.6324263 39.752499
35.02927 -12.669167 39.752495
34.682667 -2.2798169 39.752499
41.614582 -6.2652569 39.752502
22.800262 -3.0236988 39.752499
39.716312 -17.988523 39.959
31.347919 3.9794016 39.752499
33.103626 -14.738017 39.752495
28.514324 -12.557789 39.752495
22.776436 -0.89112639 39.752499
33.096859 -13.785113 39.752499
35.655479 -10.253733 39.752499
20.573215 -3.6604483 39.752499
26.67646 0.65735507 39.752499
42.922352 -5.5220637 39.752506
26.724468 -8.1876259 39.752499
20.513226 -5.3296442 39.752499
20.812012 -12.208392 39.752499
29.544426 -15.55764 39.752495
18.978943 -18.387182 39.752499
22.522961 4.3543582 39.752499
31.61809 -19.315681 39.752514
33.648823 -14.881554 39.752499
22.765841 -1.0527734 39.752502
26.35055 -20.090038 39.75251
24.569286 -3.053828 39.752499
23.436796 -8.4003229 39.752499
42.466736 -8.9578133 39.752525
25.58215 -7.7785311 39.752499
33.434528 -8.7843475 39.752499
20.19104 -18.490402 39.752499
36.28447 -9.783042 39.752499
31.667067 -16.731222 39.752502
27.782825 -21.350782 39.752529
37.732788 -15.969017 39.752525
35.658615 -8.1534548 39.752499
19.213329 -19.027271 39.752495
21.265575 3.1208677 39.752499
22.889668 -21.254192 39.752499
28.035072 0.095555305 39.752499
36.746143 -17.179626 39.752525
33.64489 -11.734867 39.752499
32.382847 0.48787326 39.752499
24.363716 -17.177891 39.752499
33.133621 -18.645672 39.873425
40.889313 1.8770564 39.596298
33.490219 -8.7852097 39.752499
39.469368 -15.137808 39.752533
42.128685 -0.84703249 39.596298
28.294689 1.8000896 39.752499
32.095783 -4.6575475 39.752499
22.700018 -15.601791 39.752499
40.482803 -0.94613248 39.596298
31.486563 -18.118584 39.752506
29.277578 -8.8076134 39.752495
40.432228 -14.786272 39.752541
19.063231 -17.824314 39.752499
38.520424 -3.8189597 39.752499
23.800753 1.2638218 39.752502
33.260059 -14.260459 39.752499
27.754539 -11.238311 39.752499
34.661003 -14.476351 39.752499
39.777798 -4.8176336 39.752499
19.176283 -11.980243 39.752495
24.272888 -13.917417 39.752499
40.532578 -17.475698 39.766747
20.668072 -11.195156 39.752499
30.325722 -20.59897 39.752522
39.581867 0.32010746 39.596298
40.831966 -18.75481 39.704102
23.420149 -3.1081624 39.752499
31.375084 -11.352068 39.752502
25.827179 -17.799219 39.752502
34.448975 -3.662792 39.752499
26.815073 4.3725848 39.752499
23.560162 -15.821466 39.752499
19.73175 -20.546368 39.752502
19.784584 -1.3370541 39.752495
31.001205 -13.383475 39.752499
32.354446 -3.1910291 39.752499
22.963041 0.93445873 39.752499
23.485762 -18.929647 39.752502
26.62072 -15.188122 39.752499
36.724228 -17.134939 39.752525
38.415794 -12.150979 39.75251
36.705944 -7.1760941 39.752495
36.13588 -14.049777 39.752506
23.949999 -8.906971 39.752499
24.535809 -18.532959 39.752502
24.096905 -18.360168 39.752499
21.75988 3.2390323 39.752499
32.855217 -1.2579501 39.752499
28.622204 -6.5725455 39.752499
22.462954 -17.387299 39.752499
23.061487 -0.69645023 39.752499
43.253609 -7.091692 39.752518
34.681667 -5.6702571 39.752499
28.776733 -18.685833 39.752506
29.095623 -7.1274495 39.752499
26.188412 -15.291632 39.752499
39.860416 -7.941319 39.752499
24.626173 -5.0608706 39.752495
18.041479 0.64083099 39.752495
21.818291 -18.709526 39.752499
23.584423 -17.364611 39.752499
20.570791 -5.9540477 39.752499
42.22871 -7.429882 39.752514
21.582041 -13.439257 39.752495
30.806221 -19.820309 39.752518
18.459869 -13.240612 39.752495
23.951046 -11.797478 39.752499
32.925388 -5.11831 39.752499
33.065895 3.7897255 39.752499
34.734386 -1.2265798 39.752495
23.784082 -3.7493985 39.752499
37.314793 -14.209844 39.752514
34.740482 -6.2553258 39.752499
34.169788 -6.3021626 39.752499
21.620089 -10.998419 39.752499
32.386509 -6.5335321 39.752499
40.838158 -9.8795433 39.752518
19.805914 -16.318424 39.752499
31.663364 -16.17972 39.752499
40.670456 -19.249548 39.704102
22.860537 -0.16853809 39.752499
33.457657 3.4212654 39.752502
35.55534 -16.304558 39.75251
30.963493 0.71720493 39.752495
19.241348 -17.835783 39.752499
38.663605 -0.28789258 39.596298
18.991222 -18.159117 39.752495
24.426367 -14.847363 39.752499
36.948921 -2.208569 40.009163
28.139355 -1.1238307 39.752499
21.797256 -19.908314 39.752499
36.044151 -3.7763543 39.752499
21.545792 -19.720926 39.752499
29.225756 -7.4518156 39.752499
37.743816 0.36495697 39.596298
20.216358 -8.0483408 39.752499
29.199066 -5.4090414 39.752499
25.227219 -19.743677 39.752499
23.295422 -13.775581 39.752499
33.024113 -16.582703 39.752499
41.239563 -14.3109 39.752541
25.275236 -21.50864 39.752499
36.792168 -4.862412 39.752495
29.080791 -16.010107 39.752499
30.355026 -17.51693 39.752499
24.480505 -8.7958755 39.752499
27.562771 -18.75025 39.752506
43.750183 -3.1133459 39.752506
21.607477 -10.293493 39.752499
28.826279 -20.000231 39.752518
43.912918 -0.17134857 39.752525
30.215584 -17.958735 39.752502
21.270977 -21.68898 39.752502
38.098797 -4.2016301 39.752502
29.347017 -15.329564 39.752495
38.241928 -0.20068228 39.596298
20.23852 -4.3642702 39.752495
23.466179 -13.808276 39.752499
33.131462 -2.0580838 39.752499
18.371359 -6.8465614 39.752499
30.014149 -13.524139 39.752499
30.02636 -18.073374 39.752502
36.599457 -17.120796 39.752525
35.08007 -20.302689 39.704102
33.116138 -1.8501687 39.752499
18.638603 -8.7469845 39.752495
36.904152 -6.0951037 39.752499
23.413904 -21.324661 39.752499
42.297523 -13.053764 39.752541
26.993523 3.2177548 39.752499
23.628094 -22.531326 39.752499
37.144688 -5.9049668 39.752502
26.050562 4.6999192 39.752499
43.524895 -4.4885325 39.752506
37.72517 -15.626911 39.752522
19.483793 -15.381468 39.752499
43.877289 0.26368856 39.752525
31.763569 -7.274828 39.752499
32.749496 -11.507285 39.752502
23.945208 -16.288578 39.752499
35.980888 -20.636 39.704102
39.330105 -3.1404636 39.752495
33.739422 -13.706319 39.752499
30.214233 0.42871583 39.752495
28.206959 -18.238806 39.752506
21.675886 -1.6854581 39.752499
21.023888 -16.171661 39.752499
19.788385 -8.4055939 39.752499
21.445663 -2.9323168 39.752499
20.754776 -2.3559391 39.752499
31.981037 1.8011785 39.752502
25.752897 1.4504628 39.752499
36.716316 1.9451474 39.596298
20.635122 -0.66071129 39.752499
30.990576 -15.715882 39.752499
31.01248 -19.364449 39.75251
33.068108 -6.9011765 39.752495
37.125099 -15.073917 39.752518
19.758438 0.1718781 39.752499
24.478531 -10.24291 39.752499
27.708946 -6.9208274 39.752499
31.007349 -2.8212235 39.752499
36.93742 -4.6592851 39.752499
