# .PCD v0.7 - Point Cloud Data file format
VERSION 0.7
FIELDS x y z
SIZE 4 4 4
TYPE F F F
COUNT 1 1 1
WIDTH 1512
HEIGHT 1
VIEWPOINT 0 0 0 1 0 0 0
POINTS 1512
DATA ascii
54.366699 -33.941872 -29.976284
55.439278 -22.393461 -28.342953
55.438286 -29.726398 -23.781315
53.78627 -35.007702 -29.976528
54.780991 -46.81567 -17.006514
55.27528 -38.127769 -29.082144
55.44101 -36.730099 -22.568954
55.439392 -35.57032 -20.625048
54.780373 -46.469078 -12.581589
54.781036 -42.841461 -17.327314
41.162205 -36.291313 -29.977341
54.389969 -37.013149 -29.976517
48.666443 -28.710464 -29.977493
46.770042 -30.545273 -30.184401
55.436531 -35.724792 -11.932528
51.644096 -42.903366 -29.320099
55.438145 -30.826082 -23.115864
55.532394 -30.217176 -16.5144
55.437027 -23.167089 -24.218281
47.22995 -43.565063 -29.326038
54.780102 -38.874382 -10.595957
54.781975 -41.82975 -24.110228
55.440189 -23.064886 -29.44696
44.160824 -36.854507 -29.9771
46.429153 -23.741806 -30.035133
55.434898 -34.081139 -10.124221
39.322964 -23.806414 -30.06267
47.207367 -24.68779 -30.119938
47.675026 -39.297527 -29.325439
51.700981 -34.872452 -29.977081
51.506973 -43.37677 -29.320282
55.440384 -37.146805 -19.739225
40.328606 -28.900263 -29.957201
54.782322 -40.369312 -26.597565
54.780342 -44.019829 -12.344405
52.996586 -23.360516 -29.975842
54.780647 -42.114601 -14.54625
55.435898 -27.488441 -20.928913
54.781708 -39.609875 -22.178589
43.692772 -42.799324 -29.330799
55.414101 -29.693857 -13.608973
54.781044 -42.66634 -17.404169
43.349289 -43.818367 -29.331261
54.78101 -48.547535 -17.129507
55.435753 -32.905056 -16.395361
41.97406 -33.650345 -29.977571
55.44017 -24.192493 -28.951309
40.188507 -28.383259 -30.038441
55.414101 -29.665623 -13.201716
48.480919 -47.346539 -29.324356
55.434994 -22.305988 -18.28125
50.291245 -39.671043 -29.321918
47.655632 -28.7549 -29.977909
44.87339 -22.785072 -29.957197
53.815529 -47.499569 -29.162424
54.781044 -45.382072 -17.404034
55.436493 -21.899956 -22.666405
53.115532 -26.623077 -29.976063
43.57753 -38.308651 -29.567358
55.437347 -22.664768 -25.151791
55.414104 -25.296364 -11.944597
55.436325 -27.371828 -21.768414
47.09819 -33.779709 -29.977354
50.894989 -48.551678 -29.321106
55.440331 -35.72699 -22.973259
49.472637 -40.410957 -29.323021
54.781452 -42.525066 -20.310886
54.781803 -39.979118 -22.856544
48.36425 -34.098217 -29.977276
54.781342 -41.847969 -19.532261
54.781654 -38.698288 -21.787676
54.780968 -45.312386 -16.849077
54.420631 -32.310627 -29.976143
44.782852 -46.30378 -29.329334
55.437511 -23.672932 -25.114246
54.780842 -38.649357 -15.935612
54.782413 -43.604225 -27.238697
48.773251 -32.385082 -29.977701
55.1241 -38.23938 -22.52478
55.44342 -35.231758 -29.332153
55.414101 -28.112652 -11.317653
54.781975 -46.143547 -24.078939
54.782166 -43.141975 -25.449457
50.085182 -30.701008 -29.977222
55.436501 -28.693926 -21.492989
43.506855 -35.228458 -29.97731
54.781105 -46.734707 -17.843094
53.407059 -34.408142 -29.976585
55.414101 -28.984924 -15.499844
49.057285 -45.030018 -29.323582
55.435551 -32.36797 -17.084343
55.434898 -32.762299 -11.642017
55.443771 -37.925068 -27.745619
55.506996 -26.967232 -17.023293
55.438759 -26.765419 -25.727716
55.438484 -31.308262 -23.432266
54.747307 -28.633615 -29.975765
54.781628 -47.222595 -21.613253
52.968174 -34.26762 -29.9767
45.574654 -44.290607 -29.328268
43.446747 -47.543404 -29.331129
45.948086 -22.431423 -29.957199
44.472855 -32.572258 -29.977654
54.782372 -44.162056 -26.94906
42.875195 -45.990864 -29.331902
49.520599 -44.026848 -29.322954
55.439247 -37.666042 -15.192686
54.780899 -48.215683 -16.346754
55.414101 -26.21549 -15.209949
45.806347 -48.295105 -29.327953
53.275986 -24.620209 -29.975861
55.439964 -22.371752 -29.397293
46.295494 -42.263512 -29.327297
44.54818 -39.77314 -29.329647
46.547066 -42.321793 -29.326956
46.332047 -40.346745 -29.327248
51.347248 -46.546936 -29.320499
54.780972 -48.15242 -16.876604
53.351433 -35.156479 -29.976662
54.781708 -45.197311 -22.130909
55.437485 -32.735764 -21.319284
54.780445 -42.49839 -13.077012
55.284924 -38.118587 -21.503033
52.428192 -22.552483 -29.975941
52.991585 -41.3297 -29.318283
55.44241 -36.770031 -26.549889
54.780273 -46.234287 -11.839889
55.414101 -25.279995 -13.094592
55.44083 -37.330959 -20.604826
48.014637 -46.931 -29.324984
54.873924 -30.140236 -29.975845
47.858959 -30.58651 -29.977837
54.780846 -39.26931 -15.982941
55.440575 -25.790281 -28.906878
48.248711 -37.910851 -29.976742
42.656136 -33.955833 -29.977497
55.442348 -36.652004 -26.639751
46.466145 -30.431128 -30.184402
42.327354 -41.529739 -29.332638
55.52916 -27.097811 -17.863785
55.440353 -34.28006 -25.043303
55.435871 -24.028339 -20.850178
50.137489 -45.479755 -29.322124
50.052528 -41.593483 -29.322241
49.574989 -22.659885 -29.977116
46.131718 -23.513142 -29.957199
55.43539 -34.939354 -10.481233
55.414101 -29.568781 -14.010398
50.028889 -38.51646 -29.322271
55.414101 -26.676287 -14.924021
54.782291 -41.371006 -26.367542
54.781399 -41.802181 -19.942623
55.43988 -23.784054 -28.682455
54.780098 -43.324837 -10.60334
55.559303 -23.88143 -17.068161
43.09705 -38.10405 -29.839916
53.487175 -39.42123 -29.272324
53.17989 -35.693718 -29.976749
42.915424 -27.241463 -29.957199
54.7803 -39.896782 -12.044197
55.414101 -28.748573 -14.354042
55.439053 -33.746559 -23.280483
42.887127 -26.529459 -29.957199
55.43581 -28.034313 -20.671902
55.562912 -30.982702 -14.390777
55.414101 -25.277431 -13.304405
54.181828 -21.689655 -29.975382
38.931549 -22.974848 -29.978001
44.304695 -30.166561 -30.016489
54.928268 -38.384743 -17.039936
55.436077 -24.25053 -21.444626
48.733562 -47.984543 -29.324015
55.441864 -28.572357 -29.723494
54.68639 -22.866585 -29.975334
42.551323 -38.897629 -29.332336
52.622471 -46.961353 -29.318781
55.438492 -34.231106 -21.201746
54.780697 -43.53249 -14.898705
55.437286 -36.978508 -11.135015
54.781689 -44.495422 -22.021168
48.661934 -38.180534 -29.737701
55.440323 -31.583033 -26.127197
43.60379 -25.069874 -29.957199
54.780819 -47.15992 -15.778345
40.084259 -23.024618 -30.159969
55.635006 -29.794458 -10.65
54.781883 -39.56863 -23.438667
41.375992 -39.45129 -29.333916
44.024624 -22.837543 -29.957199
54.781353 -45.492558 -19.600073
55.441875 -32.248043 -28.213276
54.781025 -43.184906 -17.255245
54.78038 -40.37114 -12.628316
54.781685 -42.137665 -22.003256
55.440437 -24.47164 -29.244158
55.437294 -23.413658 -24.889433
55.437675 -36.916718 -12.422832
54.529095 -42.482121 -28.645321
49.852905 -28.131285 -29.977089
55.44183 -30.074024 -29.049086
48.089901 -38.896973 -29.324881
48.68922 -48.592152 -29.324076
55.439697 -24.463097 -28.12286
39.689095 -31.135679 -30.008924
54.780266 -39.799255 -11.767717
55.102608 -27.738419 -29.975597
55.414101 -21.434109 -16.551666
55.334682 -38.082397 -25.779198
48.971123 -44.508198 -29.323696
45.148544 -39.617027 -29.32884
43.910187 -31.37216 -29.977955
55.435863 -21.177935 -20.83279
55.437355 -22.342039 -25.171753
55.435692 -29.121786 -20.0758
54.781902 -43.435753 -23.574554
44.062214 -25.092602 -29.957199
46.364082 -23.768852 -29.959274
44.217674 -41.512474 -29.330093
54.781879 -45.358311 -23.405048
55.434898 -33.437481 -10.291604
55.438206 -24.838066 -25.689955
46.399784 -27.02816 -30.000893
43.275074 -27.258297 -29.957199
54.146324 -30.244453 -29.976059
55.440258 -31.861012 -25.903055
55.441467 -31.605206 -27.856144
54.782024 -46.272343 -24.468576
55.435425 -22.412642 -19.536667
54.781292 -45.341106 -19.142067
55.439571 -21.725758 -29.063042
54.782116 -41.564293 -25.124317
55.435417 -23.185345 -19.52762
54.782082 -42.838802 -24.869707
55.440128 -30.435856 -26.295893
55.437134 -23.648232 -24.527382
55.414101 -29.991318 -13.511095
55.438805 -22.36224 -27.627747
54.782223 -41.060825 -25.855494
55.414101 -22.888042 -16.658607
54.780243 -39.187836 -11.615378
51.561123 -30.685411 -29.976812
55.578693 -29.228172 -17.785738
54.425541 -38.948601 -28.956278
55.43718 -22.6654 -24.678288
55.414101 -24.477951 -13.785627
54.029133 -29.324238 -29.976017
54.547852 -38.682163 -28.58901
49.706917 -24.779449 -29.977062
46.88493 -28.787354 -30.184401
55.434898 -31.3706 -15.975279
54.439262 -38.785389 -28.915073
44.464478 -40.808498 -29.329762
43.215366 -31.461815 -29.97793
55.441147 -29.002375 -28.447018
54.190491 -41.711082 -29.036922
48.764072 -47.902252 -29.323975
55.438992 -27.635645 -25.728159
54.781898 -48.019512 -23.563583
42.001289 -31.511959 -29.977921
55.228508 -38.162334 -27.16888
51.707069 -40.638348 -29.320013
47.894432 -36.442619 -29.976919
42.523079 -25.745794 -29.957197
42.174866 -36.819252 -29.977224
55.438496 -28.891853 -24.451977
52.523258 -31.195335 -29.976585
46.396442 -47.007481 -29.327162
45.780308 -28.169466 -29.957199
43.347626 -46.812531 -29.331263
43.712997 -35.558434 -29.977264
47.595711 -36.486549 -29.976933
52.966187 -29.437067 -29.976324
39.806068 -28.577316 -30.184399
54.780464 -46.392918 -13.2048
41.476116 -30.44413 -30.184401
54.780136 -43.268234 -10.858473
55.436451 -35.134293 -13.107904
48.003731 -39.861542 -29.324997
55.414097 -29.18611 -10.844138
54.781235 -42.319714 -18.743141
54.519836 -40.609562 -28.673138
50.502636 -34.38987 -29.977201
54.781345 -38.503723 -19.554029
55.437775 -32.560635 -21.823845
54.016071 -39.143429 -29.095301
55.434898 -31.490864 -12.201361
52.686718 -35.853291 -29.976835
55.439095 -36.43396 -17.695406
51.04731 -42.471748 -29.3209
52.753105 -28.323101 -29.976297
55.441586 -27.045244 -29.930275
54.782089 -44.498867 -24.899828
43.64476 -24.80735 -29.957199
43.893059 -30.15049 -29.997753
41.963623 -38.416092 -29.424355
55.437569 -22.574978 -25.65625
54.567448 -39.572857 -28.530155
55.438168 -33.046181 -22.22649
54.782017 -43.766258 -24.394918
54.781147 -43.249264 -18.144375
54.781719 -47.06889 -22.249693
55.436737 -34.193642 -16.181879
55.440926 -37.034054 -21.596703
44.512306 -35.55265 -29.977217
55.436043 -21.47237 -21.355961
54.780739 -40.944561 -15.203598
54.781403 -46.225536 -19.978827
48.982605 -41.087799 -29.323679
44.571457 -40.586662 -29.329617
54.781162 -42.371296 -18.245937
55.440964 -33.833496 -26.156887
55.441525 -35.21793 -26.442612
43.969551 -41.86816 -29.330425
54.78064 -43.573357 -14.487001
44.290592 -36.144711 -29.977169
55.436539 -34.221306 -15.532066
55.439259 -32.129261 -24.272812
54.780777 -39.88932 -15.449466
54.781509 -39.039101 -20.757448
43.997135 -27.417412 -29.957199
54.780609 -38.829678 -14.255693
45.078045 -44.308121 -29.328936
44.320816 -29.534231 -29.957199
47.427197 -35.991844 -29.976997
55.6413 -22.030405 -17.23036
51.164902 -34.83268 -29.977091
43.966999 -44.048218 -29.330431
54.781326 -41.024971 -19.399271
54.182014 -32.932278 -29.976257
47.74176 -24.857273 -29.977871
54.78072 -45.382919 -15.059599
45.027283 -45.322128 -29.329002
55.439457 -37.070301 -17.231997
55.440147 -36.956238 -19.518482
46.237202 -46.04055 -29.327375
55.414101 -23.968103 -13.191464
55.436966 -29.020504 -22.059422
55.437996 -29.833031 -23.300396
47.995514 -37.347313 -29.976818
40.612198 -31.647022 -29.977884
55.440159 -35.086712 -24.00469
44.636631 -29.410593 -29.957199
54.432636 -47.332962 -28.934971
47.613548 -25.238485 -29.977924
50.883587 -34.721031 -29.977118
55.439297 -34.588165 -22.69018
49.812302 -41.579399 -29.322563
55.6413 -30.345083 -13.6013
45.959194 -39.024136 -29.327747
55.435692 -33.574738 -14.614111
46.265499 -46.33881 -29.327335
55.435783 -33.484989 -15.10215
45.199722 -38.585342 -29.328772
44.394165 -47.895168 -29.329855
55.440449 -25.223701 -28.959234
53.6343 -29.632229 -29.976154
55.439655 -35.982449 -20.409279
50.174313 -39.838497 -29.322077
44.74456 -40.008785 -29.329384
52.091248 -44.107544 -29.319496
49.931255 -27.688585 -29.977032
45.56065 -34.016586 -29.977318
55.050537 -38.292973 -16.525681
53.760361 -25.806894 -29.975819
55.438023 -33.561111 -21.441517
54.782265 -43.360592 -26.166906
55.439472 -35.562061 -20.883017
50.461113 -25.641838 -29.976753
54.780605 -38.845348 -14.203063
44.788666 -24.035212 -29.957199
54.781975 -41.673111 -24.093727
48.345802 -28.691854 -29.977623
55.414101 -22.44331 -15.216544
55.438572 -34.411308 -20.99649
54.435062 -39.907173 -28.927691
42.984177 -44.328918 -29.331751
54.781116 -45.149273 -17.901644
55.442574 -32.010025 -29.36935
54.781799 -45.140873 -22.803215
54.419716 -25.853336 -29.975641
55.414101 -29.552826 -16.637794
41.401585 -37.947678 -29.977152
54.109161 -26.414303 -29.975769
54.317604 -44.733604 -28.994377
44.099388 -27.531246 -29.957199
55.43507 -22.760525 -18.506916
52.87149 -45.733925 -29.318445
54.7803 -44.566738 -12.013858
55.438148 -30.704967 -23.164989
54.781494 -44.888535 -20.634804
54.781067 -41.464226 -17.561865
44.606392 -23.523027 -29.957199
50.469704 -23.590775 -29.976749
50.758217 -27.882175 -29.976818
55.435272 -29.847313 -19.101717
42.1194 -38.485077 -29.332458
54.780903 -39.698677 -16.383986
55.447277 -30.115391 -16.972059
50.108452 -45.104996 -29.322165
52.455349 -33.890289 -29.97681
55.435841 -21.526054 -20.754826
54.780445 -47.345058 -13.0812
54.782356 -41.043724 -26.849195
55.436096 -29.57542 -20.508591
55.437874 -37.042107 -12.692983
55.436893 -28.585758 -22.134792
43.592026 -41.869354 -29.330935
53.037392 -27.059891 -29.97612
54.780724 -43.423817 -15.083535
41.680679 -38.31987 -29.552526
40.844475 -35.633018 -29.97743
55.439522 -32.96965 -24.320877
55.441696 -33.904102 -27.248928
43.787895 -27.354216 -29.957199
43.419003 -38.46384 -29.360664
55.139641 -38.226593 -18.07922
48.166794 -35.784874 -29.976971
43.129955 -33.921043 -29.977472
55.435043 -30.250288 -18.438644
55.435356 -26.922493 -19.345856
55.634712 -30.304951 -15.486715
55.441338 -30.120995 -28.273689
54.082527 -22.246971 -29.975452
55.436913 -22.918068 -23.893211
44.171318 -30.449348 -30.184402
55.438133 -26.920044 -24.715473
55.439533 -34.654373 -23.220272
50.67025 -30.974007 -29.977081
54.781731 -47.28978 -22.332394
55.441154 -37.841026 -20.336464
47.428558 -40.859772 -29.325771
54.782402 -45.03812 -27.154961
41.901173 -27.258389 -29.957199
43.192787 -26.223881 -29.957199
55.414101 -24.89809 -13.025126
44.780979 -22.564646 -29.957199
54.780987 -47.406395 -17.000416
55.440121 -27.948746 -27.319065
55.440002 -27.756832 -27.223175
54.780617 -40.82357 -14.290421
55.439072 -31.197861 -24.371708
55.434898 -31.692448 -14.453829
55.439781 -36.252853 -20.142351
54.888691 -23.054169 -29.975292
55.069721 -38.281097 -26.268154
41.532543 -29.295404 -29.957199
55.434898 -33.382736 -10.584192
54.781124 -41.05043 -17.978615
55.439186 -29.277981 -25.348705
55.436283 -28.601883 -21.195017
55.414101 -27.881374 -16.714504
55.437767 -27.691742 -23.835136
54.780643 -40.135635 -14.507369
49.750797 -34.316586 -29.977219
55.436626 -33.966946 -16.399132
55.43779 -35.858028 -15.269423
55.436081 -26.706665 -21.460846
54.782131 -45.817249 -25.218828
55.439064 -33.937462 -23.220322
55.641304 -25.77309 -17.515877
54.780792 -42.170071 -15.600539
54.78009 -39.576271 -10.504817
55.414101 -24.687622 -12.50399
54.780792 -42.032326 -15.574043
42.812752 -38.02417 -29.946335
49.686447 -23.328178 -29.977072
44.857231 -27.286953 -29.957199
54.743629 -44.327087 -28.001129
42.186195 -34.887882 -29.977428
50.391312 -33.167721 -29.977333
44.585068 -48.242752 -29.329597
52.164463 -48.21183 -29.319397
46.593769 -29.547316 -30.184401
55.439617 -28.485998 -26.329208
55.439888 -31.741243 -25.394709
55.440269 -36.039749 -22.045866
55.436508 -32.976627 -18.436153
46.226974 -23.075336 -29.957199
46.428707 -40.065121 -29.327118
55.440296 -28.210997 -27.482233
55.439949 -34.88961 -23.860008
55.438309 -34.313789 -20.459677
47.491379 -44.494171 -29.325687
55.440094 -30.65601 -26.159225
54.781898 -44.829052 -23.557425
55.436619 -33.006508 -18.682051
55.414104 -28.249329 -11.15858
54.113369 -28.75992 -29.975952
55.439087 -36.411568 -17.723463
55.187805 -33.233425 -29.975998
44.499477 -29.839802 -29.957199
55.44136 -35.02351 -26.278437
50.69379 -26.820889 -29.976753
55.444172 -37.98362 -28.777475
55.436516 -24.800446 -22.729469
54.202118 -44.651562 -29.033028
55.442104 -32.850281 -28.308002
49.403721 -23.842079 -29.977188
49.317223 -25.931679 -29.977224
54.781723 -38.662975 -22.264793
54.781837 -48.173592 -23.096519
55.439888 -34.744465 -24.034094
54.782001 -40.450184 -24.282753
55.438816 -25.656015 -26.280651
44.001305 -37.918976 -29.976997
55.439323 -24.201172 -27.655441
51.827003 -30.695112 -29.976738
51.645576 -43.486893 -29.320095
54.440228 -43.41539 -28.912167
55.435337 -28.698179 -19.298496
47.417587 -44.180573 -29.325787
55.438389 -34.64505 -19.904568
55.43642 -26.849079 -22.135658
48.496384 -46.609741 -29.324333
39.277164 -27.074501 -30.033594
52.389343 -45.937698 -29.319096
55.438587 -23.058418 -27.013474
51.515755 -27.128304 -29.976547
47.647743 -28.390633 -29.977913
55.435642 -33.581982 -14.453474
50.311001 -42.668266 -29.321892
55.434959 -26.389196 -18.198652
54.780342 -39.554672 -12.354121
54.781452 -46.576576 -20.327835
41.18779 -36.726913 -29.977295
55.436848 -32.620865 -20.263311
55.438179 -32.735332 -22.373955
54.780083 -41.348427 -10.486382
52.76918 -22.151375 -29.975811
48.636894 -44.590599 -29.324146
45.886318 -39.548096 -29.327847
55.408123 -38.026756 -23.442583
48.708767 -37.701752 -29.976738
53.218521 -41.066284 -29.31798
44.932594 -46.835888 -29.32913
48.114944 -35.736088 -29.97698
54.781246 -46.336132 -18.85911
54.782448 -42.89872 -27.498182
50.38726 -41.783188 -29.321789
52.69413 -34.563404 -29.976797
54.780598 -45.482155 -14.179667
46.42358 -25.511471 -30.028629
55.43961 -35.848064 -20.592611
54.781277 -43.878601 -19.053505
55.435814 -27.987944 -20.692146
47.755196 -29.20401 -29.977867
43.799873 -46.816277 -29.330654
54.78096 -40.896492 -16.789396
54.782425 -45.99749 -27.3407
52.624596 -26.817039 -29.976215
55.437672 -23.308132 -25.514479
55.437679 -35.025112 -16.938839
54.781372 -46.41824 -19.747135
43.117722 -40.57333 -29.33157
55.442612 -31.58498 -29.607288
41.04277 -31.52223 -29.977917
55.440239 -22.123507 -29.916927
55.414101 -29.099916 -13.526933
55.438934 -32.592922 -23.578732
55.067879 -25.521679 -29.975435
54.345264 -38.069996 -29.88459
44.82798 -34.635559 -29.977295
54.78027 -44.508942 -11.82112
45.617546 -42.534111 -29.328207
55.444317 -37.558704 -29.731834
39.135532 -28.09864 -29.978001
55.439507 -22.102577 -28.805361
50.218163 -43.308498 -29.322016
42.236168 -29.412582 -29.957199
55.435253 -25.306101 -19.045525
54.781162 -42.333736 -18.237206
54.780861 -38.497513 -16.089022
55.437721 -32.486782 -21.772873
55.437218 -23.742054 -24.636904
46.828674 -33.202118 -29.977495
40.403625 -33.107582 -29.977724
42.836655 -30.750061 -30.184401
43.031403 -44.780029 -29.331688
55.436489 -35.068073 -13.378494
55.438759 -25.131622 -26.410961
55.6413 -29.993484 -17.633705
55.441025 -36.068214 -24.189209
55.437225 -35.340855 -14.873864
55.441628 -36.783367 -24.240471
55.442707 -32.196281 -29.498747
55.641304 -22.881094 -17.644966
54.78199 -46.996845 -24.221874
55.438927 -21.612061 -28.12949
55.442562 -37.775116 -24.583742
54.781837 -38.77232 -23.11301
55.434963 -22.876572 -18.207054
47.572578 -34.15419 -29.977261
45.966759 -45.766537 -29.32774
54.781647 -47.099571 -21.741575
54.782017 -39.511826 -24.398716
55.442871 -34.062382 -28.975775
55.441776 -35.099297 -26.877884
55.436241 -27.260178 -21.691385
54.78159 -40.220612 -21.322744
55.437462 -30.076946 -22.382639
55.641296 -30.325195 -15.138144
43.484192 -41.864998 -29.331079
49.139877 -46.150787 -29.323467
55.44046 -35.672081 -23.486271
55.563854 -20.920116 -17.809122
46.953659 -22.465214 -30.184401
47.880981 -27.743416 -29.977816
44.638824 -25.026115 -29.957199
55.641296 -24.449335 -17.228708
55.436661 -34.393463 -15.488858
55.442959 -36.921478 -27.778622
45.863514 -43.661545 -29.327877
54.780289 -39.418606 -11.944989
47.354797 -30.862822 -30.026363
50.952271 -40.320251 -29.321028
46.478439 -41.889366 -29.327051
47.06752 -40.697701 -29.326256
51.215981 -45.575115 -29.320675
54.782093 -44.659515 -24.949368
39.479446 -22.858223 -30.162018
55.435097 -28.392012 -18.580755
44.265068 -44.851585 -29.330029
55.435974 -35.621643 -10.559237
54.781372 -46.595387 -19.753872
45.078766 -24.814358 -29.957199
41.7463 -31.132454 -30.010969
52.792221 -44.464317 -29.318554
55.439632 -25.540327 -27.580811
54.239998 -40.203979 -29.020355
50.879265 -41.277824 -29.321127
54.782288 -39.745739 -26.365444
54.781193 -44.608658 -18.44875
42.29026 -28.493006 -29.957199
44.390827 -41.087864 -29.329859
52.182255 -35.237904 -29.976988
49.002579 -24.997263 -29.977352
38.721657 -26.222818 -29.978001
54.781315 -41.982487 -19.3424
44.986076 -31.878796 -29.977829
55.437973 -36.085999 -15.251127
54.781136 -46.224709 -18.062668
55.437786 -33.783333 -20.209707
54.780563 -43.011547 -13.932371
54.780754 -38.868 -15.287208
53.125313 -42.58049 -29.318104
55.44154 -31.417057 -28.041096
47.456959 -37.84964 -29.976797
52.542595 -26.099663 -29.976181
55.414101 -26.504711 -16.918713
55.438984 -35.064087 -20.643709
55.434898 -30.123753 -9.7592001
55.435287 -32.83305 -15.205651
55.43882 -37.807281 -13.611825
55.434898 -31.541286 -12.0909
46.942589 -28.265129 -30.184399
55.434898 -32.659866 -11.466951
55.437691 -31.789577 -22.020287
54.354713 -37.824673 -29.976385
54.782387 -45.22324 -27.070919
47.823891 -35.619003 -29.977009
54.782375 -48.201267 -26.98436
43.569065 -38.295952 -29.584272
54.780754 -43.611183 -15.276989
54.781647 -46.180542 -21.717384
52.9491 -33.943886 -29.976679
49.32254 -23.496704 -29.977222
44.166138 -33.709969 -29.977432
51.022064 -37.178257 -29.976652
55.443794 -35.433098 -29.816587
52.386871 -34.939529 -29.976913
55.533791 -30.074421 -10.736826
54.781143 -46.485844 -18.090107
54.78088 -44.275402 -16.197441
42.983028 -41.817474 -29.331753
46.161201 -27.208939 -29.957199
52.525043 -42.646343 -29.318911
55.438156 -33.338345 -22.085726
47.124802 -24.636772 -30.172342
47.221153 -47.807705 -29.32605
51.61805 -22.551811 -29.976276
50.547192 -38.010277 -29.964367
55.439827 -30.506666 -25.814919
55.437546 -27.486935 -23.584644
52.745861 -34.08427 -29.976748
55.442368 -36.859047 -26.211491
42.645744 -23.039564 -29.957199
50.572033 -46.044765 -29.321541
54.430294 -40.227348 -28.942007
55.43708 -21.394684 -24.386587
52.352112 -34.223579 -29.976868
55.414101 -29.73497 -13.388855
53.87508 -26.72345 -29.975859
54.780437 -42.860382 -13.038562
54.780075 -41.780647 -10.434131
48.360859 -31.827705 -29.977793
53.215572 -46.546722 -29.317982
54.781158 -44.076942 -18.219074
51.408836 -41.689018 -29.320415
55.434986 -26.800947 -18.26786
49.943642 -28.376247 -29.977081
53.849411 -36.175812 -29.976601
47.460068 -32.253021 -29.977734
54.932022 -33.88932 -29.97612
55.438583 -37.514595 -13.628456
55.439213 -35.062828 -21.310356
53.508514 -45.743923 -29.265179
48.435989 -40.427925 -29.324417
54.782085 -41.403732 -24.871292
54.78096 -40.977196 -16.778637
54.780685 -46.571743 -14.825315
39.939285 -30.599115 -30.184402
55.440525 -24.677773 -29.295483
55.438293 -37.359375 -13.159037
45.221615 -32.3382 -29.977713
40.583881 -34.467461 -29.97757
44.197823 -32.834831 -29.977589
55.43882 -23.470905 -27.187794
54.781128 -41.928757 -18.002789
47.329082 -47.153503 -29.325905
50.657219 -25.026852 -29.976669
54.782337 -41.154789 -26.681339
53.98893 -45.45372 -29.104385
54.781754 -47.981346 -22.510834
55.436222 -23.355059 -21.87109
55.438148 -33.961266 -20.854858
55.436577 -29.732641 -21.173706
46.423801 -38.285042 -29.598633
54.780281 -39.186787 -11.899952
55.435467 -23.379078 -19.672821
54.782005 -47.808907 -24.345892
51.969662 -40.800476 -29.31966
50.727409 -29.240177 -29.976933
54.781166 -44.893139 -18.277695
46.79208 -34.202499 -29.977249
50.658295 -34.99165 -29.977051
43.192081 -22.917324 -29.957199
54.781673 -41.024036 -21.939043
54.780403 -39.820583 -12.762466
54.780594 -43.761429 -14.157236
53.256741 -36.403809 -29.976696
54.781136 -40.888248 -18.063099
55.414101 -24.137981 -13.879407
54.780735 -47.273361 -15.156525
54.780617 -43.211304 -14.318876
49.061676 -36.69722 -29.976822
41.528801 -25.961439 -29.957199
44.606064 -24.933765 -29.957199
49.575352 -37.272232 -29.97673
55.437866 -32.293179 -22.075066
50.673897 -46.9422 -29.321404
54.780575 -40.793098 -14.009256
47.728214 -47.410549 -29.325369
46.498074 -27.519318 -30.115475
41.897617 -30.43507 -30.184402
54.782406 -39.502018 -27.205751
47.020512 -48.146374 -29.326319
54.782436 -47.717499 -27.407272
52.647537 -26.707352 -29.9762
55.440315 -36.387981 -21.349937
55.44017 -31.287571 -26.004112
55.43742 -25.972656 -24.01833
46.775116 -36.292721 -29.977001
42.474266 -23.031952 -29.957199
54.781845 -43.415394 -23.175564
48.450844 -44.400146 -29.324394
55.435417 -34.527908 -11.547349
47.306171 -22.462606 -30.057228
42.007751 -29.947742 -29.957199
45.434818 -44.447655 -29.328453
52.427254 -44.29126 -29.319046
54.781685 -45.596893 -22.025593
42.27142 -40.993042 -29.33271
54.781494 -39.86937 -20.633932
42.735737 -29.104244 -29.957199
55.43792 -37.54063 -11.640192
55.414101 -27.294367 -11.007432
54.782303 -43.789597 -26.458439
54.782017 -41.808155 -24.406004
39.863308 -25.112223 -30.184402
54.780556 -38.647831 -13.867665
55.439018 -28.801262 -25.284788
55.442039 -29.31876 -29.673254
55.414101 -29.246283 -11.62578
41.351376 -27.880156 -29.957199
54.780125 -43.620537 -10.778676
54.781315 -43.880661 -19.339035
48.793724 -26.276333 -29.977438
55.440048 -29.428381 -26.593531
43.212444 -45.292698 -29.331444
45.991947 -41.969063 -29.327705
55.438416 -22.213959 -27.100449
55.471684 -29.029144 -17.95434
55.641304 -23.182718 -17.469696
55.436554 -35.838291 -11.727026
45.800232 -30.110176 -29.957199
47.206532 -46.653614 -29.326069
55.435036 -28.069679 -18.409058
51.697773 -44.546486 -29.320024
55.441822 -27.793955 -29.9739
55.217747 -27.248056 -29.975525
43.186031 -42.708572 -29.331482
55.436947 -22.451294 -23.995502
55.6413 -27.71767 -10.417654
55.434898 -31.585211 -14.297078
55.6413 -24.304014 -17.491446
54.782349 -47.514439 -26.780518
54.54007 -28.051018 -29.975777
54.426434 -34.04422 -29.976274
54.589649 -36.133968 -29.976391
54.780827 -39.778519 -15.846737
49.629803 -36.004608 -29.97686
54.782452 -48.089973 -27.528221
42.147911 -32.844261 -29.977646
54.781189 -40.050468 -18.411922
41.242073 -28.476439 -29.957199
48.857513 -31.540937 -29.977633
42.884056 -41.73304 -29.331886
54.782471 -48.167511 -27.665998
53.193855 -44.283035 -29.318012
55.438316 -35.84705 -16.833706
55.441891 -29.411787 -29.416599
55.435619 -31.442719 -19.001741
54.679802 -39.716228 -28.192787
43.44812 -34.71521 -29.977371
48.84008 -24.598873 -29.977421
55.414101 -24.035706 -14.783528
54.781574 -47.10891 -21.216217
54.781849 -43.50938 -23.166384
55.641304 -30.734324 -13.013831
55.440434 -35.444672 -23.955225
51.563541 -46.723305 -29.320206
55.437 -32.72366 -20.461275
55.439125 -26.855057 -26.259052
42.766369 -43.964195 -29.332045
39.638538 -30.697786 -30.184401
55.43634 -24.450247 -22.209236
43.867088 -31.834854 -29.977837
54.780235 -48.441372 -11.5608
55.440083 -34.129944 -24.698557
52.800323 -35.176544 -29.976816
54.474529 -43.229111 -28.809175
54.781532 -41.780655 -20.902969
54.78249 -40.614956 -27.818045
55.435223 -21.952614 -18.963333
49.376938 -43.245407 -29.323147
54.782299 -43.440655 -26.415485
54.866745 -32.443676 -29.976028
55.435215 -21.714458 -18.936659
55.436905 -23.023518 -23.875952
55.436226 -26.84696 -21.833752
55.6413 -29.16461 -17.602016
55.437855 -35.819443 -15.555907
48.043793 -23.883223 -29.977749
55.440434 -31.035179 -26.513321
54.781197 -39.371117 -18.471388
43.17337 -45.606163 -29.331499
52.263847 -36.089993 -29.976776
55.434982 -30.491261 -18.24921
55.440105 -24.48024 -28.732449
49.043732 -46.081944 -29.323597
55.43829 -35.962742 -16.481434
54.781384 -42.311493 -19.85367
55.435181 -32.410137 -15.911274
39.208359 -27.019644 -29.989908
54.672558 -44.657394 -28.21454
50.063091 -32.895317 -29.977398
52.326607 -31.045076 -29.976625
54.781197 -44.660927 -18.483507
51.120026 -36.231094 -29.976748
55.438488 -33.505318 -22.523964
55.438545 -33.346741 -22.676535
52.021339 -22.387859 -29.976109
51.02206 -39.304558 -29.320934
55.440178 -36.4006 -20.924881
38.674538 -26.614952 -29.978001
54.266064 -34.962391 -29.976391
49.492661 -47.082184 -29.322992
55.414101 -30.072151 -15.960784
55.440796 -29.738018 -27.606253
54.524864 -43.612099 -28.658039
44.883827 -44.394032 -29.329195
43.882915 -44.606892 -29.330544
54.780571 -38.944508 -13.975396
49.176285 -40.693405 -29.323421
49.093658 -41.409172 -29.32353
46.224396 -38.830284 -29.327391
54.699337 -42.482834 -28.134129
55.437286 -31.914032 -21.350452
44.238518 -25.23703 -29.957199
55.437263 -34.678619 -16.557877
55.434898 -32.948986 -11.607726
54.956779 -38.364616 -21.863182
55.437729 -34.117874 -19.247414
54.780266 -45.9198 -11.823429
40.918804 -34.388622 -29.977556
54.781441 -46.853188 -20.225655
54.781967 -40.166492 -24.050117
55.435883 -25.487705 -20.88438
44.295601 -26.003349 -29.957199
55.435555 -32.913551 -15.791796
44.367348 -24.078064 -29.957199
55.436111 -35.765335 -10.612787
51.849823 -28.724922 -29.97658
54.782413 -46.409607 -27.272152
41.980042 -23.440472 -29.957199
47.532036 -48.254047 -29.325632
41.690216 -25.562874 -29.957199
54.780792 -42.232391 -15.603278
55.435974 -34.042656 -14.326571
45.294018 -35.682842 -29.977158
55.4352 -29.836906 -18.891485
51.777164 -40.77916 -29.319918
43.928154 -27.753164 -29.957199
55.436161 -21.186016 -21.697226
51.505951 -30.855272 -29.976841
55.437546 -29.396835 -22.789665
55.440876 -29.027128 -28.02343
44.411911 -44.580753 -29.329832
55.436085 -25.173555 -21.470984
55.435715 -25.748657 -20.399784
39.452648 -27.208504 -30.145004
47.585495 -25.80212 -29.977936
54.548317 -42.174171 -28.587612
41.769852 -35.685669 -29.977367
55.414101 -22.697191 -14.831203
54.782074 -42.815136 -24.807451
45.007339 -40.740105 -29.329031
55.47036 -23.068657 -17.95643
53.433281 -42.188496 -29.290363
55.435589 -23.388523 -20.027355
39.082832 -27.093874 -29.978001
55.440178 -23.933594 -29.074389
50.298222 -29.543186 -29.977077
54.673084 -38.501163 -28.212944
54.780449 -43.228436 -13.080492
48.880257 -33.933678 -29.977314
54.858124 -38.440475 -29.331184
48.622738 -28.04969 -29.977509
42.067093 -38.979637 -29.332989
42.504089 -35.821339 -29.97731
41.124378 -25.030258 -29.957199
55.435631 -25.547432 -20.145445
55.437073 -25.6679 -23.615559
54.781548 -40.306183 -21.015863
54.78157 -45.030071 -21.180338
46.340828 -41.415283 -29.327236
54.781796 -45.871136 -22.789932
44.265217 -47.3857 -29.330029
55.43956 -37.198021 -17.233404
55.435249 -32.203571 -16.603859
48.08622 -23.746819 -29.97773
52.296928 -35.362396 -29.976957
55.435795 -32.493069 -17.499863
54.782425 -47.383583 -27.338409
44.547485 -23.4608 -29.957199
55.436928 -35.307793 -14.068286
55.437988 -31.680637 -22.51553
55.439125 -37.889435 -14.312137
43.085678 -40.204979 -29.331615
43.598061 -36.237541 -29.9772
54.781494 -39.672142 -20.621166
48.234451 -27.769461 -29.977669
50.322914 -23.15263 -29.97681
55.444336 -37.832565 -29.609495
55.438683 -27.318119 -25.388723
55.441273 -27.955389 -29.069862
54.78064 -47.805672 -14.504148
55.436214 -30.467377 -20.3176
41.063587 -30.091095 -29.957199
51.436481 -27.30197 -29.976583
55.436974 -28.892307 -22.128468
54.780369 -46.177834 -12.516261
49.932327 -23.811012 -29.976971
39.604843 -29.62999 -30.184401
55.434898 -31.804714 -15.921054
55.434978 -27.919725 -18.24502
55.438282 -21.701811 -27.105085
54.780411 -48.340431 -12.810404
42.468773 -22.965427 -29.957199
50.947617 -22.558327 -29.976551
45.306984 -36.020935 -29.977119
55.443508 -35.994331 -29.14147
50.067719 -40.753311 -29.32222
55.441395 -30.403202 -28.240683
55.436943 -36.646038 -10.92354
54.780396 -47.758724 -12.7324
42.18499 -43.013512 -29.332829
54.780708 -47.393669 -14.971471
50.242611 -27.672251 -29.976944
55.439629 -34.9879 -22.714098
55.437187 -31.735313 -21.277958
54.781574 -43.423504 -21.2269
54.780907 -46.535877 -16.400202
51.341728 -36.207058 -29.976748
40.935894 -23.04422 -29.957199
42.800331 -37.624184 -29.9771
43.538086 -44.54084 -29.331007
54.781502 -47.126839 -20.686718
46.649475 -33.719906 -29.977367
46.523643 -24.236725 -30.145281
42.205925 -30.875147 -30.174278
54.781776 -42.430054 -22.668087
55.440369 -37.917213 -17.85677
42.665344 -30.856834 -30.184402
55.436283 -22.783836 -22.048286
49.877625 -40.67207 -29.322475
53.890457 -40.728024 -29.137344
55.441021 -30.614525 -27.583876
43.453232 -34.791519 -29.977362
49.035793 -33.188801 -29.977503
44.641041 -34.775753 -29.977291
55.441399 -36.861469 -23.386778
55.44025 -35.127728 -24.16811
55.439205 -35.666817 -19.848993
54.780266 -43.1922 -11.798923
54.501297 -22.266642 -29.975338
55.437225 -30.067204 -22.02001
55.438728 -25.053101 -26.405596
55.440701 -33.414551 -25.934853
55.437775 -29.989344 -22.892315
53.271278 -43.502113 -29.317907
55.430336 -25.187096 -29.975307
55.437351 -22.911186 -25.177677
52.115372 -30.187626 -29.976618
55.439438 -27.716763 -26.373627
53.551453 -48.126011 -29.250809
50.819344 -23.086672 -29.976604
45.685001 -38.496754 -29.31669
42.029842 -40.272755 -29.333036
53.1838 -39.635754 -29.318026
47.183411 -33.44957 -29.977436
54.781784 -46.746292 -22.715515
45.311943 -33.333496 -29.977465
41.21917 -32.927792 -29.977694
53.611397 -42.682098 -29.230745
55.441105 -26.601786 -29.384441
54.781425 -38.697285 -20.139214
51.936695 -24.15704 -29.976198
55.43589 -27.386196 -20.911863
45.684082 -29.729889 -29.957199
50.694088 -30.203243 -29.977015
48.698608 -30.283531 -29.977577
55.436432 -30.974459 -20.438955
55.442123 -31.747992 -28.801956
55.414101 -23.531752 -15.823503
55.097778 -23.541594 -29.975269
48.82798 -37.383133 -29.976763
46.714199 -42.412868 -29.326733
47.84409 -37.697102 -29.976789
55.44001 -30.701397 -26.004997
55.414101 -26.135931 -12.400213
54.780716 -43.522003 -15.048708
48.176689 -40.160095 -29.324764
52.84267 -39.984318 -29.318483
51.179146 -41.981445 -29.320724
55.6413 -21.687332 -17.549894
54.781128 -47.940872 -18.018835
46.322994 -23.739285 -29.957199
50.815434 -35.862267 -29.976833
54.78194 -44.171524 -23.858856
55.435928 -21.218864 -21.018101
44.210861 -42.528442 -29.330101
54.780304 -47.2514 -12.057135
55.435516 -24.59305 -19.823341
45.14135 -47.948181 -29.32885
54.78178 -43.794121 -22.698591
54.782093 -39.032288 -24.954306
49.455715 -28.534197 -29.97723
54.780136 -43.99741 -10.86604
55.226063 -31.36697 -29.975845
55.434898 -32.103924 -10.559986
55.414101 -27.32794 -14.387849
42.073383 -34.246696 -29.977505
55.435295 -29.891724 -19.151905
44.995918 -36.776779 -29.977058
55.435863 -23.486496 -20.82221
47.004917 -23.74622 -30.184401
40.615276 -34.912479 -29.97752
42.261967 -34.293941 -29.977486
48.831745 -35.106873 -29.977022
43.605843 -29.325384 -29.957199
42.963131 -29.010246 -29.957199
55.437553 -24.732065 -24.742542
54.780693 -39.708515 -14.849754
49.650669 -39.773972 -29.322783
55.440594 -26.072945 -28.817236
54.78159 -45.237007 -21.333488
48.950306 -40.0522 -29.323725
55.571205 -30.969641 -13.587666
46.487328 -28.416203 -30.102947
55.54171 -21.564604 -17.053066
54.978081 -38.349739 -26.096733
55.439209 -26.066927 -26.711485
55.437065 -31.720428 -21.095577
54.7803 -45.126373 -12.041451
54.980827 -30.294348 -29.975826
55.43515 -32.47538 -15.665862
51.370613 -25.848629 -29.976486
54.512848 -24.417622 -29.975502
46.131248 -34.419239 -29.977242
55.434898 -32.160126 -11.030205
54.780949 -43.262604 -16.713884
40.204742 -29.909737 -30.019516
55.443768 -35.423988 -29.782806
54.782272 -46.271072 -26.232986
55.43602 -35.786903 -10.299668
55.43811 -27.8002 -24.316189
55.437424 -27.321518 -23.465216
55.436192 -32.375443 -18.930626
53.51498 -48.32719 -29.263018
48.479477 -40.864975 -29.324356
54.78093 -40.898895 -16.560038
44.88472 -43.168251 -29.329193
55.438225 -26.783203 -24.913525
55.132072 -38.232277 -18.144625
55.442219 -36.595901 -26.411165
41.646835 -24.824869 -29.957199
55.442451 -37.724941 -24.390825
54.781185 -40.938927 -18.412144
55.435989 -33.885971 -14.745832
55.442879 -36.883232 -27.640749
55.443188 -36.111504 -28.60622
54.552582 -48.625633 -28.574795
50.619263 -46.562828 -29.32148
54.657043 -38.24791 -29.647598
55.443062 -35.15554 -28.807789
55.049068 -23.515476 -29.975285
46.466976 -37.756145 -29.976868
54.7813 -44.925766 -19.253017
55.436523 -29.064602 -21.367031
54.782009 -39.985325 -24.32836
54.780441 -40.975384 -13.055623
46.713917 -40.590111 -29.326733
55.436684 -32.128899 -20.338093
54.782429 -42.457973 -27.376724
54.563789 -34.250317 -29.976252
55.434898 -32.663086 -10.938477
55.6413 -30.731989 -10.684918
55.440403 -26.813231 -28.221434
54.780521 -39.828136 -13.622455
55.44101 -37.370884 -21.039955
55.437798 -36.678925 -13.342246
47.816753 -26.782904 -29.977844
54.870258 -38.428181 -16.868389
55.556541 -30.237888 -15.251125
49.488041 -31.323038 -29.977438
41.983986 -33.514038 -29.977585
55.437843 -33.967781 -19.948084
40.25597 -22.510252 -29.959803
54.782028 -42.225826 -24.483959
54.78175 -45.631149 -22.453779
53.071983 -21.795368 -29.975698
55.437592 -23.338717 -25.374111
46.76754 -36.930092 -29.976936
50.12344 -33.870056 -29.977329
54.780979 -38.877419 -16.904163
39.041615 -24.628849 -29.978001
54.78212 -39.140533 -25.158607
48.168797 -45.521088 -29.324776
44.614975 -44.103909 -29.329559
54.780109 -45.103218 -10.647079
52.344379 -36.619045 -29.976646
39.872757 -26.157104 -30.184401
55.571201 -29.382153 -17.797543
54.780273 -46.637108 -11.83227
50.908436 -38.872574 -29.321089
55.436344 -26.752495 -22.060352
46.748142 -28.796068 -30.184401
42.893467 -22.541626 -29.957199
55.438393 -33.768677 -22.01405
54.780319 -45.526962 -12.165712
48.257145 -34.41304 -29.977194
53.916348 -45.519363 -29.128681
55.438828 -32.051743 -23.64003
40.935646 -30.069284 -29.957199
55.434978 -27.578497 -18.241922
51.149544 -45.389603 -29.320765
51.575573 -47.256599 -29.32019
55.435875 -34.220497 -13.618327
54.781433 -44.91468 -20.206892
55.43782 -29.171417 -23.307163
55.434898 -31.939198 -11.99128
55.437733 -28.908245 -23.273613
54.781841 -44.626068 -23.116821
54.090946 -41.825737 -29.07024
54.781044 -45.677979 -17.380508
55.561359 -29.010616 -9.9701462
55.43964 -27.22298 -26.885807
55.438423 -36.78297 -14.905753
44.322029 -41.941338 -29.329952
42.263512 -30.8386 -30.184401
55.435917 -24.489769 -20.986362
41.94574 -40.609886 -29.333153
55.438339 -30.542171 -23.525331
55.436172 -23.232569 -21.736864
47.127861 -45.556023 -29.326174
50.774349 -28.213093 -29.976837
39.630371 -31.503916 -29.97794
55.438713 -25.3153 -26.261848
55.437622 -34.985321 -16.876673
55.443687 -36.288975 -29.294935
47.390976 -40.674637 -29.325821
39.678513 -30.722992 -30.184399
55.438416 -28.693569 -24.409721
54.780445 -43.002926 -13.072131
47.961185 -48.364468 -29.325056
55.268021 -38.132099 -24.784929
55.434898 -31.820316 -10.058472
51.794037 -30.410927 -29.976727
55.439278 -34.938545 -21.795252
54.781891 -39.642273 -23.484051
55.414101 -23.180296 -15.656172
52.066574 -41.26255 -29.319527
54.78186 -46.150669 -23.273708
40.637817 -33.261452 -29.977692
55.43536 -34.802105 -10.719597
51.853382 -48.006256 -29.319817
38.75145 -26.367855 -29.978001
55.561527 -30.98489 -10.576321
54.860756 -25.960348 -29.975525
55.440384 -30.529243 -26.647131
54.782001 -39.598709 -24.280384
48.180573 -27.052864 -29.977692
54.781498 -42.992554 -20.656725
54.782146 -45.944611 -25.337999
50.187515 -30.518215 -29.977182
55.442192 -34.752007 -27.657295
49.386734 -45.979908 -29.323135
39.341564 -24.036266 -30.07448
42.051857 -28.29929 -29.957199
41.614983 -32.983437 -29.977665
41.523567 -27.787872 -29.957199
46.961773 -48.421284 -29.326399
55.274605 -38.126045 -20.424074
55.439484 -33.156361 -24.187828
55.437401 -37.330997 -10.636933
55.435699 -24.788996 -20.348795
55.439178 -30.75798 -24.715466
55.436241 -31.053156 -20.119102
55.440662 -36.348465 -22.466648
41.331066 -33.009541 -29.977678
47.861988 -35.786171 -29.976992
53.153011 -38.464134 -29.359678
55.231407 -38.155914 -10.688373
54.7812 -38.54422 -18.52198
42.237118 -28.292479 -29.957199
54.5942 -40.736443 -28.449837
48.990181 -38.062767 -29.89455
54.680046 -45.232838 -28.192047
54.23069 -43.079613 -29.02347
53.236614 -38.921467 -29.317955
55.436577 -35.058163 -13.651455
50.592205 -31.062927 -29.977112
43.347378 -37.728508 -29.977058
46.259438 -26.834953 -29.957199
55.443138 -36.153614 -28.512867
54.780552 -43.4132 -13.852804
54.781685 -41.454857 -22.004784
52.608505 -44.452446 -29.3188
54.78183 -43.853725 -23.03857
47.321869 -23.863951 -30.047264
55.43602 -27.853848 -21.108673
43.446316 -38.247837 -29.648373
50.240517 -44.914642 -29.321987
55.435646 -33.58091 -14.46262
55.435963 -33.439457 -15.73038
55.435215 -23.270721 -18.940901
45.846264 -40.962494 -29.3279
51.112591 -38.487083 -29.329239
39.207901 -23.204086 -29.989618
55.438652 -36.510658 -16.223974
55.148666 -34.758053 -29.97613
40.836487 -29.437815 -29.957199
50.412849 -37.497795 -29.976656
44.375233 -41.112503 -29.329882
55.441368 -30.909 -27.983994
54.781883 -48.000893 -23.460163
55.442249 -37.092121 -25.305145
54.781738 -46.815708 -22.41851
54.781509 -45.674923 -20.746901
50.618599 -35.74334 -29.976862
55.480755 -23.928478 -17.94005
39.816807 -31.721487 -29.977907
55.442932 -36.683197 -27.977825
55.50753 -28.714464 -9.885334
54.781445 -44.56353 -20.284477
55.438087 -24.344891 -25.712677
42.57267 -42.986305 -29.332306
55.437447 -25.261738 -24.362095
43.337215 -47.374844 -29.33128
55.435616 -34.260693 -12.761868
55.161263 -34.244217 -29.976086
49.427757 -25.666227 -29.977177
54.781487 -45.140533 -20.573883
46.035709 -43.161423 -29.327644
43.033237 -42.305443 -29.331684
45.303955 -23.315712 -29.957197
43.725307 -24.75676 -29.957199
55.441128 -35.869648 -24.965483
49.559776 -29.35335 -29.977266
49.188057 -41.154823 -29.323402
55.437962 -23.252125 -25.9757
54.231503 -30.479124 -29.976051
51.285839 -46.604355 -29.32058
55.436829 -22.218067 -23.643154
53.118244 -24.702286 -29.975912
55.441452 -36.145035 -25.235899
49.492138 -25.025932 -29.977152
54.782089 -47.469479 -24.930515
55.436668 -31.224133 -20.689041
55.440948 -36.728809 -22.391615
44.289772 -29.017838 -29.957199
54.780273 -43.9958 -11.823059
55.439438 -24.624477 -27.654686
44.040676 -34.244045 -29.977385
43.428085 -45.151169 -29.331154
51.840317 -23.280045 -29.976185
55.440895 -37.945259 -19.33988
43.113358 -24.517971 -29.957199
44.973412 -35.536484 -29.977192
53.26128 -37.989742 -29.976433
50.896179 -43.19902 -29.321104
54.030483 -23.45594 -29.975561
55.242668 -38.149551 -18.755352
54.474068 -43.648293 -28.810556
43.882881 -29.756569 -29.957199
43.246792 -44.447617 -29.331398
55.434898 -32.119892 -14.540051
55.597504 -24.453449 -17.756105
39.792175 -26.129089 -30.184402
47.630817 -41.362461 -29.325499
55.641304 -27.566837 -10.139585
44.202213 -33.24667 -29.977486
45.08189 -27.293837 -29.957199
55.436672 -34.387604 -15.526648
55.435192 -27.229193 -18.863228
51.256386 -38.754772 -29.32062
55.414101 -23.196774 -15.863552
54.78204 -39.457428 -24.563501
50.887131 -42.034172 -29.321117
45.139797 -26.882961 -29.957197
47.562286 -48.1161 -29.32559
55.438889 -22.349251 -27.76343
55.435013 -33.430336 -12.97753
55.441273 -27.173693 -29.400555
44.081284 -38.740368 -29.330275
39.930527 -25.747232 -30.184399
54.781319 -47.222649 -19.366627
54.398026 -25.104258 -29.975588
54.781067 -41.446247 -17.563797
55.435978 -32.745342 -17.431915
50.251663 -31.170279 -29.977215
48.858555 -23.005489 -29.977413
41.99247 -28.465317 -29.957199
54.780369 -42.865528 -12.517668
54.781727 -42.995102 -22.311657
55.252693 -30.222748 -29.975748
54.782341 -40.497761 -26.712395
50.609146 -30.957092 -29.9771
55.436386 -26.907175 -22.055531
41.964931 -42.117672 -29.333124
55.44212 -30.287569 -29.398354
55.436455 -32.436527 -19.548964
55.436646 -24.765059 -23.102932
54.994965 -28.643524 -29.975697
52.322605 -44.99881 -29.319183
52.39006 -40.28521 -29.319094
55.414101 -24.950558 -13.768675
40.646332 -24.081831 -29.957199
52.551254 -30.412092 -29.976515
51.943905 -38.385315 -29.464737
51.467941 -34.531986 -29.977135
52.362076 -37.69038 -29.976519
44.201988 -29.157387 -29.957199
40.566261 -25.96871 -29.957199
55.013077 -32.272026 -29.975973
54.781479 -38.690285 -20.517345
42.825287 -29.415754 -29.957199
55.439514 -27.754021 -26.473307
55.440918 -34.562424 -25.788551
53.692116 -33.559223 -29.976442
55.414101 -21.656727 -15.50331
45.246017 -25.260891 -29.957199
41.170074 -33.485008 -29.977638
46.232117 -37.732689 -29.976883
45.364616 -37.988472 -29.976908
55.414101 -29.948587 -16.683376
54.850616 -26.374111 -29.975561
54.780159 -47.658993 -11.010223
54.689732 -42.538307 -28.162971
55.440575 -36.153942 -22.684521
45.319141 -34.121998 -29.977322
53.704231 -32.838081 -29.976383
40.779953 -29.426594 -29.957199
49.06271 -34.71804 -29.977119
41.204102 -23.962696 -29.957199
55.441593 -35.46545 -26.443665
53.579681 -36.368084 -29.97669
54.780556 -39.082317 -13.877524
51.16713 -39.60273 -29.32074
54.780769 -43.549171 -15.408029
55.435806 -21.292702 -20.661219
55.435677 -24.316769 -20.275713
52.664421 -27.881762 -29.976288
55.441784 -29.407709 -29.24593
55.438255 -36.773209 -14.438847
54.781967 -40.46349 -24.029442
55.181519 -38.194656 -15.952852
46.573399 -37.718742 -29.976866
43.713417 -46.268665 -29.330772
53.037178 -36.209244 -29.976748
44.460957 -39.898895 -29.329765
40.402496 -23.124035 -29.957199
47.382133 -36.13237 -29.976984
54.781872 -48.119942 -23.332253
51.732231 -26.589592 -29.976446
43.020264 -27.002008 -29.957199
55.439198 -35.530872 -20.146309
53.929909 -41.954887 -29.12414
54.782448 -39.510281 -27.494795
54.780548 -42.183762 -13.826962
40.42688 -26.144482 -29.957199
44.111919 -35.694809 -29.977226
55.435257 -29.588428 -19.064783
55.439003 -36.60479 -17.021488
54.607639 -48.371376 -28.409466
48.304306 -44.327106 -29.324593
44.998367 -47.37878 -29.329042
50.562847 -34.357796 -29.977207
55.438133 -34.62833 -19.216095
55.43631 -35.780689 -11.146275
54.780842 -48.522881 -15.945295
41.694427 -26.551514 -29.957199
51.179916 -24.68549 -29.976456
55.441975 -30.954416 -28.891865
55.436531 -32.551708 -19.496937
47.938904 -36.057404 -29.976959
52.05814 -24.333931 -29.976179
49.476562 -26.435108 -29.977158
47.611538 -37.811951 -29.976791
52.424446 -43.432163 -29.31905
55.414101 -21.21291 -16.755733
55.414101 -24.619314 -15.958273
46.102283 -48.001354 -29.327557
54.780186 -39.737171 -11.189917
40.744278 -23.335915 -29.957199
54.781975 -43.872158 -24.096231
47.585663 -44.380684 -29.32556
46.132111 -45.224152 -29.327515
43.881771 -37.364113 -29.977064
55.435051 -21.933733 -18.459259
55.435135 -24.809467 -18.700317
47.596867 -47.34383 -29.325544
54.781376 -41.232613 -19.784258
43.39592 -24.404541 -29.957199
55.414101 -25.595772 -14.192842
54.780483 -48.165981 -13.366343
43.106483 -34.815777 -29.977379
40.833668 -35.663986 -29.977428
54.782021 -47.199791 -24.434572
54.78159 -41.623768 -21.316866
51.644981 -39.134285 -29.320099
55.442749 -37.88649 -24.854029
54.78054 -47.703133 -13.767438
54.781212 -46.920403 -18.608704
54.425629 -42.090183 -28.956026
55.414101 -28.798851 -15.193301
54.589489 -32.901432 -29.976143
39.039207 -23.326115 -29.978001
42.74073 -44.931011 -29.332081
51.017151 -28.06469 -29.976759
48.706154 -38.972801 -29.324053
48.667339 -22.421419 -29.977493
54.781353 -39.604321 -19.620544
54.782162 -39.122601 -25.434231
54.260452 -47.854355 -29.013508
54.782349 -41.938046 -26.777687
55.441307 -33.856686 -26.67841
51.152557 -37.262749 -29.976635
54.014549 -39.889839 -29.09581
53.581207 -33.770817 -29.976488
55.43803 -28.797604 -23.779202
55.438049 -30.435125 -23.135479
54.780491 -44.076569 -13.393999
55.434898 -33.173561 -10.738733
51.727383 -35.355335 -29.976961
55.6413 -30.765953 -11.908131
55.414101 -27.847103 -13.121487
43.407627 -24.437962 -29.957199
43.973202 -45.174854 -29.330421
54.781509 -41.953259 -20.746334
55.438221 -33.619843 -21.872551
55.414101 -27.570847 -14.424906
55.441475 -37.579247 -21.887068
55.439976 -29.277599 -26.548492
55.436852 -27.436192 -22.548809
54.780243 -47.948696 -11.62514
45.617424 -36.290764 -29.977072
47.349968 -38.038368 -29.927145
48.318939 -42.041985 -29.324574
43.370106 -32.254166 -29.977734
54.781788 -46.23885 -22.751986
55.436783 -33.196095 -18.706007
54.781284 -46.135361 -19.119749
55.208679 -38.173252 -11.876125
52.12661 -26.376423 -29.976318
47.16922 -39.314129 -29.326118
54.78249 -48.57579 -27.80328
55.437744 -30.465748 -22.64822
54.676079 -47.617043 -28.203964
52.495457 -47.141499 -29.318951
54.782295 -42.825569 -26.416929
