# .PCD v0.7 - Point Cloud Data file format
VERSION 0.7
FIELDS x y z
SIZE 4 4 4
TYPE F F F
COUNT 1 1 1
WIDTH 1555
HEIGHT 1
VIEWPOINT 0 0 0 1 0 0 0
POINTS 1555
DATA ascii
21.261002 22.475899 -28.29192
4.8842468 19.414238 -33.401375
18.191202 20.531307 -31.519413
-0.089998245 13.271454 -30.000893
18.170462 15.22345 -31.465374
20.272175 24.992462 -24.115118
6.8553386 7.6124897 -29.978001
7.5011921 13.927502 -29.986059
10.402802 7.7997589 -29.978001
2.7509642 10.609983 -30.2346
19.952732 7.5508962 -29.978001
14.982072 11.598593 -29.978001
-0.3392334 18.485601 -34.959732
12.719249 19.246201 -33.656273
11.098106 15.743602 -35.676315
5.9218268 17.582531 -36.440189
22.081268 19.729349 -32.850441
8.1225109 18.515045 -34.884724
5.030839 15.227419 -32.919018
9.7630863 17.879725 -35.934772
13.953079 9.4258995 -29.978001
15.965357 6.3659639 -29.978001
11.547011 18.808573 -34.386677
16.028032 15.971513 -35.676399
15.852103 15.226707 -32.632938
16.050926 22.572971 -28.130804
0.35617256 9.3880711 -29.821697
12.725863 15.233243 -34.982197
1.6945825 16.460558 -36.276657
20.147743 5.109581 -29.978001
20.528151 26.058187 -22.346308
4.8383589 16.534439 -36.619965
21.103855 23.233402 -27.034672
0.41223907 21.243856 -30.376637
21.725937 13.456351 -29.978001
21.203005 15.219812 -30.161232
11.936281 11.020853 -29.978001
1.7766173 10.15144 -29.950054
1.5352345 15.232076 -34.566406
6.2072773 20.020899 -32.389782
4.2414665 15.234342 -35.363754
0.063944817 17.579649 -36.463047
10.084208 5.9806643 -29.978001
20.047705 24.349302 -25.182583
19.220413 23.102396 -27.252106
13.756107 15.112141 -29.98225
20.824581 11.501402 -29.978001
10.207206 16.394869 -35.985489
12.679543 15.232784 -34.81831
18.981428 15.226768 -32.654369
15.198381 21.304859 -30.235523
0.72179794 21.683678 -29.645245
17.715656 12.23134 -29.978003
1.7632027 22.464827 -28.344738
20.464693 14.926812 -29.978001
13.528298 21.878216 -29.283913
14.759182 18.289728 -35.239819
2.9652576 15.108906 -30.015476
2.8165357 12.274943 -29.978916
3.8779268 15.887044 -35.676159
11.497232 19.595524 -33.079895
0.78858328 17.612167 -36.406811
4.2053905 19.31127 -33.574474
8.6030293 15.728167 -35.676258
13.682476 25.024834 -24.061384
2.1594992 15.223557 -31.544237
22.356688 2.8951616 -29.978001
18.853588 16.500719 -36.454025
21.568512 21.986538 -29.104126
10.463003 24.376179 -25.143612
-0.85658425 17.343672 -36.801441
8.0917416 13.214836 -29.978001
6.5275521 15.228092 -33.155972
10.721338 16.542305 -36.639774
19.592613 19.191011 -33.743935
5.9955406 15.224227 -31.772839
1.2909646 15.541286 -35.676102
4.2647605 15.219859 -30.212776
0.98469353 18.369152 -35.14904
11.946651 3.8911138 -29.978001
22.250736 15.223937 -31.6397
3.8355675 15.23039 -33.977898
18.552452 19.929707 -32.517899
16.915653 18.341446 -35.15398
6.6521215 15.229146 -33.533127
10.455857 13.265853 -29.978001
2.3015442 19.061977 -33.99437
3.2142467 18.492228 -34.937763
18.954884 12.509986 -29.978001
10.870039 7.2676659 -29.978001
6.254878 13.266371 -29.981266
10.857636 11.19496 -29.978001
14.158277 12.057012 -29.978001
10.378217 22.822281 -27.724516
20.044436 26.105291 -22.268124
21.954144 15.226993 -32.735023
10.471165 16.344162 -35.760963
18.832165 15.232013 -34.534054
19.591976 24.981684 -24.133005
11.177053 24.286266 -25.290731
4.6129251 14.242043 -29.999069
21.131649 15.23097 -34.160633
4.8117495 8.3959742 -29.821699
22.05669 7.1607089 -29.978001
7.6949224 11.4995 -29.978003
0.34167528 10.105549 -29.841656
13.953769 21.6511 -29.660856
21.36043 11.809408 -29.978001
18.347 3.221242 -29.978001
20.527237 23.151909 -27.16993
4.2292113 21.368641 -30.157619
0.49167883 8.5550518 -29.821701
19.593309 20.843891 -31.000607
2.4311738 15.768692 -35.676125
9.7203598 24.40567 -25.096924
1.2514731 10.833021 -30.117001
7.1807251 17.697029 -36.246147
16.986189 20.260876 -31.96825
17.910202 10.318344 -29.978001
13.859838 16.77076 -36.756035
5.1422949 12.382646 -29.978001
17.876951 2.9820578 -29.978001
8.3537273 17.4254 -36.693638
8.7617588 7.4721642 -29.978001
13.679261 21.395103 -30.085745
0.007689476 19.661842 -33.005219
8.8878117 15.233154 -34.952141
5.7023144 15.220575 -30.464989
5.3494034 6.0272694 -30.2346
17.250179 1.4334221 -29.978001
16.737551 15.234238 -35.331642
22.629707 16.434191 -36.159439
20.085171 4.6656551 -29.978001
15.766613 23.40637 -26.747593
2.9953704 17.880909 -35.953682
19.773092 19.998577 -32.403595
2.1412172 15.233232 -34.971821
4.1764612 17.325804 -36.785912
2.3673198 12.608124 -29.984652
22.257273 18.37196 -35.103333
7.42064 6.4190412 -29.978001
6.5294981 15.223124 -31.375614
13.179422 13.918775 -29.978001
5.6529088 19.523691 -33.217232
14.66947 9.4316349 -29.978001
18.740131 16.339066 -35.738235
15.741867 14.553205 -29.978001
8.6984425 11.805069 -29.978001
4.3308706 15.224363 -31.826862
6.446228 21.336393 -30.204332
12.053636 24.297279 -25.269735
12.354934 15.224752 -31.941685
8.9070101 15.220643 -30.479315
3.7676482 20.730148 -31.219423
6.2665262 10.057936 -29.978001
6.1566734 13.110183 -29.979528
1.0025744 11.436749 -29.978001
10.899091 20.154535 -32.153366
20.871279 15.228404 -33.240677
16.321705 2.9108505 -29.978001
9.8402376 23.04081 -27.363251
17.721087 12.381136 -29.978001
14.893848 8.2171602 -29.978001
20.427467 15.227221 -32.817142
15.971239 3.5236897 -29.978001
16.393845 4.8921113 -29.978001
17.656441 7.8353605 -29.977999
16.842155 17.646 -36.308231
19.717571 3.1757751 -29.978001
3.6207776 22.036047 -29.051102
-0.70206928 17.893717 -35.943821
22.002481 4.1455708 -29.978001
8.7615738 20.535545 -31.527203
6.3066378 15.229893 -33.801739
4.6118793 21.040972 -30.700619
2.8356557 15.232287 -34.641941
1.5924466 15.221443 -30.78904
13.056736 19.276913 -33.604221
-0.36275482 17.917063 -35.904007
7.2777648 8.564105 -29.978001
12.391102 5.7929716 -29.978001
8.6024227 12.899946 -29.978001
15.113571 21.339319 -30.178331
5.0749187 9.3436489 -29.89875
10.657576 21.993164 -29.100605
19.651226 15.222623 -31.168989
10.339069 15.528887 -35.6763
0.66178465 14.353167 -30.012705
19.577995 26.15733 -22.181753
9.2937326 20.014835 -32.390331
2.2548804 18.395136 -35.101967
0.75785971 17.575092 -36.468475
8.8622627 17.523968 -36.52837
4.4509616 22.466463 -28.333725
13.267612 2.9956112 -29.978001
9.1096096 18.688875 -34.592983
14.896643 12.371323 -29.978001
13.539364 9.7572985 -29.978001
-0.23100471 17.740931 -36.196106
18.825199 19.481775 -33.261345
7.8447838 19.771006 -32.799744
16.369566 21.158504 -30.478432
17.100948 25.554642 -23.182053
2.2764974 13.75661 -29.999933
15.511047 21.954205 -29.157791
3.3672934 19.165905 -33.818478
4.5720325 18.684687 -34.613949
6.4740853 6.445014 -29.978001
22.594141 9.7176189 -29.978001
4.1022043 14.904885 -30.009304
12.958996 9.8402882 -29.978001
18.208902 15.227113 -32.777794
14.495073 19.879192 -32.601746
13.025649 13.439855 -29.978001
9.3187904 15.22326 -31.415985
5.8646879 15.226988 -32.761848
4.690362 17.928455 -35.869492
14.104737 15.222692 -31.198296
17.74015 10.345608 -29.978001
14.113777 23.388908 -26.776573
12.880988 21.302528 -30.240723
16.645485 16.548985 -36.667732
16.52898 24.319553 -25.23196
13.058881 18.30969 -35.210533
12.551353 15.449795 -35.676346
19.568245 11.202988 -29.978001
5.6295724 8.8685684 -30.2346
18.489248 9.0459042 -29.978001
15.517859 15.234562 -35.447792
8.1936569 7.7642183 -29.977999
5.8265514 13.709103 -29.988369
5.8549647 19.872574 -32.637203
10.604707 16.142902 -35.676304
5.203124 17.625906 -36.370369
5.8113914 19.586868 -33.11182
22.336872 13.849629 -29.978001
1.1198058 21.349464 -30.199062
13.774765 25.126942 -23.891916
4.9234114 10.261082 -30.209045
13.524459 20.153515 -32.146961
11.210798 21.304541 -30.242535
13.035865 15.224463 -31.835453
1.1879897 15.229004 -33.48909
0.096887469 8.9370136 -29.821701
7.102036 13.031166 -29.978001
16.791636 19.7094 -32.883553
9.9755087 22.2498 -28.676506
14.563183 15.947254 -35.676392
-0.48616409 16.100618 -35.676449
3.8955276 10.257667 -30.200975
3.6453235 15.22221 -31.057814
17.678099 18.554976 -34.79958
15.662355 15.221568 -30.790182
18.102295 15.452662 -35.676399
0.76884079 19.446878 -33.359867
2.5139809 22.890076 -27.636183
15.944934 14.256179 -29.978003
16.910885 15.220392 -30.369286
9.001338 21.530233 -29.874527
20.110016 25.526953 -23.228003
12.413426 3.8103707 -29.978001
10.123204 20.622314 -31.378899
18.928654 15.234174 -35.308556
10.883982 18.364708 -35.125874
20.498388 15.232355 -34.656921
19.119528 15.233465 -35.054932
1.391716 14.589767 -30.013542
11.44395 24.216789 -25.405293
16.312407 15.219669 -30.110212
6.0931468 22.396187 -28.445372
9.0697346 22.330664 -28.545006
2.223305 10.763547 -30.186287
20.41468 4.1790667 -29.978001
12.680647 23.68856 -26.279234
2.6614213 13.924829 -30.000944
1.5780284 15.224292 -31.80957
16.4352 6.3995466 -29.978001
7.7817211 15.229849 -33.781513
22.175945 15.222702 -31.197031
7.0577946 10.356904 -29.978001
19.702951 15.227571 -32.942123
15.943917 24.856766 -24.340336
20.436356 23.152327 -27.169239
19.41383 16.4865 -36.39106
4.4235582 16.427553 -36.130417
5.4475346 20.984438 -30.791927
2.5171013 15.232971 -34.880959
20.280506 6.6430802 -29.978001
6.9414797 8.5895214 -29.978001
19.034275 18.372242 -35.102867
18.111158 15.229008 -33.457367
12.531134 8.9247379 -29.978001
6.2542396 19.743433 -32.850441
12.357233 23.220364 -27.057289
9.6355391 15.061664 -29.994293
13.037066 15.234982 -35.597347
11.098574 23.159094 -27.162924
20.963558 7.9606981 -29.978001
21.57004 15.220419 -30.379021
11.938295 10.99281 -29.978001
0.05502367 15.223989 -31.706219
9.5165548 15.224361 -31.809914
7.9858265 8.7060432 -29.978001
19.716808 15.219906 -30.194801
14.451873 22.151897 -28.829678
16.081348 7.4086161 -29.978001
14.974305 9.4609241 -29.978001
-0.31895781 15.230409 -33.979935
20.532249 23.171566 -27.137306
20.467781 1.9971513 -29.978001
21.478172 18.777824 -34.42971
17.607651 21.071903 -30.622166
4.61976 20.785816 -31.124344
10.257368 18.504379 -34.895847
0.3037256 15.220922 -30.606218
13.086094 4.0363164 -29.978001
15.639664 14.597382 -29.978001
16.149708 1.6274104 -29.978001
19.805679 7.9727173 -29.978001
17.604818 14.442433 -29.978001
-1.0817175 17.211325 -36.802139
11.754412 3.4467125 -29.978001
9.3937454 8.1978178 -29.978001
8.1847677 11.919883 -29.978001
21.715256 5.3709679 -29.978001
19.89006 15.229284 -33.556347
13.764622 15.22089 -30.55316
10.264038 15.230301 -33.935486
21.307966 15.220606 -30.445629
21.599428 3.2156954 -29.978001
14.621925 15.226659 -32.617386
5.5784922 18.340263 -35.182838
1.0603261 11.737782 -29.978001
5.1282473 18.73988 -34.520569
14.922074 5.2960763 -29.978001
7.0382075 7.0928144 -29.978001
9.105526 15.221313 -30.718767
18.069178 21.547312 -29.833118
12.172586 7.583611 -29.978001
18.458338 14.360114 -29.978001
7.3741989 16.54879 -36.681396
16.439795 13.612304 -29.978001
1.4592447 15.136621 -30.020479
19.416061 15.219797 -30.156303
11.673308 15.22287 -31.269161
22.630104 5.8508925 -29.978001
9.2563772 16.545828 -36.661297
18.143661 21.833101 -29.358791
16.417126 15.224197 -31.73307
0.84130836 15.223989 -31.703674
22.999533 8.1477709 -29.978001
2.0004802 7.8762569 -29.821697
20.985001 18.157784 -35.458805
16.23061 21.765551 -29.470905
6.9518042 19.468811 -33.304363
20.601597 15.231696 -34.420547
9.2464714 16.428665 -36.135174
19.583849 25.08823 -23.956163
14.196268 6.5655527 -29.978001
16.944567 4.008698 -29.978001
6.7719073 15.232662 -34.777924
22.177591 17.885532 -35.910671
15.910454 15.225588 -32.231079
14.96095 15.227904 -33.062744
13.364309 11.465806 -29.978001
22.47867 15.234241 -35.332836
13.731884 22.548077 -28.172127
20.175634 11.24633 -29.978001
19.085676 19.483082 -33.259171
21.252373 2.8688478 -29.978001
18.394032 10.037364 -29.978001
21.777401 15.234763 -35.519955
5.9693427 15.225538 -32.24258
3.3818569 14.304367 -30.003679
10.757701 15.231684 -34.429356
22.831167 3.7714615 -29.978001
-0.96607286 17.314392 -36.801781
13.170299 10.883464 -29.978001
7.2846022 15.219757 -30.167545
13.609492 22.235382 -28.691113
19.485277 20.970881 -30.789837
0.58334446 19.416561 -33.410789
12.266198 20.163088 -32.134945
17.756199 5.8192105 -29.978001
15.504056 20.177736 -32.106239
6.602695 18.822742 -34.378403
19.236963 6.7611618 -29.978001
0.2902379 15.003482 -30.022345
8.2320738 22.079472 -28.964754
15.142322 15.225904 -32.345303
13.497449 9.3170033 -29.977999
20.899353 21.009802 -30.725243
14.062639 5.1410537 -29.978001
17.54141 24.186283 -25.453148
0.40332794 15.231668 -34.422035
16.817909 17.07395 -36.7537
2.1188931 9.0974274 -29.821697
22.469433 18.353102 -35.134632
20.431454 25.54328 -23.200907
0.63439465 18.569601 -34.817223
16.066132 5.4926362 -29.978001
21.582058 15.223064 -31.326687
7.1258011 6.1601758 -29.978001
16.01895 21.979671 -29.115522
11.172722 20.664188 -31.306118
18.234694 6.3837461 -29.978001
14.981277 15.226391 -32.520164
7.0900598 11.130369 -29.978001
8.3745651 13.582821 -29.978863
15.268997 15.476999 -35.676399
20.390373 15.235102 -35.640953
16.367054 15.231886 -34.488701
18.865906 22.78718 -27.775278
10.527198 9.6361361 -29.978001
2.3420043 15.2204 -30.412359
6.9555006 16.30369 -35.676548
7.7529292 12.553786 -29.978001
16.651598 21.488052 -29.931477
18.733006 13.03231 -29.978001
10.948067 22.533829 -28.201799
7.5213327 21.538914 -29.864683
15.328883 15.231218 -34.249378
1.9445906 13.240274 -29.994213
17.318167 4.7242913 -29.978001
10.313382 18.584103 -34.763271
8.3171263 15.226381 -32.537964
4.0691557 11.005002 -29.978001
17.910507 10.765791 -29.978001
22.095921 11.789049 -29.978001
8.2472544 15.219358 -30.021305
17.901548 15.224228 -31.743654
12.056074 16.770039 -36.7616
9.6267185 18.554594 -34.8144
10.461843 21.81213 -29.401865
9.3008432 6.8437438 -29.978001
21.220509 18.459282 -34.958405
7.1059599 18.224297 -35.37072
18.598795 15.232063 -34.552219
8.3142147 5.4511824 -29.978001
8.7166319 15.229434 -33.629978
21.000099 9.3774195 -29.978001
14.742034 14.675278 -29.978001
12.3329 17.919024 -35.861572
11.78252 16.587408 -36.76244
7.4935265 15.234279 -35.345249
4.5580339 14.334854 -30.000454
15.601696 21.585915 -29.769053
16.703484 22.677265 -27.957706
21.511591 14.881271 -29.978001
12.934265 23.133213 -27.20096
13.609269 20.804398 -31.066154
1.0941362 18.300772 -35.262264
16.450731 15.22717 -32.798462
10.03677 23.076754 -27.302948
20.897034 20.703382 -31.233812
16.113279 24.004848 -25.754284
4.5188928 16.661835 -36.784859
21.571888 15.220613 -30.448708
7.9247155 9.3240557 -29.978001
8.66889 11.4858 -29.978001
14.853547 21.112862 -30.554188
14.024809 16.333567 -35.713917
6.5581956 12.672866 -29.978001
16.638279 22.73069 -27.869038
7.794291 15.220868 -30.564041
1.7715216 18.862844 -34.32671
11.497218 11.355503 -29.978001
14.269865 24.172049 -25.47678
2.2031562 16.536474 -36.637917
22.110994 13.271352 -29.978001
0.49041271 10.190758 -30.042931
15.663133 19.733503 -32.843548
21.443085 15.223907 -31.628887
16.483839 15.223027 -31.314011
3.4363341 11.816447 -29.978001
4.0595808 22.966988 -27.503685
16.538311 8.2249422 -29.978001
16.709072 16.433165 -36.154892
9.6162643 15.030597 -29.993948
13.956173 11.208889 -29.978001
12.90452 4.4765396 -29.978001
15.766968 6.1181746 -29.978001
16.756367 15.220764 -30.502663
8.1084318 17.583439 -36.431931
4.7761803 12.590179 -29.978001
7.5715685 14.56411 -29.994156
13.527731 20.14785 -32.156361
16.862375 4.5346508 -29.978001
19.677177 8.8657722 -29.978001
11.734934 10.931778 -29.978001
14.815255 19.698277 -32.902012
5.5932178 16.396566 -35.993172
2.0872693 22.723961 -27.913383
8.5219383 22.505688 -28.256021
19.411209 15.22278 -31.225098
11.456552 22.077177 -28.958614
5.9692097 19.856174 -32.664085
5.5263529 19.480247 -33.289768
5.2054315 21.394039 -30.112427
19.807457 21.971586 -29.128941
4.1514769 7.7330503 -29.821697
12.766336 9.347105 -29.978001
18.225658 25.879284 -22.643232
16.712353 8.3160505 -29.978001
18.107475 23.512226 -26.571903
4.375339 14.972637 -30.009346
6.8181791 15.22406 -31.710333
18.825565 14.626397 -29.978001
15.265501 4.8633904 -29.978001
20.183121 15.152019 -29.978001
11.244051 20.534836 -31.52072
20.517109 14.199119 -29.978001
15.546283 24.241283 -25.361866
6.5121794 15.228056 -33.142876
10.197129 8.1224833 -29.978001
4.5563002 19.43293 -33.371349
7.6342726 14.906109 -29.99843
10.784815 15.229302 -33.576195
1.2662735 11.942327 -29.979349
3.5149744 16.564865 -36.770897
10.216555 9.6076555 -29.978001
13.607347 7.655611 -29.978001
15.193623 24.161785 -25.493809
10.631213 20.207979 -32.065437
22.808058 3.1319094 -29.978001
10.89261 16.387388 -35.952343
9.5535774 19.783358 -32.773952
17.760212 23.869062 -25.979649
19.126579 16.530121 -36.584202
12.536677 24.458292 -25.001692
14.779438 17.97146 -35.768055
7.5577636 10.228778 -29.978001
-0.35148335 16.498888 -36.46439
10.641159 8.3414221 -29.978001
15.762997 15.229545 -33.649303
14.46813 12.50082 -29.978001
14.746147 21.51606 -29.884989
13.502041 23.732632 -26.206091
23.141926 3.2993927 -29.978001
14.571938 15.224439 -31.821846
2.1123457 21.770884 -29.49613
13.704231 18.590752 -34.741772
21.150961 24.097519 -25.600475
10.466124 17.874622 -35.941078
15.985175 15.024849 -29.978001
8.0834856 21.720387 -29.561563
21.610559 18.740261 -34.492058
5.3028059 10.293108 -30.2346
20.75061 18.289299 -35.240532
22.116932 3.6008644 -29.978001
17.999229 22.684746 -27.94529
18.730726 15.226743 -32.645283
16.162165 21.493191 -29.922945
15.937485 21.785612 -29.437607
19.064032 12.043116 -29.978001
14.110331 20.672609 -31.284887
11.024637 15.222074 -30.985704
15.365565 15.234559 -35.446434
14.213153 19.146313 -33.818123
13.859189 15.222228 -31.032227
13.807829 15.225317 -32.13887
15.806487 15.219693 -30.118938
6.935534 13.156001 -29.978001
10.738774 12.50428 -29.978001
4.148272 17.16328 -36.785999
20.518064 15.233961 -35.232235
21.5509 3.8124189 -29.978001
14.404271 7.5996437 -29.978001
23.318836 3.596339 -29.978001
12.834039 10.142642 -29.978001
7.1572304 15.227848 -33.066483
15.808313 9.5440845 -29.978001
18.627478 15.229956 -33.796837
1.6557202 21.217659 -30.416302
8.8763475 15.232789 -34.824112
22.295689 20.185989 -32.092541
17.721867 5.1167922 -29.978001
20.985785 22.216072 -28.723164
19.141403 16.243101 -35.676399
14.392259 15.226598 -32.596161
4.2729602 17.905514 -35.908882
21.220005 5.3228216 -29.978001
9.453867 14.615426 -29.989025
4.8235307 10.054872 -29.821699
21.055298 11.655742 -29.978001
14.54826 18.935658 -34.167751
7.2743053 10.93402 -29.978001
20.531944 10.849418 -29.978001
19.092375 23.587311 -26.447277
11.187555 15.229217 -33.544491
10.817448 8.7807255 -29.978001
8.4051266 19.665712 -32.972878
12.554194 15.227592 -32.958191
5.2528973 12.408768 -29.978001
18.975931 11.432577 -29.978001
17.486847 13.58546 -29.978001
1.9753376 7.6441531 -29.821697
17.679058 13.81496 -29.978001
22.012501 20.056387 -32.307644
4.0677252 6.8957505 -29.821699
15.08682 12.02262 -29.978001
19.119453 23.481113 -26.623541
15.399887 15.23141 -34.318314
18.900219 17.986576 -35.742966
0.88393402 15.894862 -35.676155
3.342833 15.225515 -32.242462
17.330235 17.968571 -35.77285
4.5241594 17.758423 -36.15239
15.969047 15.226983 -32.731667
15.197811 13.936441 -29.978001
0.11180174 10.349061 -30.2346
15.502874 24.990339 -24.118641
6.4612551 21.638081 -29.703262
16.461462 15.222001 -30.9461
6.5435491 19.523012 -33.215614
2.3075471 20.173771 -32.147934
7.8540454 17.27359 -36.774563
2.0903268 22.922167 -27.584202
14.779491 11.97657 -29.978001
12.466057 5.1912546 -29.978001
19.801889 26.193285 -22.122074
3.7118244 20.722387 -31.232485
15.119417 14.558586 -29.978001
13.50708 7.4689646 -29.978001
22.115276 19.217804 -33.699463
13.164955 6.9460592 -29.978001
9.4837284 20.294254 -31.925695
18.493563 16.522249 -36.549351
5.596354 10.022378 -30.2346
19.486193 16.485107 -36.384888
8.5594625 15.231874 -34.503853
8.3665924 22.105881 -28.920481
12.106699 24.356922 -25.170521
12.355999 19.84174 -32.66835
7.9866924 7.5577297 -29.978001
1.0755628 15.234936 -35.56818
10.03646 13.518515 -29.978001
9.6150293 17.727951 -36.187286
10.398261 5.3796282 -29.978001
11.749495 19.248705 -33.655106
8.6969109 20.552923 -31.498543
16.829416 13.96708 -29.978001
22.265903 9.8542538 -29.978001
13.785699 19.203035 -33.724667
17.550285 12.567842 -29.978001
22.48 15.225945 -32.359451
14.570555 20.898197 -30.910471
19.865103 19.999599 -32.401897
3.8294249 23.305992 -26.941397
19.90424 25.992218 -22.455795
8.3818836 19.097092 -33.917286
18.98506 13.203946 -29.978001
16.151022 9.5646782 -29.978001
18.996258 15.228562 -33.297592
19.235874 11.894686 -29.978001
18.443192 21.654913 -29.654531
12.541399 17.180304 -36.760101
15.054909 20.600809 -31.404057
10.944232 16.100792 -35.676311
18.965563 18.737896 -34.495979
12.27693 8.4472122 -29.978001
14.613586 15.226995 -32.73848
6.9777479 16.168179 -35.676373
4.2938643 6.3642774 -29.821701
21.366274 19.886503 -32.589607
17.648432 11.094784 -29.978001
14.655859 21.497175 -29.91633
12.483272 22.32464 -28.544476
0.62519073 15.2246 -31.922766
13.866192 21.915874 -29.221407
20.444582 12.639954 -29.978001
16.493429 15.233285 -34.98999
1.8831608 15.225503 -32.242512
18.549133 15.231342 -34.293743
1.0511708 13.583395 -30.00145
2.2363362 22.227196 -28.737923
16.737156 25.349304 -23.522858
0.97331125 11.482936 -29.978001
13.367791 16.009729 -35.676365
14.706333 5.4662013 -29.978001
10.593368 16.461044 -36.278492
4.7698913 15.224382 -31.83238
1.1913228 20.110481 -32.256485
13.895464 13.642453 -29.978001
17.099964 15.230629 -34.038101
20.616154 19.346264 -33.486259
17.590126 15.219887 -30.18821
7.2753258 21.947351 -29.187124
8.0697126 15.228794 -33.402397
17.092684 4.1791196 -29.978001
5.5537224 12.815224 -29.978001
14.753581 15.227518 -32.925091
10.078372 9.8556204 -29.977999
15.70813 7.8579073 -29.978001
12.803956 6.2192931 -29.978001
22.729931 5.1582365 -29.978001
14.780098 16.476233 -36.345592
7.9953794 21.424942 -30.052498
12.687124 24.688801 -24.619108
13.283575 21.449959 -29.994698
8.0263052 13.561213 -29.979656
11.217485 15.226949 -32.731621
3.1321125 14.639211 -30.008823
13.533673 16.46636 -36.301929
10.611922 15.233215 -34.976234
20.03619 12.864946 -29.978001
7.0154781 13.294641 -29.97929
8.8338757 22.182516 -28.791767
-0.076071739 17.556345 -36.502182
15.777081 5.8605928 -29.978001
18.543938 14.370965 -29.978001
15.414318 24.595249 -24.774382
16.200171 3.2822642 -29.978001
20.803318 16.398384 -36.000893
4.227066 16.27141 -35.676563
2.193373 12.090446 -29.978426
11.406371 20.45072 -31.659914
19.386572 8.2901192 -29.978001
-0.099448681 9.7234507 -29.821701
23.043537 5.1968317 -29.978001
8.8450365 10.100059 -29.978001
8.280899 15.229227 -33.557205
22.574991 13.576436 -29.978001
13.686283 8.0996599 -29.978001
2.9684782 12.600367 -29.982697
10.73788 21.220228 -30.384012
7.5708771 22.455111 -28.342957
15.881228 23.681515 -26.29093
13.013874 23.410183 -26.741266
4.6940012 13.66797 -29.991323
9.0197124 20.949757 -30.838505
21.500595 21.223522 -30.370522
3.6445174 15.227634 -33.00087
22.777077 17.273071 -36.7537
3.3262215 18.012493 -35.734138
15.530025 23.229713 -27.040798
19.048615 14.701757 -29.977999
19.867954 23.003464 -27.416307
1.225351 8.1769409 -29.821697
8.793129 16.511988 -36.504128
7.8859692 20.357182 -31.826122
21.308304 15.221285 -30.68935
11.967767 14.963474 -29.985821
6.6853957 15.222664 -31.210651
17.056547 15.23043 -33.966656
12.718259 20.264523 -31.965094
9.2165527 21.363293 -30.151117
13.497873 12.805242 -29.978001
13.233158 22.212784 -28.728622
6.8712873 21.985016 -29.125822
20.799006 10.580905 -29.978001
13.562642 16.619144 -36.75695
11.504848 19.569057 -33.123833
6.7807589 19.708487 -32.906853
10.446748 21.70817 -29.574566
0.47769213 15.22564 -32.296242
19.642702 7.027112 -29.978001
9.3294878 16.343512 -35.758121
14.966297 2.7378013 -29.978001
4.6984601 23.00803 -27.433556
9.6753941 19.138905 -33.843853
20.079643 15.901752 -35.676399
4.1777554 20.870722 -30.984699
6.7328863 16.514725 -36.518955
4.7219119 22.511877 -28.257469
21.755405 17.152863 -36.7537
8.1775513 4.8418517 -29.978001
13.377286 10.473803 -29.978001
22.055178 19.2113 -33.710262
22.243704 17.11235 -36.7537
19.202717 15.224258 -31.755095
22.553719 13.400501 -29.978001
10.032584 22.983555 -27.457741
14.900131 18.302471 -35.21867
19.987032 12.12438 -29.978001
4.8903341 18.932938 -34.200676
10.246072 15.221846 -30.906372
20.507832 15.220808 -30.51852
5.4223962 15.226629 -32.635071
20.409229 24.958439 -24.171583
7.5810981 15.223433 -31.483021
13.984082 11.512423 -29.978001
12.746889 16.012245 -35.67635
19.71051 24.977654 -24.13969
5.723629 22.681736 -27.972284
22.521774 17.762104 -36.115532
16.254126 15.232124 -34.574081
12.635898 22.408108 -28.405382
17.15509 19.05261 -33.97364
6.6516838 23.480925 -26.642164
2.5451565 15.229627 -33.708801
8.8775148 20.628904 -31.371798
10.452842 13.145775 -29.978001
16.037851 8.8247824 -29.978001
12.614922 4.2849255 -29.978001
17.890165 12.016898 -29.978001
2.4903104 7.5364437 -29.821697
14.944374 15.221875 -30.902412
20.681046 10.191142 -29.978001
11.297202 11.111195 -29.978001
7.7686901 15.512558 -35.676239
21.502604 7.3046551 -29.978001
9.3676796 16.382889 -35.93248
1.1307979 18.770985 -34.481243
19.557671 26.23646 -22.050419
3.8600259 17.38736 -36.770679
10.259933 23.266273 -26.987518
4.0108523 18.511093 -34.903973
10.969631 5.2501931 -29.978001
15.579982 15.223722 -31.563131
15.267909 3.1168435 -29.978001
1.7857604 16.056015 -35.676342
11.125622 15.224733 -31.938107
15.310443 22.45874 -28.320396
15.266854 15.226254 -32.470352
18.447643 22.016878 -29.053768
1.2546144 20.943264 -30.873245
15.89493 18.056847 -35.626335
3.4381323 8.424448 -29.821697
20.153957 13.955109 -29.978001
9.0864964 22.525791 -28.22089
16.053513 20.369228 -31.788416
11.564185 15.231022 -34.190418
4.2394304 7.9391031 -29.821699
18.5147 23.743788 -26.187569
14.315725 19.884199 -32.593437
16.88941 21.226368 -30.365797
2.0938647 15.235129 -35.636806
11.303143 24.19132 -25.448021
0.39425623 11.284061 -29.978001
20.730091 4.9793406 -29.978001
-0.58699656 17.772722 -36.144409
3.3655777 15.845038 -35.676144
14.294376 14.41027 -29.977999
1.0689864 7.9096513 -29.821697
5.1801329 15.225115 -32.092785
14.373059 20.299036 -31.904919
12.972931 18.588404 -34.747925
0.4369278 21.111 -30.5972
1.2006321 10.179205 -30.015642
13.854483 14.537635 -29.978001
15.076192 16.819544 -36.7537
0.59103745 15.234647 -35.466694
1.3316338 15.232545 -34.730297
-0.53634214 15.226641 -32.657486
20.787327 21.597141 -29.750416
21.17169 15.229563 -33.656311
13.697122 15.059467 -29.981743
20.724428 15.225538 -32.21344
3.9504642 22.33725 -28.549862
21.701908 12.33569 -29.978001
17.788055 19.221848 -33.692757
17.865097 16.042034 -35.676399
10.732878 16.99205 -36.765682
19.860802 11.931226 -29.978001
12.0904 15.221745 -30.864616
4.8596544 18.088886 -35.602531
21.898769 18.36829 -35.109428
10.816036 20.447113 -31.667727
21.893797 15.222866 -31.255795
19.994801 15.221138 -30.636707
5.9563994 15.219858 -30.208012
14.515622 11.573255 -29.978001
7.9970713 22.0396 -29.031694
14.319187 16.520641 -36.542252
14.60269 8.392086 -29.978001
6.1041293 15.225826 -32.345547
20.303181 13.438787 -29.978001
20.328724 15.914572 -35.676399
11.483459 15.22991 -33.792095
9.3470955 23.333609 -26.878508
19.051117 17.540573 -36.483208
20.209108 13.43328 -29.978001
4.2530088 17.490536 -36.598122
9.9449406 15.221483 -30.7777
16.557762 20.609818 -31.389103
17.904305 18.486254 -34.913635
22.375713 15.223403 -31.448437
22.747978 10.382748 -29.978001
14.244524 18.604731 -34.716999
15.899406 15.224749 -31.930843
20.00882 15.248239 -35.676399
9.0828094 21.659863 -29.658997
3.884017 22.047537 -29.031208
21.907309 12.41573 -29.978001
0.54879475 13.869896 -30.006741
16.770298 21.542145 -29.841694
16.229658 24.827707 -24.388565
17.592331 22.898071 -27.591232
2.8627167 13.119686 -29.989807
9.0390291 15.04505 -29.995914
3.1145964 22.906082 -27.607748
0.061844587 15.221796 -30.920021
18.473248 3.4180384 -29.978001
13.015259 24.282545 -25.293385
0.40663743 16.379513 -35.917847
20.646746 18.518763 -34.859684
16.069532 21.147514 -30.496674
1.0539656 15.223201 -31.420204
12.635921 6.9255056 -29.978001
18.050728 11.112619 -29.978001
20.674744 9.176321 -29.978001
16.417238 21.001274 -30.739391
11.296703 18.772511 -34.447342
1.6220298 20.584309 -31.468243
6.7514591 15.942223 -35.67622
15.507448 21.244556 -30.335613
6.7323856 15.223017 -31.336456
20.205658 15.231952 -34.512161
15.804705 19.067467 -33.948982
14.975574 20.840641 -31.006001
16.933922 23.77343 -26.138376
16.630085 17.498627 -36.55283
22.600008 17.666792 -36.27372
11.006334 24.107109 -25.588795
7.2244287 5.4032831 -29.978001
18.829176 2.4488893 -29.978001
18.51775 18.943981 -34.153938
20.836029 22.524 -28.212088
13.6983 15.228107 -33.138668
10.978075 8.5633564 -29.978001
15.229074 15.22695 -32.719898
11.274214 19.288073 -33.59119
4.8661103 23.181856 -27.144358
19.39257 3.5710282 -29.978001
14.785398 15.222813 -31.23922
19.591038 15.225035 -32.033028
4.9090595 15.220435 -30.417133
-0.75388098 16.420708 -36.100296
15.375935 19.774364 -32.775726
13.88994 15.228179 -33.164326
2.7027669 21.609833 -29.761768
11.287048 23.251066 -27.009602
15.28303 20.08223 -32.264759
1.1788602 21.66964 -29.667152
0.6388793 8.5150595 -29.821701
2.2726684 19.45989 -33.333618
-0.31258416 15.230631 -34.057976
6.7354231 6.3651171 -29.978001
20.316082 20.153484 -32.146492
16.845745 24.422184 -25.061623
23.366032 3.330759 -29.978001
2.2329655 8.7954597 -29.821697
12.842527 23.487236 -26.613377
4.6564217 10.793003 -30.15691
15.335711 15.219451 -30.032194
16.701685 16.398495 -36.001381
1.1532793 20.162037 -32.170982
10.981483 18.952883 -34.148762
21.443661 21.121492 -30.539864
14.900964 14.353848 -29.978001
18.444695 15.229844 -33.75713
13.297198 7.8230314 -29.978001
22.252201 13.000159 -29.978001
4.2564073 6.5482559 -29.821699
19.476421 13.520828 -29.978001
17.669561 18.297186 -35.22744
15.777361 17.540928 -36.48262
5.085248 18.448673 -35.004322
9.1256771 21.211843 -30.402914
5.1527491 15.224714 -31.949806
19.311762 16.336596 -35.727299
4.3915029 19.733759 -32.872253
12.262793 15.221531 -30.78721
17.218376 20.952349 -30.820599
11.363873 11.18576 -29.978001
14.595982 20.145836 -32.159184
1.8356447 13.294331 -29.995255
3.1833971 16.525311 -36.581009
18.877985 12.692596 -29.978001
21.622091 14.347604 -29.978001
16.793217 3.9565992 -29.978001
11.187864 12.695651 -29.978001
4.7930145 18.949619 -34.173279
1.2001529 15.227711 -33.035313
19.563437 16.257023 -35.676399
20.912514 15.219873 -30.183403
5.4640927 20.303024 -31.923534
16.369619 22.581406 -28.116806
-0.10228252 17.779169 -36.13221
12.563796 15.718527 -35.676346
3.651032 16.362112 -35.840687
19.37558 6.7124958 -29.978001
12.993179 12.082182 -29.978001
-0.052381516 19.963127 -32.505043
15.200103 8.801486 -29.978001
14.915687 13.801167 -29.978001
17.528194 11.397777 -29.978001
12.37265 13.531836 -29.978001
16.063889 16.018257 -35.676399
8.0866108 5.6890707 -29.978001
18.201187 23.078251 -27.292183
20.292835 15.234048 -35.263756
6.8171549 7.4925022 -29.978001
11.446647 15.658516 -35.676323
13.803814 21.129324 -30.526865
13.195864 18.018145 -35.694298
1.9068265 17.015724 -36.792915
19.273903 15.227221 -32.816383
13.811954 22.905907 -27.578226
2.095643 15.654976 -35.676117
6.3569031 15.233554 -35.089966
16.094204 19.376007 -33.436893
6.1805997 15.118235 -30.005684
8.4257145 20.557285 -31.492136
8.3561563 12.764401 -29.978001
18.49206 17.619596 -36.352051
12.773532 8.40098 -29.978001
6.8907804 15.744497 -35.676224
9.7228088 23.584629 -26.460461
20.720247 6.5390358 -29.978001
2.9581242 21.009171 -30.758533
10.466221 14.104012 -29.979225
0.13940382 14.016935 -30.009922
1.835511 16.420309 -36.098427
17.020035 17.588505 -36.403656
4.6673627 10.918262 -30.03199
8.9577093 15.234448 -35.40604
14.475821 22.264637 -28.642551
9.6382961 15.220104 -30.28462
17.01829 12.186641 -29.978001
21.305656 12.740103 -29.978001
12.275804 9.2335272 -29.978001
13.507072 9.5806694 -29.978001
18.936634 23.814676 -26.06992
15.56332 25.142725 -23.865723
17.052128 18.118097 -35.524677
0.86168528 21.721523 -29.581959
2.2462258 21.97691 -29.153555
8.6925983 17.635582 -36.343533
15.992348 22.803604 -27.748016
7.2365417 6.7478256 -29.978001
5.9070358 16.415537 -36.077156
7.261497 15.220806 -30.543123
4.5831046 21.49758 -29.942394
19.112766 23.635288 -26.367649
15.757238 15.781398 -35.676399
19.83872 8.9795523 -29.978001
-0.35985613 19.566521 -33.164658
14.207426 21.653717 -29.656515
0.33975649 18.986572 -34.125648
6.5499191 15.232384 -34.679882
7.8163667 20.05971 -32.320366
4.5511212 17.045973 -36.78476
18.635841 15.227886 -33.055187
0.083351135 13.841354 -30.007803
18.380646 18.583212 -34.752712
10.672054 19.468294 -33.293747
21.969006 19.296867 -33.568241
20.317949 15.086193 -29.978001
12.952214 2.9297945 -29.978001
7.8543482 7.8592262 -29.978001
7.093996 13.951743 -29.987629
11.233475 22.456881 -28.328712
6.1447506 15.229929 -33.815002
15.861774 17.942345 -35.816376
2.0850914 12.25216 -29.980873
18.255795 9.1537094 -29.978001
19.691696 20.94923 -30.825771
0.93107033 12.486958 -29.987497
0.3553772 22.045723 -29.045109
5.3018284 21.78157 -29.46854
17.016136 15.235038 -35.618134
8.5108175 10.9356 -29.978001
5.940053 19.843979 -32.684425
1.5930607 10.43174 -30.2346
9.5121918 18.695967 -34.579967
13.302544 20.987396 -30.762777
0.82908678 17.562641 -36.488934
7.5218763 21.773069 -29.475807
7.2548766 15.233437 -35.04945
1.8227504 7.2580776 -29.821699
17.450895 16.558958 -36.711895
10.901928 16.670471 -36.76516
10.967167 20.504755 -31.571531
2.2666495 15.233754 -35.155441
13.527852 20.091648 -32.249695
20.571911 24.58046 -24.798927
10.787869 3.974335 -29.978001
8.3951607 16.473738 -36.334778
-0.5537281 17.501976 -36.593948
16.870659 15.22821 -33.171482
11.559343 15.225012 -32.036659
16.994457 15.225198 -32.091419
1.9147687 16.443489 -36.201065
18.692875 18.322739 -35.185032
8.3900757 22.520809 -28.231314
5.2530756 17.691612 -36.261093
14.065724 15.226979 -32.734062
4.1132269 9.0398903 -29.821699
1.7645364 19.306011 -33.590744
20.87521 23.508196 -26.57859
21.390337 12.161443 -29.978001
12.577753 23.723297 -26.221581
-0.069566488 16.120743 -35.676468
14.595897 2.9342346 -29.978001
9.3711576 23.543667 -26.529577
14.375463 5.5700064 -29.978001
7.611599 20.715355 -31.232128
20.779814 10.945001 -29.978001
3.6524363 6.505477 -29.821701
1.2616882 15.02533 -30.019634
2.2325077 22.547585 -28.205849
2.5966868 8.5711546 -29.821699
3.8827333 7.7438645 -29.821697
20.798878 10.057537 -29.978001
7.3983293 16.561537 -36.742847
21.158375 19.686096 -32.922226
16.397364 21.773956 -29.456953
10.504067 9.4395695 -29.978001
12.232126 15.230999 -34.179489
14.025937 6.9851975 -29.978001
11.628471 5.2109847 -29.978001
15.166176 22.79985 -27.75425
18.088137 5.5085254 -29.977999
1.3362677 12.355247 -29.984528
20.143303 20.835274 -31.014912
13.86495 21.994574 -29.090786
15.113174 18.044273 -35.647209
17.152821 1.4257016 -29.978001
11.232141 22.956953 -27.498222
0.15259933 19.931263 -32.557327
13.360868 14.393789 -29.978001
21.080324 10.770361 -29.978001
15.598337 19.762381 -32.795616
18.410267 18.589653 -34.742023
18.130409 15.786558 -35.676399
2.4378138 19.986027 -32.459324
4.3908124 17.495771 -36.588997
13.800316 2.6382501 -29.978001
13.109163 11.125612 -29.978001
3.5905766 18.539099 -34.858757
7.1059771 19.564911 -33.144295
11.136001 9.7969475 -29.978001
8.6549339 23.096943 -27.273684
19.089325 10.639793 -29.978001
0.55242348 17.191261 -36.797096
12.755657 19.579718 -33.102268
17.452864 23.416637 -26.730553
21.505098 21.078907 -30.610548
3.2697954 15.291739 -35.67614
2.1394098 15.22254 -31.179966
8.6164856 15.229197 -33.544754
5.3067284 15.222005 -30.978762
16.162086 24.946272 -24.191782
15.906103 20.694302 -31.248886
18.00769 16.43058 -36.143452
9.9508362 24.437811 -25.042835
8.6274309 19.990244 -32.433224
12.382186 11.310122 -29.978001
20.363556 22.098736 -28.917904
11.768273 21.114502 -30.556419
6.1950622 9.44487 -29.978001
4.3314362 10.323864 -30.234598
3.6912546 20.247906 -32.020542
18.253658 10.399631 -29.978001
16.793518 2.5974298 -29.978001
10.694901 19.218468 -33.708576
15.745123 1.9363836 -29.978001
14.896763 6.0276146 -29.978001
-0.035862207 15.231696 -34.431587
8.235568 6.4358692 -29.978001
20.280035 15.847624 -35.676399
19.481974 11.329391 -29.978001
16.211235 16.469109 -36.314049
16.506447 21.651115 -29.660837
5.1850247 15.233717 -35.145546
6.2093096 19.645882 -33.012589
4.3426108 15.225645 -32.286148
18.148134 16.565945 -36.742832
16.687141 14.525021 -29.978001
11.556417 12.573067 -29.978001
15.009893 8.8885574 -29.978001
0.57791185 17.876513 -35.968449
12.125581 23.192251 -27.104689
22.794779 15.234914 -35.573891
7.2743282 18.951719 -34.162132
10.601694 15.234915 -35.571358
18.072884 24.967922 -24.155846
19.390444 16.578184 -36.7537
19.139826 19.483433 -33.258595
4.0012989 13.996935 -29.997755
7.3268671 9.0001354 -29.978001
11.526592 16.493618 -36.422691
20.122402 5.2625642 -29.978001
12.402562 21.924807 -29.208746
-0.031451702 15.595926 -35.676071
6.3692312 15.234513 -35.426201
10.832276 23.334709 -26.872093
10.822708 19.088379 -33.924225
21.588501 7.6872363 -29.978001
8.9720144 21.381769 -30.121183
16.020756 2.8059433 -29.978001
5.3239026 15.226704 -32.661774
10.819566 15.228287 -33.212582
10.116858 15.223858 -31.628235
17.377228 1.427423 -29.978001
13.24805 24.261566 -25.328203
6.319118 18.896086 -34.257473
18.930958 18.515797 -34.864609
6.9458842 13.649402 -29.984138
16.701775 20.080051 -32.268372
10.630876 18.923941 -34.19791
1.8144264 15.226986 -32.774258
7.1066236 19.725674 -32.8773
12.22692 14.151667 -29.977999
14.548556 15.302382 -35.676392
7.9898901 15.231955 -34.530731
7.5040531 17.888048 -35.927917
11.086018 20.698355 -31.249643
13.443 16.377533 -35.908615
7.428566 15.229316 -33.591564
17.960327 15.228099 -33.131229
8.024045 5.5215025 -29.978001
7.0140591 15.220541 -30.44857
2.9728978 15.302986 -35.676136
13.674002 15.231117 -34.217903
-0.68006134 17.486311 -36.620354
9.7359676 15.227755 -33.024906
10.647621 16.469669 -36.316685
0.16557503 18.264221 -35.325829
22.671293 15.227482 -32.910362
13.098607 18.06879 -35.610485
8.8969955 17.387484 -36.754932
16.661427 1.7994523 -29.978001
20.582861 4.3399057 -29.978001
2.9968963 15.219872 -30.221756
5.329679 14.117887 -29.995241
6.7202158 22.38253 -28.466118
19.736031 16.537399 -36.616432
14.579226 22.682865 -27.948416
17.372776 15.225307 -32.131283
9.4706059 23.606516 -26.424889
1.8428836 13.417776 -29.996845
6.2998924 16.974197 -36.779366
7.3798089 6.9579916 -29.978001
14.230633 15.233504 -35.070946
17.990309 24.33573 -25.205112
12.278871 7.9030242 -29.978001
6.9507332 15.222389 -31.111647
17.756506 20.395855 -31.744225
20.171719 15.226715 -32.635456
7.3468466 14.503044 -29.994053
12.809676 19.137911 -33.835835
18.798281 16.55139 -36.678379
16.351601 2.4080658 -29.978001
5.2134466 19.503557 -33.252022
12.302261 4.4966793 -29.978001
6.1075325 12.375592 -29.978001
16.388081 21.099415 -30.576506
2.88587 14.098309 -30.00252
0.20265007 17.689556 -36.280094
6.4575329 15.219446 -30.05862
0.085142851 10.922787 -30.027477
6.0246916 21.988903 -29.121979
7.7077146 15.234244 -35.333298
12.314565 18.618067 -34.700699
21.327446 16.821123 -36.7537
15.481566 22.419098 -28.386194
11.57432 3.4766178 -29.978001
12.227114 18.225708 -35.352573
22.510807 18.152155 -35.468147
21.422966 15.2624 -35.676399
3.7232761 20.005749 -32.422607
0.99861705 10.919176 -30.03108
12.270388 19.020668 -34.032211
21.912865 14.294642 -29.978001
18.225475 4.7560091 -29.977999
-0.54105902 18.840618 -34.370758
19.181847 25.665264 -22.998446
9.3793974 22.769148 -27.81583
14.93689 19.051455 -33.975559
12.792232 15.224483 -31.843609
0.57915354 15.801441 -35.676086
-0.021964073 13.728941 -30.006657
7.237875 9.4321642 -29.978001
11.28695 18.049643 -35.647877
9.9496794 15.230122 -33.872543
17.964302 5.2913771 -29.978001
19.875107 4.8606849 -29.978001
6.4192529 8.9446373 -29.978001
22.336651 6.400403 -29.978001
16.75915 4.289793 -29.978001
14.751348 15.100679 -29.979033
18.83074 9.4619522 -29.977999
4.4443493 10.38204 -30.2346
7.9808326 10.993972 -29.978001
8.6361561 15.844072 -35.676262
5.9595437 15.227192 -32.835186
0.80372095 15.229801 -33.767822
22.799753 18.014381 -35.696819
16.639736 20.326809 -31.858822
0.74594307 21.731611 -29.565567
14.287453 15.647417 -35.676384
20.407001 18.43078 -35.005711
10.250482 13.737935 -29.978001
13.863133 10.936821 -29.978001
11.843094 8.8831291 -29.978001
10.553541 17.488113 -36.582699
10.472887 15.219392 -30.026264
12.242182 15.227654 -32.980721
8.8301582 15.223049 -31.341537
20.21384 5.4215236 -29.978001
9.1662693 18.407877 -35.059479
15.414195 17.882257 -35.916103
16.033409 7.1782479 -29.978001
13.482238 3.3740821 -29.978001
15.185087 22.227625 -28.703983
12.532265 9.7712326 -29.978001
17.830448 10.440372 -29.978001
10.206323 13.580336 -29.978001
18.119867 7.3626337 -29.978001
3.0119143 9.0281 -29.821699
3.87183 15.226171 -32.475266
15.999008 19.719711 -32.866436
10.782763 6.5440903 -29.978001
18.368784 15.712846 -35.676399
14.128754 16.454556 -36.249634
2.4233618 20.754456 -31.183201
15.61131 15.225744 -32.287487
0.20755875 15.234791 -35.516411
17.804146 20.489525 -31.58876
4.6343265 20.67075 -31.315395
2.7462535 20.012497 -32.414413
4.7832274 22.979259 -27.481071
13.379441 23.983349 -25.789967
6.6840715 23.11306 -27.252995
7.266593 19.928415 -32.540104
15.055548 15.604384 -35.676399
14.684446 20.642637 -31.334633
16.133968 18.854445 -34.302544
9.7119131 16.852961 -36.768829
14.633176 13.840134 -29.978001
2.8309093 18.657249 -34.664886
5.9484739 14.770597 -30.001858
17.403112 9.7876759 -29.978001
19.2428 15.223845 -31.607166
2.634249 9.0801258 -29.821697
4.8643861 15.22394 -31.673361
12.966688 18.350876 -35.142418
21.866169 18.549242 -34.809097
20.894979 22.042446 -29.011333
13.224495 21.73579 -29.520296
9.5685968 12.563807 -29.978001
15.286182 23.60865 -26.411858
16.421101 21.552633 -29.824287
5.8363624 22.225716 -28.729275
2.3886909 18.455811 -35.00079
15.705305 10.137313 -29.978001
14.016344 20.113632 -32.212635
21.402073 17.88126 -35.917763
12.972002 15.227585 -32.954208
20.121616 22.049717 -28.999266
2.9240775 15.233267 -34.985062
16.780598 14.689984 -29.978001
11.944747 21.661713 -29.647097
14.266345 15.234776 -35.526508
19.191782 19.779339 -32.767471
17.997519 16.338177 -35.734303
13.544194 16.490732 -36.40984
3.7440648 20.818424 -31.072895
16.366364 23.900589 -25.92732
19.803402 20.018196 -32.371033
17.840954 5.2628279 -29.978001
20.328173 21.460314 -29.977514
6.4866276 22.268438 -28.656315
20.653772 9.9008369 -29.978001
1.1658943 10.772082 -30.177773
3.1553078 11.963688 -29.978001
11.058289 15.220434 -30.397921
7.5908017 10.79854 -29.978001
15.243096 3.3333161 -29.978001
2.6549101 15.233249 -34.978397
7.9269476 12.124852 -29.978001
10.516474 15.233549 -35.09288
11.870776 14.525791 -29.980404
13.43712 15.225904 -32.351089
21.286331 18.306665 -35.211708
22.328512 11.918847 -29.978001
21.477556 15.225748 -32.288898
3.5294924 19.772079 -32.811272
19.355591 18.944199 -34.153576
11.042872 22.715919 -27.899099
9.4518509 15.22384 -31.62302
7.4903646 7.3653131 -29.978001
18.816471 2.7773342 -29.978001
5.0827818 6.6562562 -29.917322
22.647444 18.579525 -34.758831
8.7172098 16.668661 -36.771904
3.1475873 17.884809 -35.946735
0.14090753 15.232643 -34.763432
8.5514517 13.011366 -29.978001
21.97019 3.0917354 -29.978001
4.1396098 20.729523 -31.219315
0.0087108612 16.414951 -36.074776
15.294228 14.511339 -29.978001
-0.33813 17.721292 -36.229057
20.889015 15.28614 -35.676399
-0.034128666 17.301689 -36.798904
13.937729 22.79702 -27.758949
14.368509 21.212767 -30.388372
21.97373 15.234007 -35.249146
13.721556 21.765911 -29.470303
19.630871 24.649202 -24.684834
6.4411507 17.253021 -36.778927
16.102531 15.225974 -32.369774
2.8821788 18.761229 -34.492043
14.534758 7.0597119 -29.978001
13.594334 23.175264 -27.131166
13.05602 6.1572313 -29.978001
15.480406 23.6689 -26.311865
16.220509 3.6871285 -29.978001
15.078291 23.15867 -27.158709
2.8979521 14.592937 -30.008942
12.143871 9.3738632 -29.978001
12.288492 11.946288 -29.978001
14.576117 15.229294 -33.561417
19.776775 23.608786 -26.411638
18.662079 15.22913 -33.500893
16.1779 16.91815 -36.7537
17.043592 22.023882 -29.042141
0.69047695 10.324505 -30.2346
17.890863 15.228614 -33.316048
7.9578362 15.221912 -30.937164
20.473158 22.580076 -28.119015
10.1413 15.234744 -35.511021
9.0237598 21.229939 -30.373177
18.65554 13.364087 -29.978003
14.657034 23.383984 -26.784752
16.611061 8.0706978 -29.978001
12.299652 19.561323 -33.134224
0.66174352 17.30727 -36.796757
9.9523544 11.953775 -29.978001
17.419239 5.9974537 -29.978001
15.437501 20.580885 -31.437122
5.5717616 17.412687 -36.723335
20.560148 26.118963 -22.245434
10.739335 21.178152 -30.453888
15.026402 11.489038 -29.978001
15.068364 6.0203543 -29.978001
0.26808715 15.232341 -34.65773
20.564217 24.528435 -24.885269
12.819114 12.07378 -29.978001
16.468084 24.729984 -24.550756
11.304116 20.682795 -31.274811
9.3414831 16.389927 -35.963634
15.214762 15.228342 -33.218361
8.8402157 15.224134 -31.730522
13.577656 20.789616 -31.090689
14.315897 25.053234 -24.014252
7.2953682 13.330349 -29.978893
12.990707 15.228543 -33.298134
15.960942 22.199131 -28.751274
4.8171144 19.907555 -32.58231
0.76950097 16.56151 -36.76318
3.2517474 15.224308 -31.810658
8.7594271 19.95315 -32.494419
20.41996 19.610395 -33.047867
17.171581 14.374884 -29.978001
19.873867 16.116282 -35.676399
17.162231 15.227547 -32.933582
17.324448 10.050078 -29.978001
17.774868 13.265964 -29.978001
10.628942 9.835516 -29.978001
7.6387982 17.938036 -35.844486
13.35425 17.991886 -35.737419
0.99616718 15.227989 -33.133114
18.091862 16.870255 -36.7537
2.6303287 15.233889 -35.202782
6.9169359 17.599962 -36.408169
20.952271 15.228701 -33.346733
11.010277 23.666265 -26.320913
4.3478432 6.6072865 -29.821699
9.5606842 19.639473 -33.012886
21.555443 6.0538445 -29.978001
20.885466 11.92172 -29.978001
9.5083447 5.7874918 -29.978001
4.5347409 18.344511 -35.179008
10.06158 11.823574 -29.978001
20.150909 26.340702 -21.877403
5.1354499 18.671474 -34.634151
4.4273787 10.801214 -30.14872
12.940877 19.739262 -32.836739
2.1267276 16.468979 -36.313934
17.489826 24.482826 -24.960968
6.330636 23.458042 -26.68116
0.35535932 9.7352371 -29.821699
6.5264602 16.63175 -36.778664
6.1833019 22.928825 -27.560513
21.562588 15.233932 -35.222
17.579132 15.998216 -35.676399
20.406496 14.358744 -29.978001
17.516533 24.920527 -24.234509
15.918171 20.186623 -32.091492
10.590737 15.220243 -30.331409
7.6209011 15.220387 -30.392149
1.5534414 8.1474419 -29.821699
0.48229313 14.043178 -30.009209
10.488224 3.9864845 -29.978001
13.313878 8.5695658 -29.978001
4.3163171 20.59145 -31.448076
21.087364 5.9486241 -29.978001
4.944912 10.444731 -30.2346
17.019136 4.6302276 -29.977999
18.299221 15.519775 -35.676399
2.4987216 21.000406 -30.774508
17.98114 15.340766 -35.676399
18.506041 23.610561 -26.408691
13.259725 17.257767 -36.757885
17.301123 21.361656 -30.14126
3.5040016 15.232554 -34.736172
9.4053078 20.773897 -31.129372
0.66777229 15.230673 -34.073624
12.295909 7.5581264 -29.978001
5.7236156 10.836851 -30.113182
1.7748077 9.3736162 -29.821701
2.9254341 21.546227 -29.866718
6.595448 18.329559 -35.197479
4.7906866 18.648048 -34.674118
17.940958 14.265114 -29.978001
22.934296 17.507767 -36.537659
21.187119 12.025665 -29.978001
13.30525 10.493146 -29.978003
5.550982 21.713888 -29.58017
19.379126 15.210219 -29.978001
21.058205 21.083683 -30.602619
21.118845 20.544828 -31.496967
1.1196699 13.705732 -30.002834
19.859991 22.727949 -27.873589
16.701601 2.6102757 -29.978001
2.9893508 17.260159 -36.789577
4.0151944 21.853199 -29.35355
10.04732 6.7528567 -29.978001
13.457811 15.232914 -34.862446
18.863436 21.326004 -30.200432
21.734346 10.725547 -29.978001
21.417889 15.23374 -35.153053
7.1425018 20.623417 -31.386265
10.169312 15.233707 -35.148029
16.786341 22.342417 -28.513468
13.430902 19.412262 -33.378292
19.455429 4.5269094 -29.978001
20.897072 20.359615 -31.804371
17.713552 20.155487 -32.143169
12.508661 23.499847 -26.59267
18.103964 17.685295 -36.243011
14.657799 25.208614 -23.756361
7.0194397 15.227097 -32.797951
4.1455793 9.0343685 -29.821699
16.700653 13.025435 -29.978001
9.0452862 21.713396 -29.570206
7.20433 18.742405 -34.509968
5.3877306 15.22934 -33.606773
13.092054 15.231903 -34.500732
13.923409 23.312878 -26.902767
