# .PCD v0.7 - Point Cloud Data file format
VERSION 0.7
FIELDS x y z
SIZE 4 4 4
TYPE F F F
COUNT 1 1 1
WIDTH 1514
HEIGHT 1
VIEWPOINT 0 0 0 1 0 0 0
POINTS 1514
DATA ascii
-18.636818 -12.915857 32.638096
-14.294475 -13.282412 36.634583
-16.464094 -9.981842 36.298744
-18.732906 -11.618366 36.035568
-14.293873 -18.168198 38.328384
-14.296318 -0.35508037 31.726017
-24.068594 -7.9034996 29.746305
-16.263193 -10.7692 34.994358
-26.898117 -12.884331 32.634663
-21.370966 -22.040691 32.636959
-9.7975922 0.25936484 39.710476
-14.26869 -8.5077591 29.933016
-18.38323 -8.8922701 32.863625
-14.29414 -19.748558 37.573112
-18.491371 -8.0554132 27.461281
-14.294783 -3.1260216 35.900543
-19.742928 -13.862723 32.637638
-21.792465 -11.8008 35.599754
-14.293675 -12.886955 38.921547
-10.937883 -20.026436 39.696976
-14.287093 -5.1368203 28.924221
-14.293881 -0.77963281 38.354816
-25.744442 -16.95768 32.635139
-25.42691 -11.8008 35.511497
-27.083075 -11.330254 36.098774
-23.916925 -15.051381 32.635902
-8.5776978 0.28828251 39.724983
-12.824669 -4.9044533 39.674492
-14.294028 1.6040806 37.985352
-14.295483 -5.6339607 34.019337
-18.258341 -8.0400372 26.927818
-16.942959 -14.65918 32.638802
-14.294898 -22.29763 35.489326
-25.044809 -14.960415 32.635433
-22.294563 -23.454857 32.636578
-27.282272 -11.339781 36.1003
-11.347345 -11.485027 39.692097
-9.6640234 -5.8322258 39.712093
-7.2019272 -11.441613 39.741436
-14.294105 -15.561022 37.675468
-11.762044 -3.0971644 39.687115
-14.293514 -22.399071 39.336811
-23.494678 -10.381529 36.070488
-8.7716141 -14.399559 39.722782
-19.368446 -10.930496 36.039692
-14.289042 -3.9601517 27.779716
-11.905939 -19.46365 39.68544
-14.294012 -6.6400023 38.017113
-16.412298 -8.7885599 29.893993
-14.294462 -13.281178 36.668839
-27.758995 -10.000263 36.356823
-14.286821 -5.4693985 29.297174
-14.133896 -23.30759 39.659393
-20.212118 -17.990572 32.63744
-15.55104 -14.045782 32.639378
-12.466088 -20.935555 39.678802
-20.83852 -10.7692 33.841118
-14.295748 -10.804048 33.077866
-17.510237 -24.076601 32.638565
-14.294164 -1.4511607 37.581528
-10.444941 -7.6992779 39.702827
-17.141975 -11.391428 36.023235
-14.437588 -18.323959 32.639839
-20.947563 -13.6761 32.637135
-14.295054 -14.023584 35.067638
-8.4722242 -5.1176963 39.726261
-17.06732 -8.3787251 27.649551
-14.295566 -17.310301 33.604683
-19.856647 -9.4283762 34.553822
-16.716991 -15.639475 32.638893
-14.294744 -1.4366219 36.000851
-7.0468102 -7.6267347 39.74324
-14.295277 -8.2215662 34.591198
-14.293759 -22.301464 38.647766
-14.293952 0.86505651 38.183258
-10.341471 -7.3844123 39.704056
-19.482658 -11.8008 35.542454
-10.915948 -4.1215267 39.697186
-14.29446 -10.624926 36.819759
-10.663095 -17.768131 39.700245
-14.293558 -19.86643 39.210567
-20.873871 -23.787476 32.637169
-13.416109 -18.979519 39.667458
-14.296128 -5.8992906 32.26133
-23.048843 -17.246075 32.636265
-9.2952042 -19.156507 39.716545
-14.295982 -5.2400565 32.65506
-18.869204 -9.2483101 33.986122
-11.998178 -14.373862 39.684341
-10.771487 -20.384193 39.698956
-26.232908 -15.837408 32.634937
-14.294804 -6.0298448 35.865753
-26.205898 -10.758201 36.091507
-19.715675 -17.04562 32.63765
-14.294594 -18.686197 36.353321
-14.294494 -19.169411 36.633671
-15.7848 -19.105684 32.639282
-7.2001419 -7.5191488 39.741417
-14.639128 -15.373146 32.639759
-12.780125 -11.902367 39.67503
-14.665747 -15.205296 32.639748
-14.294987 -1.3465518 35.342587
-14.29708 0.19489551 29.655163
-14.293661 -4.4962687 38.957108
-14.295852 -2.1432757 32.989624
-25.10751 -11.583193 35.511299
-23.428514 -6.8530102 26.135132
-9.8037138 -10.272205 39.71048
-16.39555 -15.938395 32.639027
-5.7444277 -16.078812 39.752499
-14.423614 -9.1456757 29.376907
-23.114882 -13.63887 32.636238
-14.295791 -4.6604247 33.172173
-6.8817091 -11.375007 39.745247
-14.296833 -3.6078343 30.330078
-7.305707 -16.326468 39.740242
-17.242046 -23.799219 32.638676
-14.293747 -8.9055958 38.724586
-14.293891 -11.034768 38.342655
-14.296853 0.16545105 30.271605
-15.645131 -11.341262 36.011799
-14.499254 -9.0283337 28.539131
-11.747189 0.016089439 39.687286
-9.7672882 -20.262093 39.710915
-14.293469 -16.717449 39.467335
-17.826735 -8.2152967 27.623423
-14.293731 -23.318056 38.726807
-9.4953766 -21.891497 39.714157
-23.943586 -12.013112 32.635891
-15.002312 -13.437925 32.639603
-13.333587 1.4967519 39.668419
-17.402666 -10.7692 35.020691
-14.438486 -14.98924 32.639843
-7.409914 -21.558624 39.739002
-14.672442 -9.8706598 35.801975
-14.293978 -14.166637 38.069237
-12.298869 -19.721394 39.680763
-11.363079 -12.324121 39.69191
-14.29437 -8.2588644 37.057163
-11.995811 -4.3344512 39.684349
-14.29528 -4.190135 34.55637
-14.29394 -22.498598 38.140102
-21.759666 -12.09745 32.636799
-17.541 -11.005008 35.511299
-15.58271 -9.4841757 34.195641
-19.881361 -8.6663189 32.151264
-14.295386 -20.145035 34.117416
-18.492496 -14.207275 32.638153
-12.192201 0.35415614 39.681992
-14.296289 -0.56758571 31.801756
-23.71451 -11.8008 35.969505
-24.854288 -14.908581 32.635513
-17.28791 -12.631729 32.638657
-14.295343 -23.747187 34.236504
-19.762573 -7.9214344 28.571053
-10.525859 1.064239 39.701813
-24.293875 -10.535662 36.076733
-14.293454 -18.12505 39.503624
-15.724819 -23.226946 32.639309
-12.084826 -0.68459451 39.68327
-26.603951 -8.2704039 30.903053
-21.691349 -8.875102 32.809498
-16.63847 -23.143959 32.638927
-12.236315 -2.6257229 39.681465
-24.414114 -20.956039 32.635696
-16.488491 -8.6992168 29.288561
-24.369867 -20.812302 32.635715
-14.294241 -1.1971825 37.369526
-14.294058 -0.92022228 37.86742
-19.347153 -8.290843 30.899281
-14.296323 0.86736858 31.712997
-5.5455575 -20.153217 39.959
-24.285187 -7.7561636 29.281797
-7.1780295 -19.948469 39.741764
-25.84202 -6.7045779 25.966434
-14.293434 -7.9501739 39.56543
-14.29525 -3.4560926 34.634132
-20.164688 -7.8935108 29.041574
-9.0976849 -13.159896 39.718895
-16.19383 -10.7692 34.074356
-16.9499 -8.7489328 30.504087
-12.659658 -21.515461 39.676575
-14.295013 -18.351706 35.176987
-20.292065 -11.254325 32.637409
-13.968666 1.0486293 39.660862
-16.298594 -21.949436 32.639069
-18.784061 -14.430313 32.638035
-26.179127 -9.951355 36.202629
-11.449161 -19.63975 39.690884
-14.292019 -4.4677062 28.9494
-14.294567 -4.7270799 36.49823
-14.20374 0.44334888 39.658066
-25.754076 -13.832264 32.635139
-15.247966 -24.22913 32.639503
-22.1968 -15.26001 32.636616
-15.964308 -9.2360935 32.811024
-10.87044 -21.260399 39.697777
-12.750228 -7.9809332 39.675385
-14.234594 -7.3341284 39.657703
-14.294528 -19.377663 36.537289
-14.294314 -0.5615319 37.170292
-16.353289 -8.655242 28.689379
-14.293666 -19.321796 38.909893
-13.290649 -11.351092 39.668945
-9.2926826 -10.309146 39.716557
-9.8271866 -10.095737 39.710197
-11.984793 -8.9160576 39.684502
-26.798248 -12.882627 32.634705
-14.296457 -4.8598275 31.362366
-24.366201 -9.7840996 35.67532
-15.804678 -15.434797 32.639271
-7.6178784 -11.731138 39.736488
-14.297194 -0.48487306 29.342594
-20.356119 -8.8081884 32.598541
-22.807634 -22.067171 32.636364
-7.8338294 -18.006969 39.733952
-5.0426517 -20.478033 39.731701
-21.932632 -8.3581305 31.179632
-12.257883 -11.476784 39.681252
-15.256156 -19.626316 32.639503
-11.152294 -12.661826 39.69442
-14.294996 -1.5108306 35.318901
-23.907742 -14.933861 32.635906
-23.871796 -24.309479 32.635918
-15.045197 -22.623745 32.639591
-22.126431 -11.612143 35.511299
-14.294596 -9.9662952 36.454117
-14.294821 -12.83535 35.722687
-14.281985 -5.5925784 28.596729
-14.293633 -14.419843 39.034077
-11.893438 -19.757763 39.685593
-18.124367 -11.159597 32.638309
-20.708891 -8.8237228 32.647514
-10.661637 -8.2055445 39.700256
-21.589247 -8.3508892 31.156803
-18.205235 -8.6697655 32.039135
-24.421404 -6.9517617 26.745737
-20.194889 -9.5256882 34.860622
-16.311415 -8.7393484 29.311384
-14.255291 -7.5373745 26.332216
-24.29476 -7.9647303 29.939346
-14.295516 -2.0855873 33.904404
-16.974619 -8.2200699 26.176794
-14.271328 -5.6389132 26.768559
-21.542816 -17.940075 32.636887
-22.35125 -16.661268 32.636551
-14.29502 -11.773787 35.16803
-24.079178 -7.6791296 29.038927
-19.15226 -23.075577 32.637882
-14.293812 -23.08852 38.499207
-14.294594 -22.840197 36.345432
-14.295254 -13.301526 34.492855
-12.924448 -11.800688 39.673309
-9.9083138 -8.3684063 39.709213
-14.742426 -10.454781 36.004021
-14.294922 -14.935106 35.441311
-17.604286 -8.2993736 27.930267
-22.841089 -8.5173836 31.681713
-14.338011 -9.6378794 33.295086
-23.108479 -7.305336 27.860458
-16.826607 -8.8438072 31.073088
-14.293573 -10.002913 39.192505
-14.294298 -11.768826 37.252197
-26.741585 -11.87915 32.634727
-14.293462 -4.0099854 39.492031
-22.099436 -15.862732 32.636658
-14.293472 1.8272803 39.528114
-14.289839 -4.4977393 28.60128
-12.664446 -15.641246 39.676407
-21.889696 -12.972773 32.636742
-14.297035 -4.3430381 29.785738
-14.280241 -9.3459282 33.039257
-13.992769 -19.810072 39.660748
-19.027355 -21.241537 32.637936
-14.294123 -23.584368 37.629677
-12.654247 -12.37647 39.676529
-9.9562464 -21.241096 39.708668
-10.760608 -10.071282 39.699089
-25.77986 -8.7340727 32.364876
-8.8109035 -3.7351575 39.722218
-21.474094 -7.3000474 26.420893
-14.643371 -9.4192829 32.021198
-26.009768 -10.7692 33.285942
-14.295055 -21.385418 35.050365
-14.295774 -19.69981 32.998932
-14.294236 -6.711565 37.413021
-7.9586549 -4.4481111 39.732365
-14.294306 -13.019032 37.108089
-14.294182 -20.712425 37.458328
-19.939892 -14.707745 32.637554
-22.169249 -11.005404 35.511299
-17.933905 -18.131775 32.63839
-14.294632 -0.80297196 36.308399
-16.50843 -11.561715 36.018589
-16.847111 -11.301885 36.020897
-26.225712 -10.769201 32.965267
-14.289649 -8.5037861 33.638729
-25.774426 -7.7692094 29.322926
-14.29423 -17.297344 37.327641
-14.297402 -2.943151 28.779827
-14.295234 -15.27929 34.55151
-15.129435 -21.365364 32.639553
-14.294369 -12.984051 36.93404
-25.699215 -12.234231 32.635162
-14.293816 -11.621309 38.543495
-14.295481 1.9588102 34.002209
-21.761467 -10.337841 36.186352
-23.12748 -12.503623 32.63623
-14.294017 -9.0520935 38.005013
-14.29447 -22.140532 36.695198
-8.6580019 -16.855091 39.724129
-11.705403 -1.380734 39.687782
-18.172628 -7.9745207 26.236923
-14.293949 -18.712208 38.112217
-21.88673 -11.461512 32.636745
-21.43079 -7.2662725 26.066267
-17.983126 -11.427516 36.029671
-8.2352324 -10.493856 39.729134
-14.294145 -9.2005453 37.661583
-14.674183 -10.009234 36.385105
-20.760817 -7.7295527 28.726294
-17.137796 -10.7692 33.469948
-14.871225 -21.688469 32.63966
-24.994968 -10.470955 36.081993
-17.544563 -14.405694 32.63855
-26.956846 -11.115604 32.63464
-14.294362 -9.6390457 37.079269
-7.5396247 -7.5081797 39.737381
-14.294479 -8.8786669 36.761444
-15.879129 -11.730545 36.013977
-14.108562 -19.155636 39.659325
-18.782351 -18.455288 32.638035
-14.293569 0.75010133 39.242302
-22.939789 -23.384979 32.636307
-14.293574 -20.35692 39.165516
-11.825198 -6.6761007 39.686398
-9.6631413 -3.8811917 39.712086
-8.2220697 -19.420841 39.729324
-22.901764 -11.755728 32.636326
-25.250477 -8.2805901 30.935169
-23.470253 -9.7044163 35.424103
-14.293761 -0.26607001 38.694733
-11.501944 -16.953995 39.690254
-25.008478 -22.448456 32.635445
-12.738604 -21.754318 39.675667
-14.293406 -2.6134655 39.63903
-14.294031 -7.408422 37.967453
-21.101013 -21.774384 32.63707
-17.557907 -9.8101759 35.75753
-8.5592947 -10.563056 39.725281
-22.144552 -17.593782 32.636639
-15.94712 -23.714705 32.639214
-9.6064453 -8.8610716 39.712811
-14.295294 -21.715464 34.382641
-20.333996 -9.8040533 35.738228
-14.294299 -4.2372766 37.224319
-19.659975 -10.428623 36.041382
-14.293665 -5.9997368 38.949566
-14.295567 -14.614705 33.59848
-20.424059 -16.290533 32.637352
-17.705484 -13.978271 32.638485
-19.866587 -10.396053 36.042919
-20.920835 -18.439695 32.637146
-14.295828 -13.133229 32.848488
-14.956245 -20.464966 32.639626
-24.455721 -19.804329 32.635681
-16.63241 -19.40041 32.638927
-24.227821 -20.724985 32.635773
-14.266194 -7.3809547 28.064922
-22.859762 -16.352985 32.636337
-14.295153 -7.5522938 34.923016
-7.1875801 -9.5125847 39.741585
-19.140034 -18.937294 32.63789
-27.348261 -10.7692 35.487541
-8.3533211 -14.27474 39.72776
-14.296125 1.8185773 32.249126
-14.293511 -6.0870075 39.358902
-24.192619 -18.089806 32.635788
-23.312685 -10.7692 33.161072
-18.429737 -24.09145 32.638184
-26.503885 -10.335707 36.345482
-14.272636 -5.5881968 26.93622
-22.300491 -8.9803743 33.141396
-14.294424 -14.335251 36.780273
-24.311256 -15.027018 32.635742
-18.859127 -8.3255014 30.334581
-14.29373 -3.6897798 38.766552
-13.590294 -14.898036 39.665382
-9.2187023 -2.2569785 39.717358
-14.294703 -23.256512 36.036213
-5.8172231 -13.649525 39.752499
-6.8164015 -12.446505 39.746033
-25.766521 -10.769201 33.317886
-14.294425 -7.2955456 36.901684
-25.494486 -12.253207 32.635246
-25.988609 -15.722103 32.63504
-10.99107 -22.108559 39.696342
-16.249565 -10.769201 33.61227
-17.382671 -21.378101 32.638618
-23.306831 -10.7692 34.348152
-17.956713 -13.076355 32.638378
-10.722513 -12.14802 39.699539
-14.295723 -19.637526 33.148682
-14.295769 -4.7877455 33.232994
-24.997639 -11.39913 32.635452
-25.113857 -11.752919 36.084232
-22.649746 -10.7692 35.010487
-15.661263 -14.300564 32.639336
-23.449165 -21.028713 32.636097
-14.295671 -3.9555254 33.492657
-23.45742 -11.746444 36.071629
-22.459949 -21.021578 32.636505
-14.709241 -20.770927 32.639729
-14.296177 -3.189182 32.113754
-6.9024677 -11.759348 39.745003
-18.983082 -10.7692 35.498959
-14.284793 -5.1805058 28.572525
-26.842117 -10.7692 35.464378
-14.87437 -8.8991899 28.126112
-18.760105 -8.1297588 28.544325
-14.293822 -14.452914 38.52721
-11.874013 -15.818515 39.685825
-23.987072 -24.129532 32.635872
-13.102694 -8.1237831 39.671188
-14.295055 -5.4705558 35.175713
-19.590954 -25.155222 32.637703
-14.293754 -2.3519397 38.696461
-15.03428 -8.8353691 27.877594
-7.3899674 -17.640667 39.739235
-14.252268 -7.5472279 25.809612
-7.9260921 -20.79384 39.732853
-12.875714 -18.446255 39.673889
-14.293716 -13.889812 38.808861
-20.337605 -10.7692 34.417732
-16.391428 -11.82507 32.639027
-14.293802 -2.4043448 38.559193
-14.294006 -10.744749 38.033726
-16.49563 -8.3928957 26.769638
-25.674566 -13.006948 32.635174
-14.294344 -4.8536258 37.104053
-24.757292 -8.966362 33.097218
-14.293941 -20.901478 38.133579
-14.294339 -6.3062277 37.130836
-16.011662 -8.2840862 25.026432
-13.501541 -22.755924 39.666782
-14.29426 -18.564192 37.237171
-24.978659 -16.446642 32.63546
-14.294647 -8.057786 36.303272
-24.88348 -12.000698 32.635502
-24.646021 -9.9722853 36.268616
-13.10276 -8.0976439 39.671185
-14.294013 -0.87313282 37.989491
-14.295712 -17.10008 33.176109
-16.461353 -15.543194 32.639
-9.8201399 -1.9991771 39.710205
-18.136698 -17.178741 32.638306
-14.252542 -7.911375 26.319366
-14.294491 -0.24068224 36.692604
-14.293316 -5.8167009 30.886507
-9.1448898 -3.8155637 39.71825
-24.810806 -10.407909 36.080524
-22.158833 -7.3432999 27.972485
-14.295492 -21.749594 33.813286
-18.11282 -13.094889 32.638313
-13.966931 -19.253487 39.660999
-14.293678 -19.676163 38.87627
-24.251438 -10.773393 35.511299
-20.758671 -21.276138 32.637215
-24.510353 -8.2270641 30.766417
-14.29563 -1.6365933 33.595646
-20.630503 -8.3209419 31.062384
-10.289069 -6.6536946 39.70467
-10.924721 -7.915267 39.697121
-19.085215 -8.3079872 30.584143
-11.70045 -14.718089 39.687885
-14.294631 0.74300504 36.313133
-14.294755 -20.321964 35.899452
-17.652744 -14.993443 32.638504
-14.343653 -15.550162 32.639877
-22.963764 -13.922433 32.636299
-17.026417 -23.511086 32.638767
-14.294953 -17.895119 35.347607
-14.695453 -18.801853 32.639736
-21.424189 -7.589992 28.729895
-14.295582 0.26918769 33.726589
-10.472043 -14.288471 39.702526
-19.631744 -8.5360317 31.740505
-14.294423 -16.401829 36.777367
-12.736972 -14.763168 39.675545
-22.590431 -8.960125 33.077553
-14.293994 -6.2764878 38.065674
-17.259499 -8.1312714 25.939808
-14.295992 -1.1351148 32.608414
-16.63271 -13.951462 32.638927
-21.98473 -10.33774 36.101845
-19.476185 -23.380428 32.637749
-23.886593 -8.5556746 31.802433
-12.681179 -11.362449 39.676208
-19.382286 -20.132299 32.637787
-17.762516 -14.114141 32.638458
-25.894489 -14.300533 32.635078
-25.301582 -21.133656 32.63533
-20.711771 -10.7692 34.009098
-10.887801 -13.965416 39.697571
-9.3531189 -1.0334696 39.715759
-14.296171 -0.51994586 32.126236
-15.077228 -9.9304695 36.136784
-14.295195 -6.4063978 34.804333
-14.293573 -20.533058 39.169613
-26.222181 -17.274502 32.634945
-24.886244 -7.9586344 29.920132
-14.294741 -7.1310167 36.043003
-14.295308 -3.7860687 34.47863
-20.849962 -7.3503599 25.748192
-23.501328 -6.8115997 25.919907
-9.5274925 -6.6411324 39.71373
-21.028791 -10.769201 32.722275
-5.4616561 -17.257353 39.752499
-14.293776 -14.892486 38.651375
-12.577947 -21.876106 39.67757
-14.295343 -3.9355791 34.38158
-13.551398 -17.674318 39.665836
-18.474033 -10.769201 33.886795
-15.235117 -12.400219 32.639507
-17.652918 -9.35114 34.310314
-21.596561 -23.907244 32.636868
-23.954767 -12.753045 32.635887
-14.662261 -10.7692 32.695309
-26.088745 -10.731575 36.090591
-19.899723 -10.7692 33.472256
-14.293424 -11.287291 39.593727
-18.567719 -14.564072 32.638123
-14.290772 -7.2112803 32.201458
-22.937311 -10.7692 34.096725
-22.052223 -10.337709 36.094017
-14.294306 0.42224383 37.196949
-16.603798 -10.340161 36.019775
-21.662642 -10.024227 36.432377
-16.554113 -8.3306074 26.356895
-7.9538307 -18.853809 39.732521
-14.293673 -21.642344 38.891506
-16.38405 -9.0029688 31.61656
-20.95153 -11.8008 35.837093
-11.009809 -15.096656 39.696114
-13.32441 -16.168043 39.668545
-15.599682 -14.265906 32.639359
-18.542038 -11.783367 36.034283
-10.677478 -13.86884 39.700077
-14.29678 -2.3391097 30.473698
-14.294487 0.90820158 36.705357
-21.034851 -11.8008 35.952927
-14.293556 -5.0583477 39.238834
-14.29667 -1.0264472 30.767778
-8.3812199 -13.674863 39.727428
-17.401016 -10.7692 33.775631
-14.295147 -17.209049 34.805405
-18.020763 -17.802961 32.638351
-11.257451 -15.722161 39.693165
-22.465031 -12.30395 32.636501
-25.053532 -11.279689 32.635433
-14.28109 -7.0912604 30.335445
-14.29353 1.7572693 39.363251
-12.134302 -21.627613 39.682762
-23.204891 -15.244127 32.6362
-21.790993 -13.131756 32.636787
-26.555244 -8.1503868 30.524673
-11.328795 -18.859369 39.692322
-14.29711 -2.6257162 29.571804
-14.293996 -11.970758 38.059422
-19.901489 -8.5582991 31.810705
-22.240189 -10.769199 32.777695
-19.772566 -15.751947 32.637623
-12.303407 -0.93420744 39.680672
-14.294497 -11.473224 36.570015
-21.723539 -9.1030512 33.52816
-22.836002 -8.8848524 32.84024
-14.294097 -12.328444 37.790825
-14.293652 0.97735739 39.017525
-14.295776 -16.828415 32.994148
-15.177675 -10.7692 35.073814
-14.295313 1.8696334 34.455093
-14.294367 -6.2109861 37.050247
-17.87532 -9.995347 36.34132
-14.295002 -3.4846675 35.308846
-23.67902 -7.0416479 27.029125
-20.888172 -23.010618 32.637161
-12.416613 -2.2970545 39.679325
-14.295805 -4.8964553 33.136162
-7.3826985 -19.295561 39.739326
-17.704832 -13.141953 32.638485
-14.296953 -3.7792227 30.006075
-7.910738 -5.6121669 39.732944
-14.977383 -11.419425 36.006802
-25.126154 -8.9567661 33.066963
-14.119387 -23.379951 39.659569
-14.295114 -15.292931 34.898754
-14.295452 -6.723402 34.105824
-14.292904 -7.594173 33.063717
-14.293759 -20.946064 38.645439
-14.294182 -15.981337 37.456318
-22.824787 -7.3974538 28.150883
-8.3380013 -1.5714464 39.727837
-17.415604 -8.0366182 25.429859
-26.961914 -10.769199 34.765129
-14.293819 -8.0105162 38.533375
-14.295107 -4.4456339 35.029266
-14.295088 -21.625296 34.963982
-14.296181 -4.8338079 32.113991
-6.8259835 -15.527302 39.745949
-9.1701698 -1.1168787 39.717937
-18.955866 -22.863955 32.637962
-17.944065 -8.6164827 31.143351
-23.565903 -8.3465576 31.143145
-14.295666 0.026340246 33.49575
-8.526103 -14.1192 39.725704
-21.862152 -17.480305 32.636757
-19.336233 -7.7369452 26.302948
-18.089664 -9.3489704 34.303478
-14.293699 -21.643827 38.817402
-19.99472 -23.128483 32.637531
-14.294073 -4.9233003 37.842815
-14.316451 -10.769201 34.981293
-22.734217 -24.176264 32.636391
-17.869909 -8.176158 27.37528
-23.485306 -11.8008 35.856632
-14.407372 -22.823557 32.639854
-8.2514315 -20.83128 39.728977
-14.294319 -15.253197 37.071568
-14.294151 -21.003086 37.544151
-14.296007 2.2536011 32.568546
-20.333727 -7.7239113 27.934843
-8.5250998 -10.537453 39.725689
-23.903315 -24.263521 32.635902
-17.093037 -16.71875 32.638741
-25.206978 -22.533222 32.635361
-17.723864 -8.8375349 32.586048
-16.950901 -9.6080465 35.120274
-9.8926182 -14.088667 39.709427
-21.549732 -10.769201 34.105782
-14.296105 -0.3736372 32.30677
-17.564991 -10.015532 36.404961
-19.22204 -8.4650431 31.516697
-14.295767 -1.1956743 33.223125
-16.807056 -13.720123 32.638859
-23.128927 -10.769199 34.654804
-12.522411 -18.968719 39.678101
-11.93883 -3.4725511 39.685017
-19.298744 -10.7692 34.727219
-17.600576 -9.7864513 35.682732
-24.425751 -8.3398323 31.121944
-27.182907 -9.6743574 35.32933
-6.3020577 -18.297361 39.752193
-14.293583 -1.8783393 39.161274
-25.698479 -7.72754 29.191551
-14.29586 -11.89328 32.755333
-14.295126 -4.3620305 34.979267
-14.29504 -1.7250077 35.19717
-14.294459 -8.4587488 36.814232
-20.588715 -7.5083141 26.597885
-14.294369 -2.1915092 37.025063
-27.268059 -11.8008 35.710907
-21.113974 -11.133501 35.511299
-14.294281 -9.0481968 37.301155
-14.294357 -9.5394201 37.090141
-7.497932 -3.9230719 39.737839
-23.016493 -20.89245 32.636276
-14.296048 1.6520058 32.459297
-14.294759 -4.187726 35.973011
-22.643806 -10.769199 35.089825
-22.047165 -17.544624 32.636681
-7.4705558 -16.664663 39.738277
-17.438477 -10.994342 32.638596
-19.3601 -7.9858837 28.401747
-14.293453 -8.418602 39.514343
-14.257655 -6.9106345 25.957558
-14.289468 -9.0907469 34.349571
-17.243225 -19.693312 32.638676
-19.74206 -9.7838345 35.674484
-21.075645 -7.7115307 29.126425
-9.1747828 -3.6251578 39.717888
-12.727056 -18.344183 39.675659
-14.294382 -12.060009 36.896332
-21.665783 -21.220448 32.636837
-13.694177 -20.608456 39.66433
-26.188911 -9.4566383 34.642921
-15.121225 -9.4213629 32.871742
-11.855378 -18.522568 39.686043
-18.796312 -7.8046799 25.921083
-14.293541 -10.277615 39.278526
-14.295198 2.2830975 34.768356
-14.293917 -7.3594437 38.271866
-12.534422 -10.632416 39.677956
-11.97748 -4.3205061 39.684563
-20.555826 -7.7809758 28.793741
-14.295356 -11.550434 34.205414
-9.6356735 -15.215199 39.712486
-15.434555 -10.251545 36.444901
-14.295101 -21.294611 34.923077
-14.195004 -7.2129488 39.658173
-15.912213 -11.617855 32.639229
-13.083464 -13.92272 39.671413
-8.9968586 -2.6662388 39.720001
-16.913918 -8.3902454 27.477228
-21.013578 -10.7692 33.237373
-21.962122 -9.105154 33.53479
-11.655 -19.409309 39.688431
-13.220602 -21.118399 39.669945
-17.646404 -21.049702 32.638512
-12.133017 -8.4930677 39.682735
-14.29355 0.20798135 39.286739
-9.512846 -16.07757 39.713947
-9.9328098 -13.15515 39.708946
-19.899216 -7.5872769 26.047947
-16.827114 -11.607131 32.638847
-14.296196 0.75302148 32.057861
-9.6004429 -18.602259 39.712906
-14.293899 -14.206585 38.320675
-14.294641 -16.732033 36.225235
-23.289623 -10.337152 36.116257
-25.019371 -11.426392 36.083176
-14.294118 -7.6502633 37.734657
-14.294231 -5.86309 37.417572
-20.583887 -7.869226 29.57196
-9.4068184 -12.148191 39.715214
-21.383307 -7.4031897 27.114908
-19.054092 -9.7333469 35.515312
-16.935171 -22.23023 32.638802
-14.293619 -21.934559 39.040501
-10.089914 -0.9026655 39.707001
-14.29611 -0.1348474 32.293072
-14.294426 -11.362863 36.908764
-14.293846 -19.956127 38.403358
-20.782816 -23.994576 32.637203
-16.560856 -11.8008 35.773361
-18.680668 -10.811727 32.638077
-14.294155 -14.228768 37.534042
-25.56632 -9.8293438 35.817963
-7.0963554 -10.487497 39.74268
-12.838178 -21.810471 39.6745
-12.876071 -20.857258 39.673973
-20.041992 -11.8008 35.734566
-14.295776 -21.330475 32.994587
-21.533264 -11.496974 36.05674
-14.295416 -3.5914721 34.182419
-9.6074352 1.0668647 39.712738
-14.293911 -10.366079 38.290459
-24.33886 -19.649162 32.635727
-20.666924 -22.258871 32.637253
-14.754535 -17.452152 32.639709
-25.999668 -8.5146894 31.673218
-15.863368 -8.5116587 26.648422
-10.008672 -7.4256291 39.708012
-18.330669 -10.7692 35.401241
-22.519251 -24.968548 32.636482
-24.78157 -17.977516 32.635544
-19.076046 -11.510529 36.038063
-14.253997 -8.659687 27.524136
-20.635422 -10.7692 32.868923
-15.878319 -9.6528406 35.261494
-12.391884 -15.169663 39.679653
-22.239878 -7.3474212 27.993145
-24.531364 -10.7692 34.307617
-17.723635 -11.005945 32.638474
-11.911848 -10.12296 39.685371
-9.8579245 -18.929405 39.709839
-23.46456 -10.7692 33.722797
-26.318405 -8.0749063 30.286705
-17.171719 -8.6585503 30.144035
-16.127409 -11.610723 32.639141
-14.294924 -6.2471027 35.54203
-20.838032 -7.4000645 26.138138
-13.256559 -14.058147 39.669353
-14.296454 -0.57081676 31.353416
-19.55542 -9.0825672 33.463577
-14.294306 -14.673409 37.110321
-14.294323 -0.99938953 37.14555
-13.981614 -3.7340887 39.660717
-8.0405817 -18.833502 39.731487
-14.293422 -18.271933 39.594681
-15.036179 -9.1614933 30.575928
-11.653699 -17.132809 39.688446
-14.293535 -22.256233 39.274769
-18.9748 -16.715895 32.637955
-14.295209 -12.807392 34.623779
-14.293947 -7.2701354 38.188847
-16.791187 -22.086046 32.638863
-14.296323 -3.3991182 31.717157
-14.295549 1.8305222 33.816662
-18.884357 -10.769199 33.542686
-11.14817 -12.083718 39.694469
-20.519188 -18.442659 32.637314
-7.8349791 -7.9519901 39.733871
-11.003469 -16.795033 39.69619
-7.2329497 -20.805628 39.741108
-10.617525 -10.769676 39.70079
-14.294359 -7.3865361 37.080692
-11.558769 -15.476225 39.689579
-22.466936 -7.8034773 29.430962
-21.08016 -11.923874 32.637081
-12.500218 1.3805829 39.678329
-5.6772518 -17.554502 39.849655
-14.286655 -4.2011018 27.662294
-11.8731 -21.118015 39.685833
-22.580198 -19.046223 32.636456
-11.9909 -8.3035994 39.684429
-17.888868 -15.757064 32.638405
-27.182549 -9.2122154 33.872326
-14.296618 1.8465314 30.911873
-18.852646 -22.818159 32.638008
-18.36166 -8.5747242 31.526537
-22.013197 -16.184685 32.636692
-16.994074 -8.3744831 27.486767
-17.233215 -10.7692 32.871254
-14.294728 -4.8129478 36.062389
-18.526266 -10.945789 32.638142
-12.487045 -8.1700001 39.67852
-11.987656 -3.6146655 39.684437
-26.546116 -11.8008 36.01683
-7.0510015 -8.2335854 39.743195
-12.495722 -18.305273 39.678417
-18.766342 -13.887147 32.638042
-14.684972 -10.7692 35.487736
-14.294385 -7.0532722 37.006287
-25.307554 -23.000376 32.635315
-24.610561 -7.4582396 28.342524
-13.142921 -6.9629393 39.670708
-14.294232 -15.152476 37.314865
-19.589586 -17.762821 32.637699
-18.553099 -8.0414352 27.453423
-27.388222 -9.6194344 35.156174
-14.84755 -9.7957897 35.488647
-11.29458 -13.590303 39.692726
-21.489595 -11.8008 35.66877
-21.662821 -7.2208686 26.095715
-13.350328 -12.061901 39.668236
-18.915775 -9.846653 35.872532
-14.293921 -4.4005489 38.251472
-22.874538 -21.952663 32.636337
-14.296066 1.4683388 32.410641
-7.6952834 -10.386064 39.735558
-10.719419 -8.4120445 39.69957
-24.247597 -10.7692 33.231358
-10.548526 -18.899651 39.701611
-10.827401 -3.874896 39.698242
-14.294329 -12.431844 37.044552
-14.295724 -18.922993 33.147873
-14.293962 -0.14541483 38.141792
-11.677175 -0.25592327 39.688118
-20.273838 -7.6971979 27.609646
-14.295691 -0.068172932 33.431892
-14.293536 -14.883547 39.290039
-16.480923 -8.352685 26.411701
-7.2378802 -15.548473 39.741051
-16.246162 -10.07202 36.444901
-14.294773 -6.3081079 35.952084
-17.174295 -10.861778 32.638702
-11.317767 -0.76997739 39.692394
-26.509918 -20.043484 32.634823
-5.1535573 -18.817404 39.731701
-14.699287 -10.769201 33.252296
-15.368608 -10.7692 33.388695
-17.26248 -14.910476 32.638664
-20.990387 -10.956736 36.052055
-14.295997 -5.9639807 32.621193
-10.799912 -1.0227188 39.698555
-25.853926 -11.348762 35.511299
-14.266218 -6.4549389 26.896927
-22.618677 -22.790039 32.63644
-12.052797 -4.9558859 39.683678
-25.190899 -11.299501 36.084351
-14.295684 -13.6412 33.262184
-20.806047 -11.218138 35.511299
-12.879903 -16.806126 39.67384
-14.294039 -15.587255 37.861137
-12.082265 -19.204079 39.683342
-26.364769 -9.7585058 35.594627
-21.549892 -11.8008 35.512718
-19.925928 -21.990572 32.637558
-19.602875 -12.66338 32.637695
-23.231787 -8.272315 30.909077
-14.295431 -0.17838717 34.134525
-9.5952644 -1.5054265 39.712883
-13.96259 -18.33917 39.660973
-14.265962 -8.52812 29.475719
-16.780468 -9.5217257 34.848122
-24.482246 -11.082122 36.078739
-26.578875 -18.139114 32.634796
-14.288442 -8.7772141 33.770931
-11.552508 -17.809715 39.689651
-26.316416 -13.609484 32.634903
-14.255785 -7.702487 26.629038
-11.288846 -18.68082 39.692795
-14.29439 -14.169095 36.873074
-23.495129 -20.854275 32.636078
-14.293491 -22.148663 39.400745
-18.879715 -16.45229 32.637997
-21.433228 -15.417694 32.636932
-14.295242 -1.319591 34.650238
-22.21821 -7.6867828 29.063057
-24.623487 -10.769199 32.746834
-14.243394 -8.298028 25.188946
-14.29569 -1.0759428 33.433865
-8.192193 -8.2332745 39.729626
-17.068161 -20.285624 32.638748
-14.296338 -5.7714076 31.68885
-9.262887 -5.4203458 39.716862
-9.1201077 -17.76372 39.718628
-14.293861 -23.065102 38.360977
-10.84568 -9.6548548 39.698074
-7.1716671 -19.89761 39.74184
-9.1124916 -3.6918526 39.718632
-26.634975 -9.7537251 35.579559
-23.93259 -21.104412 32.635895
-17.881533 -8.39569 29.209707
-22.648798 -19.305649 32.636429
-14.294666 -14.58391 36.132698
-14.294058 -2.3517931 37.868668
-21.591879 -11.681551 36.057377
-11.540174 -4.9358778 39.68977
-7.4295678 -14.641346 39.738758
-14.295086 -7.262567 35.104336
-14.488978 -8.9880352 28.1882
-14.294443 -8.8636103 36.862137
-25.464247 -8.4999247 31.626671
-11.129936 -0.72099835 39.69463
-14.178702 -1.7144042 39.658363
-14.294456 -17.410099 36.699493
-21.508066 -7.2922101 26.415371
-12.082787 -17.533453 39.683334
-19.327173 -10.7692 33.380066
-12.177698 -0.5366677 39.682167
-14.009377 -13.972698 39.660385
-14.296555 0.16576004 31.083242
-25.248295 -16.786306 32.635349
-11.87945 -5.8760614 39.685745
-22.994785 -9.9501095 36.1987
-14.296892 -2.7697392 30.163788
-19.944126 -17.867435 32.63755
-16.308771 -14.138449 32.639065
-14.293549 -8.4227848 39.258495
-14.26369 -6.4100666 26.392355
-14.293517 -19.887184 39.327198
-13.045319 -13.760396 39.671867
-14.718641 -11.357974 35.511299
-18.56934 -10.751987 36.033432
-20.449404 -7.6527796 27.548765
-5.7476006 -19.006863 39.959
-15.161049 -12.287786 32.639542
-15.851162 -10.7692 33.507164
-23.306534 -6.9706273 26.805214
-23.237598 -10.7692 33.019215
-23.012375 -9.4302807 34.559826
-14.705979 -11.774711 36.0051
-14.295191 -4.2904973 34.801399
-10.498819 -9.2177925 39.702198
-14.295633 -3.6788964 33.593872
-14.295332 -21.490473 34.270199
-9.4118853 -3.7719398 39.715069
-14.296688 1.9981734 30.718466
-14.29365 -18.823914 38.95385
-8.0563755 -10.266012 39.731255
-12.473758 -1.382571 39.678642
-14.2949 -1.8632047 35.57922
-23.268824 -15.098021 32.636169
-24.905178 -8.5891542 31.907984
-17.662882 -8.0791473 26.212555
-14.295536 -14.61235 33.683792
-14.295442 -19.647369 33.956535
-9.0974369 -1.7635044 39.718803
-14.295357 -3.9418759 34.347462
-25.840376 -7.4292912 28.251255
-15.065212 -8.7389507 27.134758
-18.327984 -23.784203 32.638222
-23.824757 -23.343193 32.635941
-17.824095 -8.9301014 32.982899
-26.772528 -8.3493738 31.152023
-19.786312 -14.605825 32.637619
-11.890141 -8.8291197 39.685631
-16.307295 -14.656021 32.639065
-14.272968 -7.2496772 29.097946
-14.297134 -3.1516557 29.507013
-17.85733 -10.7692 33.936344
-20.123514 -12.843375 32.637482
-14.294618 -1.23594 36.347313
-24.94212 -8.5794935 31.877529
-21.061087 -23.969849 32.637089
-14.295165 -4.3751469 34.872528
-26.033092 -9.8198013 35.787876
-18.245979 -11.70608 32.638256
-10.331655 -6.9035625 39.704163
-12.037021 -14.253168 39.68388
-18.968212 -8.1043005 28.696871
-14.269617 -5.9802523 26.89785
-18.315157 -22.503992 32.638229
-14.293711 -0.25464344 38.835815
-14.640261 -10.773933 35.511299
-16.81061 -21.563599 32.638855
-18.091259 -10.7692 35.15189
-25.598309 -8.7160568 32.308075
-15.048941 -15.687721 32.639587
-19.259203 -20.111774 32.637836
-23.245007 -9.8412361 35.855453
-14.293625 -17.32645 39.022869
-25.571022 -18.223475 32.635216
-14.294372 -8.1031818 37.050438
-23.362411 -24.555004 32.636131
-25.178305 -22.588593 32.635372
-14.296452 -4.2024498 31.374123
-13.622335 -19.071722 39.665039
-13.186838 -11.547043 39.670185
-12.803216 -2.3772922 39.674725
-14.265447 -16.084377 39.657333
-14.2655 -8.8674145 29.823725
-23.782204 -12.160323 32.63596
-16.647015 -22.971752 32.638924
-11.237672 -19.37993 39.693405
-17.150114 -9.5127583 34.819859
-14.297145 -0.76619256 29.477015
-14.295876 1.7656553 32.92701
-8.6624031 -17.676371 39.724079
-14.227163 -8.737442 39.657791
-14.295715 -4.7135615 33.378246
-11.902271 -5.7159271 39.685471
-20.271193 -9.7704229 35.632202
-18.460308 -19.858292 32.638168
-14.293483 -15.330226 39.432991
-17.818686 -22.467705 32.638435
-24.251419 -19.03286 32.635765
-14.286644 -6.5454187 30.627899
-14.295448 -6.9255176 34.119789
-18.624924 -16.131065 32.6381
-14.295424 -12.519915 34.004745
-14.294798 -20.055761 35.778454
-14.294067 -3.3259249 27.866734
-14.293692 0.83013368 38.904896
-14.294194 -14.455916 37.425766
-14.287508 -4.0581169 27.632095
-14.296192 -2.104229 32.067112
-8.7554293 0.9036665 39.72287
-14.295744 -4.6039495 33.299232
-14.274765 -5.7625008 27.533543
-8.0169907 -1.1429455 39.731655
-9.1542854 -20.622458 39.71822
-18.81904 -17.067392 32.63802
-19.242094 -16.78816 32.637844
-22.082165 -23.304916 32.636665
-14.295689 -21.830832 33.249359
-19.926636 -8.6893969 32.224026
-14.293513 -21.280594 39.33849
-14.294548 -19.60627 36.477573
-14.294048 -7.3295245 37.919731
-21.203552 -24.367569 32.637028
-14.294835 -3.9550464 35.7658
-20.89477 -10.769201 34.346775
-14.2954 -3.6732345 28.542229
-10.322267 -17.805462 39.704308
-26.5819 -13.128426 32.634796
-14.295233 -4.2661805 34.683605
-14.2958 -18.343512 32.925766
-14.297351 -2.5916836 28.915264
-19.825897 -10.7692 35.403164
-14.294586 -21.83626 36.363308
-9.8143864 -12.57259 39.710358
-14.293907 -10.964105 38.296856
-17.974777 -8.6143484 31.179272
-23.648811 -10.769199 34.055489
-14.250393 -7.5617714 25.496193
-20.371433 -10.679367 36.047062
-14.296299 -4.1802721 31.789454
-6.4026527 -11.020839 39.750938
-20.804085 -10.023015 36.428551
-8.3669186 -16.871044 39.7276
-14.294733 0.38200068 36.032475
-16.229973 -15.963946 32.639095
-14.296072 -3.8677168 32.398754
-12.936148 -17.627317 39.673172
-26.929209 -9.9965515 36.345123
-14.262061 -6.7200069 26.496302
-14.294538 -20.455523 36.505238
-26.339279 -10.46828 36.092209
-13.064938 -4.2628975 39.671627
-14.822744 -18.504227 32.639683
-26.041996 -15.278532 32.635017
-14.294459 -1.0011827 36.775932
-11.337362 -11.729989 39.692215
-14.296577 -1.3066123 31.019997
-19.578547 -10.86846 36.041225
-10.618282 -0.52734977 39.700714
-19.297359 -19.588074 32.637821
-8.1841822 -4.5837984 39.729683
-23.284534 -11.8008 36.004597
-14.362686 -8.6707582 25.346039
-9.5441532 -19.185968 39.713573
-9.6077843 -3.1679015 39.712734
-14.296591 -2.6458488 30.982586
-26.095572 -12.699236 32.634998
-24.19701 -13.802853 32.635784
-14.296009 1.22595 32.565647
-10.566304 -2.9732127 39.701336
-14.294014 -19.973089 37.930008
-25.529222 -19.60928 32.635231
-11.329514 1.0463333 39.692253
-14.678372 -9.9854822 36.310223
-12.067451 0.68343461 39.683479
-14.294315 -17.610558 37.086998
-14.29453 -6.8568168 36.612446
-12.866063 -18.924934 39.674004
-25.511326 -6.8056841 26.285198
-14.296816 -1.783473 30.374584
-6.2489843 -15.771962 39.752495
-14.295908 -4.5066285 32.85215
-15.370374 -14.582376 32.639454
-22.758518 -21.112186 32.636383
-14.287134 -4.2441769 27.801678
-17.910141 -8.4141617 29.412249
-22.092661 -9.8872871 36.000641
-10.191401 -11.86809 39.705868
-17.819386 -10.152028 36.444901
-19.437658 -10.7692 35.064846
-14.295023 -11.780258 35.155392
-14.294186 -10.106222 37.554832
-17.011847 -11.305528 36.022152
-26.465508 -18.892344 32.634842
-23.211987 -8.2827625 30.942017
-20.660198 -8.5612984 31.820164
-14.138896 -11.056185 39.658844
-14.294187 -3.9547651 37.526154
-26.447254 -13.133581 32.634853
-6.4772348 -9.6000776 39.750038
-22.726875 -8.5049019 31.642361
-14.295136 -17.421627 34.831844
-14.293401 -9.6213818 39.656754
-13.695034 -2.2679288 39.66412
-7.526062 -14.934404 39.737617
-9.9826736 -3.3202226 39.708279
-18.756783 -10.769201 34.882607
-23.047203 -9.9678164 36.254528
-14.296796 -3.4229803 30.431965
-14.295871 -18.999908 32.724327
-24.604525 -7.6218462 28.85833
-20.46921 -11.578835 32.637337
-14.296108 -6.3873606 32.320274
-14.296385 -5.3483486 31.562807
-7.1116667 -6.2428761 39.742458
-19.85914 -9.3721209 34.376465
-15.150602 -21.665535 32.639542
-6.8032007 -9.6062775 39.746155
-24.663372 -11.8008 35.842804
-18.818134 -20.912333 32.63802
-19.229721 -25.25383 32.637848
-14.294807 -7.6130614 35.863064
-14.296826 -0.32118511 30.340393
-6.8984251 -18.820494 39.74509
-20.051542 -17.598873 32.637505
-14.121278 -6.4515228 39.65905
-20.635265 -8.2076635 30.705252
-14.281191 -6.6546364 29.800547
-20.61673 -10.814913 35.511299
-13.206052 -3.0430884 39.669937
-14.295767 -11.424092 33.022602
-18.780178 -8.582139 31.885866
-10.234275 -9.7253609 39.705353
-14.293596 -23.040133 39.105145
-22.536919 -21.409964 32.636475
-14.294991 -12.876701 35.253269
-10.330379 -12.114798 39.704208
-14.295601 -21.646667 33.500748
-11.369697 -6.3430748 39.691811
-18.585167 -10.7692 33.014606
-14.295444 -1.3786019 34.098751
-5.528038 -18.096331 39.959
-23.618603 -7.6763268 29.03009
-11.099858 -19.408529 39.695049
-24.865223 -7.7166872 29.157335
-14.296548 0.03322053 31.102524
-14.297255 -3.7444396 29.185617
-22.976582 -8.7221718 32.327354
-14.293575 -5.7589173 30.859344
-23.467981 -15.187737 32.636089
-13.819022 0.79186821 39.662643
-14.263325 -8.006813 28.349098
-16.511457 -11.667244 36.018723
-14.295048 1.8685228 35.178596
-14.295175 -0.77121282 34.834923
-20.955423 -7.484159 27.0378
-11.196864 -17.980556 39.69389
-14.295642 -21.295795 33.379547
-20.137308 -10.7692 34.342957
-22.084345 -22.118706 32.636665
-25.402079 -11.8008 35.737625
-15.553739 -8.5784912 26.660732
-16.965593 -8.8747969 31.571568
-14.294014 -13.876271 37.991287
-11.263934 -8.0108376 39.693089
-15.23472 -20.36528 32.639511
-14.295956 1.2939651 32.708076
-12.540261 -11.927879 39.677887
-14.295139 -22.849957 34.813301
-15.183003 -18.59263 32.63953
-26.837965 -13.340556 32.634689
-14.615862 -9.3567038 31.456076
-19.999304 -9.4550295 34.637852
-12.878181 -16.872805 39.673862
-14.296988 -2.5136728 29.904789
-21.483629 -8.2446289 30.821791
-21.101706 -13.065744 32.63707
-9.0813723 -4.504992 39.719006
-18.632141 -20.275631 32.6381
-20.483761 -11.8008 35.664604
-25.587677 -11.248094 32.635208
-14.296755 -4.6550407 30.550873
-14.262026 -8.5599871 28.819405
-14.293722 -15.090093 38.797333
-14.739097 -8.8152266 27.196342
-17.660896 -13.346109 32.638504
-12.633904 -1.3671055 39.676739
-14.141996 -13.848631 39.658806
-14.296373 -4.060813 31.583496
-14.16324 -12.485586 39.65855
-14.841322 -10.7692 33.346695
-18.232084 -8.0007362 26.557259
-14.294334 -22.99122 37.070263
-14.296103 -2.8446207 32.310791
-18.708862 -8.0551367 27.838303
-16.714027 -8.2188625 25.712345
-17.930885 -8.1502304 27.267353
-26.735971 -9.1122284 33.557095
-18.846432 -24.623678 32.638008
-17.966864 -8.5055103 30.266056
-15.507054 -9.4334335 33.644371
-24.52092 -18.999722 32.635654
-13.831747 -9.6417389 39.662498
-26.462082 -10.004808 36.371155
-7.1291203 -17.492599 39.742344
-11.100609 -20.871597 39.695038
-14.352007 -17.825436 32.639877
-13.950207 -9.1621971 39.661087
-14.260935 -7.4547801 39.657387
-25.586189 -11.736469 36.087807
-13.923235 -21.02668 39.661671
-14.991021 -10.00637 36.376072
-16.48756 -17.998745 32.638988
-25.281721 -11.103628 36.084843
-24.802944 -15.419019 32.635536
-15.400099 -23.260199 32.639442
-26.391045 -20.742388 32.634869
-27.443415 -10.335284 36.129272
-24.366997 -11.7493 35.511299
-14.295588 -22.751156 33.53487
-19.735096 -8.1841202 30.631021
-22.58506 -12.098878 32.636456
-18.660042 -19.385611 32.638084
-10.880074 -16.510595 39.697662
-19.647964 -21.83503 32.637676
-22.854351 -16.204021 32.636341
-14.353752 -10.945167 32.639877
-20.98291 -11.243958 35.511299
-14.293596 0.50513411 39.164688
-26.90893 -10.7692 33.211506
-19.013363 -8.6958265 32.244293
-14.295027 -6.3631849 35.257622
-11.453715 -22.030893 39.690826
-14.281944 -5.5069485 28.481192
-14.296126 -4.4715433 29.681419
-24.70595 -14.399921 32.635574
-15.550699 -9.4324951 33.712727
-25.930439 -19.127754 32.635063
-5.6486855 -21.500074 39.959
-14.294906 -3.6518884 35.569363
-19.422468 -24.471209 32.637768
-20.438303 -17.029417 32.637348
-14.295948 -5.8013773 32.750999
-16.196665 -19.67691 32.639107
-14.294491 -17.484201 36.618706
-9.3760509 -16.431303 39.71558
-14.297432 -2.9000709 28.69828
-9.385725 -19.212803 39.715462
-15.689731 -8.7067032 27.957407
-19.199881 -10.7692 33.47295
-21.031361 -8.2531843 30.848766
-14.295518 -14.941711 33.739433
-9.8823023 -3.36251 39.709473
-10.70516 -3.1791854 39.699684
-25.890917 -20.210997 32.635082
-24.258488 -8.3820972 31.25519
-23.387995 -8.0734329 30.282059
-14.293664 -13.594859 38.950817
-14.469542 -10.055037 36.444901
-14.285386 -8.9567356 33.45731
-21.93331 -22.182682 32.636726
-5.9782028 -15.384706 39.752499
-14.296156 -3.9351211 32.175117
-14.293866 -0.51050973 38.403454
-5.9565868 -19.113344 39.955833
-16.142284 -8.9488144 30.747406
-16.421265 -8.4270344 26.92207
-13.026443 -7.5868587 39.672092
-17.758955 -10.339642 36.397629
-16.701017 -9.2713957 34.058907
-14.288055 -9.8232126 35.026974
-19.321987 -9.6009884 35.098019
-21.691927 -8.2377615 30.800142
-11.518489 -6.5733528 39.690048
-24.978935 -11.600584 32.635464
-14.296752 -4.18922 29.434713
-14.294324 -22.895052 37.101875
-21.488735 -10.7692 34.477856
-14.29357 -12.078199 39.203636
-24.469709 -20.106808 32.635674
-8.5228443 -2.2644267 39.725636
-25.6574 -9.4621935 34.660439
-23.231781 -14.618296 32.636185
-7.4679255 -19.500547 39.738312
-11.802933 0.59053385 39.686623
-17.603682 -8.0498266 25.867012
-18.906641 -9.5933924 35.07407
-14.295023 1.314899 35.243931
-23.614599 -17.256413 32.636028
-18.394083 -10.7692 35.294067
-14.290014 -8.5500956 33.761936
-14.294081 -12.74719 37.832348
-14.292573 -4.777143 29.439026
-19.337177 -19.096502 32.637806
-14.296535 0.70784259 31.134262
-13.581627 -0.36623013 39.665466
-17.601717 -18.385536 32.638527
-23.098976 -7.2182999 27.58606
-17.393246 -8.4963837 29.190268
-21.33831 -11.576267 32.636978
-25.189337 -7.927371 29.821566
-14.296785 -1.5084468 30.453678
-14.294466 -10.856942 36.802708
-22.373859 -20.396368 32.636543
-14.295361 -23.74552 34.188156
-10.428915 -17.763895 39.703033
-14.294935 -4.5064964 35.49427
-8.8674603 -8.8379059 39.7216
-22.677839 -19.605997 32.636417
-10.310349 -17.711004 39.704449
-23.876841 -9.7097502 35.440914
-12.527683 0.20771456 39.678001
-8.9949265 -2.7088821 39.72002
-14.294831 -8.1925135 35.80315
-14.294378 -7.4466748 37.032764
-14.293407 -8.7860518 39.633694
-23.185453 -21.464329 32.636208
-19.26948 -19.669586 32.637833
-18.352835 -14.465443 32.638214
-18.105213 -21.479271 32.638321
-22.695667 -10.7692 33.802486
-25.978642 -9.9399834 36.166779
-14.293916 -1.8927996 38.255932
-10.172564 -15.267482 39.706089
-21.501419 -15.306274 32.636906
-18.367853 -14.152222 32.638203
-10.490335 -5.1193962 39.702259
-14.293547 -10.386131 39.265335
-17.208878 -8.6857853 30.433903
-15.532135 -22.309904 32.639385
-14.29357 -0.15916634 39.227356
-6.936204 -13.842907 39.744617
-7.7765737 -3.1098094 39.734516
-22.015675 -7.9155655 29.784348
-12.585443 1.0593808 39.677315
-14.12837 -10.699005 39.658966
-23.892462 -18.835794 32.63591
-18.36031 -8.2224588 28.61314
-22.449392 -9.6197939 35.157307
-24.885157 -10.769201 33.957062
-26.0172 -17.930676 32.635029
-17.15453 -21.71043 32.638714
-14.248512 -7.6725636 25.303524
-23.94578 -7.0017376 26.903297
-14.255174 -7.2187929 25.908312
-20.475082 -20.325293 32.637333
-26.005587 -12.343945 32.635036
-14.835625 -21.703274 32.639675
-14.297316 -1.0361701 29.01347
-14.325182 -10.7692 34.426949
-25.188585 -6.9125485 26.622108
-13.688119 -22.214302 39.664539
-6.7801547 -18.971825 39.746498
-23.748783 -7.5308399 28.571411
-14.293796 -18.519979 38.545494
-15.244675 -9.3270941 32.308014
-22.61659 -7.0121231 26.03404
-19.949669 -21.44805 32.63755
-14.281798 -7.3139315 30.742588
-14.295415 -21.108116 34.031872
-14.295442 0.85257161 34.106415
-14.296612 -0.14867735 30.924252
-13.461496 -11.124978 39.666908
-17.453459 -13.18997 32.638588
-22.505253 -9.6893616 35.376633
-21.663235 -11.51032 35.511299
-14.294825 1.081045 35.786549
-22.171013 -12.403313 32.636631
-26.45891 -16.266354 32.634846
-23.991814 -19.973831 32.635872
-16.905964 -16.261086 32.638817
-22.766531 -10.7692 34.085857
-14.294221 -1.579061 37.426754
-8.3398857 -21.157608 39.727921
-14.295408 -7.083178 34.227924
-11.643364 -2.6803238 39.688522
-14.293827 -17.570353 38.455246
-17.541321 -19.663193 32.638554
-14.295527 2.2713957 33.873707
-15.514763 -8.5080624 26.010748
-14.295871 -12.230027 32.724892
-20.5149 -20.876896 32.637318
-24.449163 -11.249627 36.078659
-24.485716 -15.524263 32.635666
-24.794542 -22.327848 32.635536
-17.298996 -8.5610676 29.560423
-14.294153 -22.577915 37.540115
-14.294882 -5.3276796 35.645824
-14.295574 -11.576394 33.575134
-17.717125 -19.174902 32.638481
-14.293759 -3.2800584 38.684025
-14.264185 -7.8275795 28.274391
-23.500214 -12.167218 32.636078
-14.700195 -12.518621 32.639732
-24.77182 -8.6850948 32.210457
-22.741207 -14.044865 32.636395
-8.1787462 -15.691451 39.729843
-16.224979 -23.555523 32.639099
-21.088985 -14.871849 32.637077
-12.106447 -11.277079 39.683052
-26.336899 -9.922369 36.111244
-20.433483 -10.769201 33.787083
-15.512805 -10.7692 34.881626
-14.294334 -6.0059247 37.14061
-18.672443 -10.769201 32.81868
-22.868053 -6.9975896 26.35247
-13.154655 -16.992838 39.670563
-14.35396 -10.7692 35.140106
-16.439701 -20.164228 32.639008
-10.210875 -2.7208502 39.705559
-21.750042 -8.1986427 30.676809
-14.293936 -13.021872 38.222446
-21.212069 -15.156492 32.637024
-8.4689207 -18.592855 39.726387
-25.153397 -9.5060768 34.79879
-14.293896 -12.943474 38.329319
-8.9345665 -7.9859509 39.720795
-7.2623706 -17.599199 39.740757
-23.599573 -9.8197298 35.787651
-23.664883 -23.286411 32.636009
-14.295765 -2.6448817 33.230186
-12.446894 -22.073133 39.679127
-24.177753 -7.7191277 29.165031
-13.696224 -21.663319 39.664398
-14.345042 -23.976751 32.639881
-14.941814 -8.5899353 25.688116
-25.400799 -9.839344 35.849487
-5.5634007 -17.727131 39.959
-19.516312 -10.769201 33.982971
-10.06696 -17.898104 39.707352
-11.901973 -14.092958 39.68549
-17.835901 -11.409613 36.02853
-14.293928 -18.552263 38.169319
-9.9408951 -14.229527 39.708851
-15.723076 -8.7393122 28.285038
-11.833233 -9.3337936 39.68631
-14.295407 0.24715471 34.200558
-12.182749 -22.621153 39.682281
-18.825233 -10.927179 35.511299
-11.504282 -11.898517 39.690228
-12.641096 -16.165396 39.676685
-23.823954 -22.743334 32.635941
-19.310814 -8.8063078 32.592613
-11.040804 -11.711311 39.695747
-13.310626 0.32127643 39.66869
-14.294258 -18.940067 37.242294
-14.284512 -9.7249928 34.275074
-20.33889 -9.0802984 33.456429
-22.253073 -8.0880833 30.328247
-17.878155 -9.7064457 35.4305
-14.295435 -18.837862 33.972679
-14.293776 -11.270138 38.649361
-18.413982 -11.669618 36.033195
-14.295383 2.0880866 34.264633
-18.939932 -7.7906685 26.055761
-23.030197 -11.8008 35.98674
-21.076632 -10.7692 33.789585
-14.295205 -13.64691 34.634045
-21.185749 -8.0950661 30.350264
-20.958065 -10.781536 36.051628
-14.856668 -10.535127 36.004974
-10.020763 -6.3354011 39.707855
-14.295866 -6.9903207 32.980228
-14.294452 -20.957947 36.746902
-25.608669 -8.6246967 32.020039
-6.5472584 -15.632376 39.749264
-24.957096 -12.444998 32.635471
-24.196518 -19.212461 32.635788
-14.765976 -13.471634 32.639706
-14.190372 -4.3337994 39.65823
-25.627178 -22.464687 32.635185
-8.8893909 -1.1319747 39.721275
-16.095381 -22.478289 32.639153
-22.011246 -10.7692 33.102684
-26.501293 -8.8192205 32.63332
-11.369904 -5.697197 39.691807
-16.369225 -13.781219 32.639038
-14.293729 1.623861 38.812397
-14.294695 -9.7233315 36.181522
-23.818581 -21.578972 32.635944
-15.869166 -8.4176674 25.881817
-18.330496 -10.7692 35.362701
-14.295451 0.77602232 34.078892
-14.294456 -22.183214 36.733761
-14.294799 -16.026558 35.781979
