# .PCD v0.7 - Point Cloud Data file format
VERSION 0.7
FIELDS x y z
SIZE 4 4 4
TYPE F F F
COUNT 1 1 1
WIDTH 1577
HEIGHT 1
VIEWPOINT 0 0 0 1 0 0 0
POINTS 1577
DATA ascii
24.347599 36.74482 -11.100817
30.260645 40.32193 1.3262341
12.387867 40.004215 0.80001187
27.85235 41.357906 6.5219455
24.347601 34.619537 -8.9692078
34.216225 37.504436 -3.3501174
22.700006 40.019703 8.7569103
18.327 41.347603 -10.004731
24.347603 42.237389 -9.1063509
33.715408 30.152636 -15.551525
32.521404 37.007805 -4.174263
24.771132 41.312798 6.5974636
18.062916 44.662441 -11.045465
23.780304 36.621067 -7.1163001
18.327 41.15461 -9.0748787
29.690231 29.897882 -15.974221
23.788059 35.658333 -11.287201
33.519547 31.90624 -12.641239
20.182074 38.894917 -11.2872
12.059937 40.419495 1.489262
19.384899 36.314064 -7.1162996
16.456299 40.166721 1.0694743
8.7872629 36.95174 -4.2659879
23.876938 32.357105 -11.2872
17.977301 48.182522 -7.5560808
24.598919 45.882961 -10.107787
24.830242 41.098835 6.9547496
19.227076 34.644981 -8.0949659
19.218155 36.238224 -5.4507074
14.563858 40.361557 1.3929542
32.956474 32.809525 -11.142056
11.113945 41.417099 4.2352819
25.430262 41.413818 6.4287262
29.455902 33.724861 -9.6226854
18.482378 44.705894 -6.933754
26.714754 37.865269 -2.7508035
21.057695 48.106201 -9.0148602
25.340908 30.36595 -15.197123
16.947273 36.994503 -4.1953926
24.410107 48.800201 -7.6129317
20.49177 43.108646 -7.1163001
23.345348 39.848839 0.54147577
24.854527 46.909573 -9.8863688
27.536743 41.418053 4.4839168
20.004131 42.887024 -11.287199
19.727438 40.124722 -11.2872
19.594391 48.285755 -10.009932
13.167272 41.418121 4.6714358
24.347601 43.280926 -10.63069
26.510223 41.417942 4.258801
18.327 36.600037 -9.1698141
24.347601 35.687393 -10.391181
19.29509 37.137074 -3.9589157
19.314636 34.900932 -7.1163001
10.569292 38.099632 -2.3608539
32.403919 38.019367 -2.4953988
24.729263 30.268803 -15.358315
24.198914 46.100735 -11.459751
30.691732 37.196796 -3.8604879
23.375805 38.815071 -7.1162996
23.278893 36.466694 -5.0717735
26.005274 35.522469 -6.6390347
20.378292 34.374191 -8.5444603
22.757166 39.023819 -11.2872
22.053886 31.693388 -12.993811
24.03458 32.884705 -11.016737
26.681049 30.043102 -15.733025
27.983919 32.804802 -11.149587
23.362926 47.952599 -11.531253
25.79435 36.533165 -4.9616046
24.132269 33.127827 -11.2872
14.976192 33.625431 -9.7868309
17.278856 39.308987 9.9440594
27.15246 38.970493 -0.9165225
17.036959 40.641167 7.7194881
21.965355 37.860474 -2.7584713
23.467554 36.137074 -5.6188388
20.177143 32.637371 -11.426998
31.499069 31.386829 -13.503168
25.943954 28.574509 -18.170362
24.337788 37.017345 -11.2872
16.635662 41.420403 5.577095
14.417254 34.865936 -7.7279663
10.261189 38.548458 -1.6159308
17.743898 40.163837 8.5165339
23.222656 48.70454 -9.5494814
17.369074 32.805061 -11.148513
29.140738 29.599995 -16.468586
24.453194 34.950733 -7.5878334
24.885487 33.502872 -9.9908333
24.347601 41.686691 -10.848573
28.711411 31.611496 -13.130129
32.333549 38.891785 -1.0474598
26.847902 41.154011 6.8624902
21.595329 35.078018 -7.3764133
28.131304 31.00507 -14.136561
19.65556 33.309174 -11.287201
23.622301 48.800201 -10.126034
24.347603 39.153419 -7.5090017
31.776823 34.91452 -7.6483755
26.720249 34.438454 -8.4381924
21.152027 36.171455 -11.2872
24.347601 39.420658 -7.4397459
22.105883 35.155884 -11.287201
21.743824 29.247288 -17.053514
23.957674 44.007313 -6.9286976
16.465879 40.644367 1.8622022
20.218592 41.326824 -11.2872
20.026239 42.067318 -7.1162996
22.674122 48.106201 -9.0671787
17.899717 46.502697 -11.180416
32.082458 31.357605 -13.551708
24.347601 35.780533 -9.3995113
27.24395 37.26992 -3.7389114
17.835409 36.170593 -5.5628695
19.602797 29.851521 -16.050554
22.675652 34.82618 -7.794445
24.601517 45.634644 -8.9443951
22.775034 41.418663 5.4252539
19.686583 30.842152 -14.406439
25.323505 35.120277 -7.3065038
20.87475 33.183647 -10.520407
19.035948 41.419193 5.3564606
24.764225 28.33094 -18.574532
20.656044 35.888344 -11.2872
27.733192 36.644802 -4.776432
18.20318 44.257202 -11.473093
19.225306 34.958927 -11.2872
22.654306 36.738682 -7.1163006
21.298397 44.422279 -11.471899
20.043726 30.286337 -15.328935
18.778921 36.348679 -11.2872
11.127852 37.113472 -3.9975996
18.903269 36.821503 -4.4826341
32.351135 35.032139 -7.4532042
25.984932 39.011753 -0.84797359
15.886698 33.848568 -9.4165525
33.487541 37.893063 -2.7050867
22.373075 41.416946 4.6418171
24.613106 44.526382 -8.5258293
13.18593 34.556328 -8.2417383
26.98564 36.065166 -5.7383966
20.697439 41.412289 -11.287201
22.538151 44.598923 -11.47062
10.47291 40.082359 0.92982435
12.213766 41.420776 5.417767
28.412891 32.522194 -11.618651
20.969994 40.735622 2.0133829
25.311056 40.123459 0.99713242
18.327 34.075397 -10.622245
20.101194 48.542568 -11.526592
19.817307 32.392101 -11.834043
25.158047 41.418114 3.1998622
18.928591 45.231987 -6.937562
29.614321 40.845478 2.1951926
20.658642 41.416992 3.7136559
17.323427 38.290489 -2.0445065
18.589197 41.422493 6.3298302
18.070374 45.37542 -11.234915
30.744234 41.419125 3.4862885
20.305645 48.800201 -11.021763
20.339949 30.007469 -15.791777
21.244778 32.65942 -11.390468
16.484503 40.171425 1.0772758
27.947968 37.993114 -2.5386982
30.019825 34.191879 -8.84762
16.875071 37.947109 -2.6143765
22.170004 41.358471 3.0470333
9.1882982 38.314724 -2.0038147
21.815157 35.90453 -7.1163001
18.327 39.861053 -10.201796
22.629776 39.63208 -11.2872
29.819157 38.191334 -2.2098305
19.212017 48.800201 -10.930092
18.781021 48.404678 -11.527695
32.035263 33.476627 -10.034822
29.2932 38.851154 -1.1147141
18.327 39.535992 -9.9753332
18.118759 40.428123 1.5032202
18.345819 33.491844 -11.287201
18.236366 41.416328 4.1266937
16.148773 38.166794 -2.2497344
23.165585 40.047657 8.7101994
24.849463 47.065651 -7.0675039
24.115623 46.002937 -11.46046
17.94323 46.457443 -8.6147919
34.422455 39.306835 -0.35874033
34.225975 34.203091 -8.8292637
17.836344 47.413158 -11.389252
17.82506 47.064533 -11.615506
10.992889 37.650257 -3.1067016
24.347599 42.176006 -7.3483853
28.590113 36.813335 -4.4967823
24.347601 38.397865 -9.4662857
25.983299 41.417721 5.3365922
27.998182 35.298538 -7.0108037
13.580453 34.599182 -8.1706343
31.544119 40.747089 2.031775
13.829439 41.355854 3.0431957
23.305519 31.382008 -13.510674
22.482718 40.282341 8.3183441
19.896431 48.106201 -10.18384
19.052929 32.727913 -11.276659
18.904083 41.334461 3.0073903
30.749126 33.372177 -10.208097
11.450853 41.422047 5.7558851
19.596853 48.278511 -10.279111
15.910995 40.018757 0.82393622
20.36043 40.45068 -7.1163006
15.14716 34.571487 -8.2166929
17.36829 35.332432 -6.9539089
15.580023 41.418179 4.8366051
23.43667 48.800201 -6.993917
16.815954 40.177761 1.0877692
19.038242 45.251671 -11.465897
32.448269 37.547527 -3.2784963
11.99688 37.752583 -2.9369421
24.844978 30.037277 -15.74258
18.685688 41.347858 -11.2872
22.137266 45.783234 -6.9415512
24.606609 45.147713 -9.3357658
14.399451 41.421272 5.7020125
29.911547 37.766319 -2.9152195
31.301207 40.774441 2.0771875
12.746486 37.839279 -2.793092
27.558662 30.042 -15.734906
32.347961 29.718508 -16.272087
16.400661 33.61063 -9.8114729
34.830704 41.278172 2.9130051
23.858522 48.191261 -6.8741488
20.709854 46.865467 -11.639445
22.018848 41.631523 -7.1163006
26.499874 41.206985 2.7953587
17.035585 40.688503 7.6404481
26.726589 41.418324 3.4584258
18.031429 48.800201 -9.9881868
18.076082 45.921272 -9.2042074
32.642792 36.648758 -4.7701612
26.464087 34.522766 -8.2982416
21.267424 39.940704 8.888916
23.565992 30.440004 -15.074108
26.916521 40.477036 1.5838585
10.888325 41.416466 4.0293508
23.973831 40.795017 2.1117775
18.610584 48.685684 -6.8780875
19.43943 45.862465 -6.9421248
31.526403 33.408146 -10.148448
16.72871 41.416332 3.3881662
18.327 43.42342 -10.049549
24.696638 30.088955 -15.656804
29.251747 38.062813 -2.4231017
18.325809 45.438934 -6.9390597
14.255061 34.244255 -8.7597351
29.660664 31.020702 -14.110707
22.898453 44.149914 -6.9297299
27.055168 30.457138 -15.045881
21.21867 46.427032 -6.8707523
14.557632 38.682304 -1.3940542
20.600235 32.983376 -10.85277
24.611959 44.636127 -8.0507631
21.276648 36.639839 -4.7842808
10.753802 41.42337 6.1137366
11.894982 35.46389 -6.7354126
22.585171 40.216873 -7.1163006
34.380638 35.650749 -6.4266386
25.986578 34.412392 -8.4813995
24.611624 43.916767 -7.270875
32.804935 31.234013 -13.756875
24.347601 39.557396 -8.0042419
24.347601 37.396042 -9.0126915
23.884741 38.561359 -1.5953486
34.774601 40.550385 1.7051187
28.908918 36.652718 -4.7633753
12.116096 41.057945 2.5488806
25.304295 41.41864 5.5735545
24.202984 34.008728 -9.1512394
18.327 38.902016 -10.354733
23.268635 35.2598 -7.07481
29.062302 35.405586 -6.8332014
23.161911 39.340881 -11.2872
17.882879 38.79071 -1.2143371
26.543051 39.930088 0.67613053
24.353876 39.590816 0.11317897
10.235084 37.224213 -3.8137662
19.139706 45.105034 -6.9366436
16.542961 39.319218 -0.33710909
30.138824 35.617188 -6.4820867
28.763134 31.851742 -12.731405
13.699641 36.115246 -5.6544738
19.641083 32.880123 -11.024075
33.94165 29.785994 -16.159979
28.792219 40.888325 7.3060322
21.268461 42.094265 -7.1163001
16.345547 39.164581 -0.59374428
33.868732 30.870481 -14.360165
21.4715 32.268658 -12.039017
28.725973 32.581402 -11.520408
15.701324 36.96978 -4.2363505
34.197632 37.99255 -2.5400147
19.081085 35.702438 -6.3399277
27.774891 31.764481 -12.876163
12.258369 39.881401 0.59618592
16.628881 37.049725 -4.1037292
23.551514 41.417446 4.0088601
26.090557 34.084122 -9.0262289
24.833603 47.554367 -8.6526308
18.327 40.152431 -8.1790142
30.324554 29.841896 -16.067183
28.918072 38.143448 -2.2892499
20.856216 46.44368 -11.543942
18.409988 39.564884 -11.2872
20.367863 41.416779 4.0776157
27.249239 41.038849 2.5162668
26.506994 34.901653 -7.6694126
22.856791 27.906208 -19.279331
23.893166 48.800201 -9.2063742
34.552982 33.671844 -9.7109165
26.924339 31.799715 -12.817639
12.807805 40.887547 7.3083353
15.535251 39.694981 9.2996054
25.316057 39.969574 0.74173331
32.92897 36.869633 -4.4036026
21.584486 44.36692 -6.9313011
16.56024 34.5299 -8.2858028
10.496193 37.631966 -3.1370249
10.467937 39.079723 -0.7342217
20.684578 39.327934 -7.1163001
19.595795 45.824772 -6.9418521
33.292427 40.976864 2.413028
16.203625 33.372303 -10.207012
21.633392 48.800201 -7.8319244
18.772182 40.459126 8.0233622
19.93544 36.930912 -7.1163001
27.131874 38.848473 -1.1190317
22.350994 37.733063 -11.2872
18.128849 40.752449 7.5335884
13.563204 41.420933 5.5472674
24.347599 34.536213 -10.584494
20.012018 40.846184 -11.2872
25.94492 40.068321 0.9055891
30.696024 35.994156 -5.8564739
26.66515 38.27314 -2.0738707
25.081041 33.272434 -10.373302
22.998718 40.126694 -11.2872
16.581352 41.173798 2.7408805
20.306389 46.555832 -6.7849302
19.424425 44.794495 -6.9343958
27.321714 35.466209 -6.7324843
33.911564 39.040359 -0.80097461
19.965998 48.106201 -8.8168907
24.602423 45.547894 -9.2345781
33.748749 32.031933 -12.432623
27.298594 32.121758 -12.283174
25.185337 40.851788 2.2059276
34.210312 31.550465 -13.231615
24.141411 41.941921 -7.1162996
20.884945 39.750389 -7.1163001
16.336864 31.615307 -13.123057
20.239059 42.017597 -7.1163006
14.340052 34.596813 -8.174612
33.430134 41.418892 5.3166823
27.717484 33.537106 -9.9341908
21.664562 42.797089 -7.1163006
13.790475 38.30265 -2.0241077
27.542227 41.419136 5.8625269
31.047785 30.885435 -14.335291
32.648491 36.467999 -5.0701714
22.856489 40.994427 2.4428
29.829018 35.020378 -7.4725819
30.851559 36.266529 -5.4044294
34.636295 34.75246 -7.9175043
25.562122 41.418079 3.4803791
24.837999 47.418953 -10.230406
21.2833 34.374454 -8.5440779
23.59585 37.827927 -7.1163001
12.114423 39.791023 0.44619989
15.047665 40.894882 2.2780623
18.060671 44.447495 -9.7025204
25.750975 33.067829 -10.712915
23.615276 41.8811 -11.287199
22.988424 37.661938 -3.0880404
31.943172 38.053417 -2.4388633
19.995178 41.098698 6.9552836
27.924055 40.939243 2.3509159
22.102251 41.417027 4.3176489
18.085133 46.926888 -11.638064
24.442616 43.888294 -6.9528027
23.374834 37.11824 -7.1162996
9.437295 37.053589 -4.0969448
17.83226 47.287018 -10.057695
21.794813 41.165749 6.8432007
18.327 41.155594 -9.5985146
21.065277 35.861221 -6.0765238
15.433045 35.002781 -7.5009079
21.282707 37.120461 -3.9866095
27.101572 37.611176 -3.1725407
19.380362 37.874554 -11.2872
32.671219 34.853935 -7.7489853
29.614338 36.531456 -4.9646754
31.222109 41.418457 5.8811598
17.943018 46.457664 -10.463879
32.42067 33.32515 -10.286257
15.690252 38.65654 -1.4368896
18.327 40.716934 -11.143859
24.347599 38.078049 -9.9535208
22.595127 34.434032 -8.4452724
19.624207 32.373169 -11.865449
15.358229 38.905689 -1.0233545
21.328236 38.854191 -1.1091902
22.368549 39.760498 0.39491868
22.81744 34.32756 -8.6219988
19.576391 39.645897 9.3813076
27.263973 36.081203 -5.7117953
18.667242 44.150299 -11.473867
18.302065 44.999496 -11.467722
22.655884 41.031879 -11.2872
24.347601 33.121593 -11.259505
9.3126774 40.086159 0.93619323
24.854584 46.907909 -11.594519
19.403078 29.762447 -16.198376
24.347601 35.962395 -8.9190912
24.514723 41.41917 5.6863866
20.490845 35.4076 -6.8293495
33.789078 32.204205 -12.146709
14.183067 36.52169 -4.9799414
30.629686 30.41464 -15.116632
21.191315 32.023647 -12.445639
18.854246 35.277012 -7.1163001
25.305649 30.174534 -15.514808
24.085579 44.127625 -11.474031
20.853554 32.990845 -10.840387
22.932259 41.212349 6.7653246
20.033199 29.085327 -17.322212
24.086988 41.417641 3.8218007
22.994991 41.420761 6.0758405
20.927223 40.474773 -7.1163001
24.698101 48.113113 -9.3144379
23.368668 40.38369 -7.1163006
29.330765 41.277012 6.6569328
17.98159 48.555695 -8.8925142
19.209568 32.301815 -11.2872
24.261328 47.569164 -11.623626
16.217306 36.306438 -5.3373179
24.347601 36.942955 -7.8890758
26.116058 41.41774 4.551918
18.327 39.462967 -9.5500135
28.224701 37.75647 -2.9314673
14.430529 36.945045 -4.2773275
18.327 40.116005 -10.175073
21.656933 38.103199 -7.1163001
30.835178 39.841305 0.52852011
21.940517 40.444664 -11.2872
29.425098 39.542572 0.032806635
12.633984 37.758495 -2.927166
19.671364 39.176346 -11.2872
29.647457 33.983181 -9.1939716
25.58952 41.417473 4.9170098
20.585953 28.941238 -17.561384
13.114686 41.417114 4.3625312
33.250244 37.602608 -3.1871245
29.091677 37.095673 -4.0282283
24.126614 44.650799 -11.470245
24.347599 36.348625 -8.6638489
18.061512 44.528244 -7.4604473
34.020256 40.957016 2.3800299
17.974957 47.978745 -7.1846919
27.514849 39.831211 0.51196456
13.797808 41.41975 5.2044082
32.007462 35.938381 -5.9491153
18.327 40.992367 -9.3281565
16.798809 31.362797 -13.542167
22.817968 48.106201 -8.9128122
28.837509 30.239357 -15.407434
35.262802 41.420067 3.4119017
25.026516 35.836113 -6.1184301
17.977934 48.237778 -10.427026
19.167452 41.148033 -7.1162996
20.582943 43.244785 -7.1163006
31.60207 34.513233 -8.3143787
23.348782 37.586891 -7.1163006
16.510845 39.97464 0.75068188
22.216637 31.031216 -14.092808
33.863705 30.985668 -14.169
25.239891 33.750156 -9.5804443
18.606514 40.325302 -7.1162996
27.30452 28.646069 -18.051674
24.147762 40.345551 8.212698
26.171169 30.669945 -14.692641
18.262007 41.422424 6.2879224
18.058228 44.21405 -10.706185
19.921001 48.052139 -11.530459
18.327 35.933983 -7.8929892
24.656641 41.032085 2.5052001
24.880798 30.508839 -14.959946
18.659012 30.502712 -14.969737
32.414791 29.647297 -16.390278
24.347603 41.564228 -9.9607859
22.27314 32.991219 -10.839857
26.00832 33.921177 -9.2966595
24.694118 48.459259 -8.573041
26.700872 41.417774 4.7457891
26.252956 29.841827 -16.067051
24.800499 38.015068 -2.5020735
33.586987 37.748878 -2.9443882
22.196468 36.680672 -4.7165737
16.108101 35.306931 -6.9961596
24.61783 44.074741 -10.503881
20.793436 43.447987 -11.2872
18.065447 44.904377 -9.5463562
21.038435 30.940367 -14.243519
21.158455 42.460854 -11.2872
27.621201 31.469028 -13.366508
32.853176 41.419655 3.2388401
30.671326 39.299225 -0.37114739
21.18084 34.135509 -8.9406443
15.680147 41.069317 2.5675292
27.780527 41.072418 2.5719399
19.72752 29.565563 -16.525162
24.347601 33.845787 -9.3398361
16.469572 41.418877 5.1031504
25.710506 29.904066 -15.963718
32.729206 35.53754 -6.6144252
20.944677 41.417091 3.6057281
27.38052 41.417847 4.8982334
31.6367 41.418957 4.3037014
18.060942 44.473648 -7.0522819
13.065107 41.359222 6.5206666
24.614752 44.369232 -7.8964891
24.347601 39.970501 -9.525712
29.945511 41.418518 4.5325522
24.490341 44.717033 -11.469766
19.860397 29.402763 -16.795362
9.1642151 37.889832 -2.7090158
21.513885 41.041752 7.0502772
21.274126 47.033714 -11.635663
18.99777 42.17318 -7.1163001
23.298346 41.326572 6.5745573
21.236897 41.697224 -11.287201
22.961287 39.856133 0.55360413
25.784315 30.349911 -15.223768
19.747822 34.128014 -8.9529934
27.817122 41.418102 4.4992261
16.874577 39.701988 9.2878113
17.819309 46.886806 -6.9441543
28.377834 31.893152 -12.662653
23.093203 48.484783 -11.527013
34.264565 41.419117 5.1804094
13.592922 40.920708 7.2529111
27.766325 35.39006 -6.8588972
24.34071 41.504524 -7.1163001
12.919359 41.421822 5.7784448
12.514548 36.240391 -5.4467087
24.357212 28.053154 -19.035542
19.012007 40.317451 1.3194742
17.060089 39.659996 0.2284441
13.745152 41.415833 3.143816
23.159409 39.627869 -11.2872
33.414829 33.423546 -10.123009
18.215183 41.056465 2.5460527
34.553978 36.864601 -4.412056
29.039827 38.380371 -1.8960431
23.390141 37.289654 -3.7059343
30.865227 35.681664 -6.3751202
30.546207 37.099579 -4.0218334
29.039923 39.020164 -0.83419466
30.583912 30.527119 -14.92995
24.186817 40.510899 -7.1163001
17.910713 46.491261 -11.438203
21.932699 41.416809 4.7462516
31.463785 40.730709 2.0046
19.852303 46.120411 -11.459609
32.265362 32.821491 -11.122147
33.463966 37.440693 -3.455873
25.313171 32.773884 -11.200742
30.80208 38.71838 -1.335166
15.07177 35.068977 -7.3910255
21.377689 37.642017 -11.287201
24.340469 37.463997 -11.287201
21.985289 41.297562 2.9459591
24.347601 40.054707 -7.751729
12.022553 40.883781 7.3146763
19.900873 40.681927 -11.2872
17.870453 46.533127 -8.6022701
32.783966 38.997131 -0.87265325
22.918285 33.404667 -10.153706
18.958809 36.827091 -11.2872
18.061119 44.490665 -9.1155777
24.732256 35.565033 -6.5683174
21.356577 43.877121 -11.443201
26.055832 37.099239 -4.0221243
16.404022 41.112072 2.6384523
26.760893 40.616123 1.8147112
18.238649 39.137096 -0.63947916
27.518419 32.620926 -11.454735
18.308619 40.721878 7.5846329
24.347599 40.334595 -9.0228052
18.42964 44.388554 -6.931457
24.281967 41.017769 -11.2872
19.420038 47.50404 -6.7785096
18.056395 44.038849 -8.3317671
18.327 43.543781 -8.4277229
17.925095 47.851227 -7.5949025
22.179588 29.532696 -16.579855
22.470835 33.975548 -9.2062035
24.347601 39.443508 -8.146677
17.984154 48.778866 -10.570206
23.804157 48.800201 -8.8275738
23.586426 32.959366 -10.892801
19.613735 32.400284 -11.2872
23.425335 47.895927 -6.8595738
18.867619 41.416321 4.4411783
24.014507 28.454624 -18.369217
18.752935 44.768982 -6.9342103
24.347601 36.196327 -9.3301449
21.922892 43.373997 -11.2872
27.740879 38.404152 -1.8565018
25.686724 39.656242 0.22168422
27.282644 41.333927 3.0059898
21.276724 39.634884 9.399601
18.327 33.53009 -10.295776
23.192444 39.792557 0.44807553
24.347599 37.038956 -7.5395379
20.684492 40.370987 -11.287199
18.327 37.078667 -8.8906498
21.869898 34.905556 -11.2872
18.327 36.379482 -7.4204865
20.09182 41.418015 5.0640469
22.387123 37.724834 -11.287199
21.762142 34.612007 -8.1498528
20.556683 35.208836 -11.2872
17.338224 41.421555 5.9685464
10.754918 39.096859 -0.70580077
18.619778 35.509087 -6.6608
21.706173 36.414318 -5.158597
19.536522 41.511734 -11.2872
13.431097 35.547855 -6.5961418
12.101398 40.599049 1.7872589
18.133392 39.387356 -0.22411942
24.347601 38.537605 -8.4209747
22.096327 36.879574 -7.1163001
24.07402 41.359234 -7.1163001
18.327 43.55695 -8.3059978
24.123341 43.031845 -7.1163001
19.25296 37.322475 -11.2872
24.347601 39.509102 -9.4473562
25.78883 31.396458 -13.486842
24.347599 41.226627 -7.1502037
14.462003 35.917034 -5.9834909
21.259907 33.716164 -11.2872
26.444099 38.90554 -1.024276
16.1348 40.140949 1.0267226
33.48283 36.969368 -4.2381191
26.547985 41.418373 5.5691357
22.365993 37.511974 -3.3368914
29.904785 35.491428 -6.6907907
22.5935 48.106201 -9.5335808
22.521229 48.692047 -6.8781385
20.844715 29.806221 -16.125813
18.327 37.240639 -7.2180262
12.658528 40.918873 2.3180249
19.814445 37.821831 -2.8224783
20.276634 38.778011 -1.2355599
19.933792 30.078175 -15.674404
16.545988 31.853348 -12.727993
9.299139 36.193474 -5.5244989
17.482021 41.417587 4.773313
21.696012 44.089622 -6.9292936
17.828571 47.173042 -9.7421589
18.327 37.353264 -8.7042074
23.338379 48.309502 -6.8750911
32.22155 33.959003 -9.2342463
24.347601 43.000565 -8.4965734
24.629425 34.497833 -8.3395185
16.131594 35.638176 -6.4464025
24.347601 36.483486 -9.3427467
20.779133 34.341908 -8.5980606
23.589682 33.262981 -10.3889
10.679454 41.415157 3.2849076
21.228302 41.334915 3.0079951
28.294203 30.35128 -15.221646
28.76012 33.198837 -10.495666
20.676844 40.304024 1.2970906
22.741005 41.416946 4.8094778
18.774118 46.366455 -6.9111142
28.621731 36.737411 -4.6227875
21.69319 41.208809 -11.287201
28.960003 29.327343 -16.921087
28.797264 35.528976 -6.6284037
31.364607 38.135262 -2.302983
28.643602 33.914993 -9.3070755
24.633419 35.776825 -6.2168074
22.394129 35.320545 -11.2872
24.347601 40.036575 -9.0809088
22.420244 38.060463 -11.2872
10.409514 39.7729 0.41622496
24.851906 41.419144 5.6992707
25.685974 35.238586 -7.1101704
21.666569 36.760654 -7.1163001
18.327 41.729172 -7.3133287
20.225376 39.099205 -0.70247841
22.647236 41.611984 -11.2872
21.881077 43.549934 -7.1163001
24.347603 38.926529 -9.8856592
23.489182 40.829185 7.405118
18.539791 45.246307 -6.9376655
33.448559 35.258308 -7.0779066
21.166061 41.424698 -11.287199
27.988605 31.37455 -13.523337
21.566904 48.800201 -11.462631
32.030724 40.31823 1.3199778
25.271978 33.035221 -10.767009
20.727547 35.034031 -7.1162996
31.207407 33.221989 -10.457393
22.29521 37.495937 -3.3634999
18.327 42.888226 -8.428915
17.835714 47.393764 -8.3329382
9.6861124 37.62965 -3.1408415
22.501354 33.078506 -10.694998
8.4403772 38.007183 -2.5142393
22.713984 28.077383 -18.995228
16.863258 34.58289 -8.1978722
32.576889 41.110523 2.6348989
18.201496 46.853283 -6.7638817
19.232817 38.752724 -1.277473
19.195623 40.437038 8.0602236
28.5765 32.304707 -11.979619
20.624722 35.409122 -11.2872
10.897686 41.41608 3.9132609
33.112728 41.419033 4.8314939
31.256321 32.157379 -12.224295
21.659384 37.566288 -7.1163001
21.922558 37.572346 -3.2366624
23.642941 38.772434 -1.2450166
21.759727 39.313553 -0.34682655
24.347601 35.888824 -9.7418127
32.253017 37.389172 -3.5412974
24.938038 28.438557 -18.395933
23.185495 40.142967 1.0296403
21.554455 41.868069 -7.1163006
23.960024 35.596481 -6.5160723
23.094835 45.383682 -6.9386597
31.146456 41.41843 5.3126459
26.940269 38.573807 -1.5748746
23.850296 32.080704 -12.351104
18.327 37.384304 -8.938715
21.315401 32.923588 -11.287199
24.678123 48.800201 -8.159626
19.638103 30.07457 -15.680369
23.848288 33.836594 -11.2872
24.956734 32.058056 -12.388759
22.627775 45.436417 -11.46456
23.539394 35.056961 -7.4114752
34.601543 38.229454 -2.1468542
27.061016 32.338734 -11.923052
21.63257 42.416058 -11.2872
25.614714 40.629574 7.7383146
18.208672 48.800201 -10.216854
17.078838 40.612888 7.7667112
24.848375 47.099159 -10.70042
16.278679 41.416954 4.5083971
16.501427 31.565811 -13.20521
29.945316 39.562397 0.065679073
20.630264 32.598957 -11.490778
32.337418 38.835342 -1.1411381
24.775574 47.813866 -10.662918
28.746929 32.466091 -11.711784
20.153183 34.930954 -7.6204042
19.046152 35.999939 -11.2872
15.964617 38.477657 -1.7337897
31.757875 34.848236 -7.7583895
18.260757 47.761276 -11.609198
18.327 32.920273 -11.053614
13.009035 41.420746 5.4571161
21.305094 45.253906 -6.9377203
18.339834 35.595589 -6.5172205
19.487688 40.2099 -11.2872
17.867701 40.375748 1.4162953
18.394007 35.171356 -7.1163001
22.746161 48.742535 -7.8866935
11.5531 41.418079 4.5604401
21.065361 41.266296 -7.1162996
9.8215446 41.111877 2.6385219
21.001511 33.240231 -10.426501
30.348423 35.579117 -6.5452862
21.2889 30.028543 -15.756858
29.596264 41.418335 4.7961235
17.602289 38.16433 -2.2539091
21.972069 45.175678 -11.466446
16.839722 36.349129 -5.2665005
32.008476 31.949362 -12.56958
19.183907 41.42234 6.3199105
10.248754 38.168118 -2.2471757
33.909912 37.219078 -3.8237026
21.307785 36.051514 -7.1162996
13.740799 36.333691 -5.2919307
33.382202 31.61681 -13.12159
19.640623 34.035221 -11.287201
22.210836 35.433529 -6.7864208
18.327 40.06443 -11.120596
20.407005 39.616379 0.15584612
25.8871 39.915062 0.65122843
21.718126 40.87587 7.3272772
17.334696 36.92828 -4.3053284
15.898968 32.994228 -10.834473
19.440102 47.257164 -11.63064
9.582551 40.934025 2.3433604
19.62995 38.693771 -1.3753293
20.656162 41.418022 5.1020794
23.29558 39.560844 0.063501596
23.880671 31.098099 -13.981906
29.708906 37.876465 -2.7324016
33.631668 37.609325 -3.1760013
21.160017 38.526089 -1.653724
8.790884 36.311802 -5.3281155
18.058197 44.211189 -10.118807
19.786398 48.582508 -10.479115
16.334791 41.420769 5.6691079
10.685797 41.417522 4.3366976
21.364742 32.43874 -11.756731
17.821995 46.96986 -9.9250364
14.800639 41.415989 3.2912648
19.314573 37.209984 -7.1162996
28.332747 39.454845 -0.11272597
19.537064 39.385586 -11.287201
11.966694 37.061314 -4.0842113
27.881508 39.763191 0.39905286
18.289982 48.800201 -7.8997765
15.851965 34.840103 -7.7709184
22.091595 37.328537 -11.2872
15.673203 41.41893 5.0716343
24.347601 43.542526 -9.0204153
29.750998 35.114983 -7.3155537
18.327 36.965019 -9.5307541
28.876595 31.134096 -13.922462
33.403568 37.349998 -3.6063883
9.4463882 36.180195 -5.5465393
20.292286 33.044609 -10.751124
20.677999 47.53297 -11.624441
23.984903 40.968536 -7.1163001
18.327 37.71637 -8.0259666
13.400581 36.721733 -4.6478901
17.818602 46.864967 -11.613541
18.860067 38.273785 -2.0723269
24.606106 45.195698 -11.092228
18.327 37.64727 -9.2120895
20.485224 29.780935 -16.167757
17.060049 31.797235 -12.821157
21.663944 28.806976 -17.784279
19.606699 32.156647 -11.287199
21.559603 36.950928 -4.2679949
17.324951 41.373726 6.4961843
20.44928 33.280403 -11.2872
24.347601 38.451088 -7.3433294
21.591877 41.006157 7.1097169
22.581821 46.822193 -6.7631822
13.150984 40.710228 1.9717216
21.641155 32.536995 -11.593677
22.054213 43.352188 -11.2872
19.5418 34.638203 -8.1062393
12.06567 38.476074 -1.7361794
16.697014 33.110863 -10.640942
20.525938 34.950855 -11.287201
33.0924 36.717525 -4.6560593
23.860739 40.086956 -11.2872
21.368473 31.037313 -14.082637
19.549799 41.079571 2.5843117
20.603397 45.222717 -11.466105
14.51526 41.410233 3.1334057
18.085371 48.474323 -11.527158
27.306534 38.717175 -1.3369534
27.688757 40.721054 1.9888
21.53161 42.921658 -7.1162996
19.858421 39.030151 -7.1163001
27.741121 39.51767 -0.0084190369
15.583567 39.617119 0.15736628
18.327 34.913631 -7.5655403
27.940094 31.771055 -12.865266
22.068922 35.284019 -7.0345469
30.718958 41.419369 6.1280923
23.901863 42.157356 -11.2872
9.2001476 40.532291 1.6766349
19.53344 48.46484 -10.22662
14.263893 33.120434 -10.62491
24.347601 39.762856 -7.4805598
18.020874 46.376698 -10.336383
25.712038 31.141975 -13.909196
18.852297 40.376923 1.4181924
21.769836 40.003899 0.79892707
24.347599 43.58519 -10.769738
9.6208954 37.569202 -3.2411683
21.498331 40.056831 0.88678145
29.633423 38.283916 -2.0561604
29.855108 35.452969 -6.7546129
17.962593 46.437305 -9.6856899
17.112736 32.746349 -11.245944
30.37455 37.144882 -3.9466255
18.488752 43.727345 -7.0619941
18.327 39.677197 -7.5971174
26.65255 28.753941 -17.872606
27.348516 34.956078 -7.5791454
25.845789 30.819151 -14.444986
28.260025 35.741795 -6.2751665
10.079523 38.53376 -1.6403224
20.809742 31.848938 -12.735573
25.990866 29.459206 -16.702059
19.725975 41.416531 4.3490534
26.928625 35.382378 -6.8715944
20.021286 34.047302 -9.0869684
22.185598 38.699062 -1.3667033
19.916676 48.800201 -11.258827
28.132732 34.335777 -8.6086826
26.830803 29.869289 -16.021505
22.348261 36.140705 -5.6127448
30.504068 41.419292 6.0913115
20.399731 47.269608 -11.63036
23.805035 36.630844 -4.7993665
20.89674 44.65147 -6.9333601
21.08737 45.576973 -11.463542
14.102004 41.423336 6.3090534
17.021585 32.112022 -12.298711
26.572819 38.059502 -2.4284344
24.090431 28.583591 -18.155169
30.017298 33.567444 -9.8839779
24.595438 46.215862 -7.0303564
29.819267 41.418549 4.4008946
12.868562 40.010162 0.80985165
18.697472 40.730976 -11.2872
27.4244 38.234798 -2.1375492
19.45713 34.421917 -8.4651976
22.468117 31.281977 -13.676644
33.914288 34.32296 -8.630311
18.981831 48.385719 -11.52784
20.436731 38.246529 -11.2872
27.636755 34.771168 -7.8860493
30.819065 37.854294 -2.7692666
20.993629 34.26717 -8.7221174
27.766653 31.263222 -13.708092
12.037893 38.835251 -1.1400633
24.347601 39.590546 -9.5445013
17.197952 36.554756 -4.9252391
19.011274 45.524158 -6.9396763
18.327 38.563435 -10.827897
24.647346 30.606688 -14.797534
18.074486 38.264446 -2.0877748
25.202789 36.803169 -4.5134468
17.344604 32.085541 -12.342684
11.831308 36.110741 -5.6618385
21.683414 35.906639 -11.287201
15.954174 41.417015 4.507936
18.472282 48.800201 -6.886528
33.042549 33.182709 -10.522692
21.450872 39.309883 -0.35290194
19.329229 46.262547 -6.9450207
18.088177 30.368698 -15.192123
28.071621 33.900002 -9.3319206
23.157503 40.192661 -11.2872
19.961763 41.41983 5.6060352
25.828148 35.835735 -6.1191092
24.023108 39.275448 -0.41021347
28.862045 31.140787 -13.91136
19.924603 41.421551 6.1275339
29.672338 38.588882 -1.5500188
34.639626 38.450127 -1.7806113
30.930058 33.741226 -9.5956125
27.066254 40.65469 1.8787011
18.327 36.57864 -10.293095
18.20631 31.323498 -13.607475
17.951786 34.277016 -8.7055893
29.386311 34.83522 -7.7798457
18.223927 43.752502 -7.925559
23.226734 35.962746 -7.1162996
30.901644 29.324528 -16.925877
23.40979 40.34985 1.3729793
24.459131 43.761131 -9.3276215
23.151018 36.258709 -7.1163001
16.578133 40.738426 2.0183063
19.096022 43.604015 -7.1163001
21.60409 36.82209 -11.2872
24.009026 30.443027 -15.069118
21.247433 36.428608 -5.1348553
18.352962 41.191994 2.7709737
23.084177 37.089489 -11.287199
32.090199 35.686531 -6.367116
18.713465 36.951057 -7.1163001
26.663486 31.880558 -12.683451
20.431396 37.923862 -2.6531723
24.003241 37.224548 -3.8140287
19.157942 39.606274 -11.287199
22.454899 37.04612 -4.1100593
9.7025576 40.724392 1.995433
24.482029 43.7845 -7.2165451
19.18985 41.416519 4.1221609
19.8853 47.932407 -11.531414
29.351601 31.116812 -13.95118
19.131981 39.967621 8.8441095
26.462006 41.419132 5.7943649
18.03524 47.058186 -6.7684879
16.404884 37.152889 -3.9324925
20.014137 38.200645 -11.287201
21.631001 34.366074 -11.2872
18.327 39.744537 -8.5067873
24.572163 34.201622 -8.8311214
11.097757 39.451195 -0.11773801
17.088654 41.422836 6.3411741
18.327 41.628239 -9.3901911
24.615494 44.298191 -11.26411
33.876938 36.126419 -5.6371551
21.170826 34.356171 -11.287201
22.878712 28.088568 -18.976675
21.093468 33.714737 -9.6389818
28.964617 41.17915 6.8203835
17.891712 40.411251 1.4752256
34.656528 34.071884 -9.0469923
19.892702 34.163193 -11.287201
24.443642 48.58601 -6.8772936
20.619331 37.427307 -7.1163006
30.914471 30.216608 -15.445313
34.525562 40.504429 1.6288629
23.980663 35.753841 -6.2549105
12.575622 34.810062 -7.8205829
18.327 41.792614 -9.9167128
16.953974 40.026016 0.83591413
19.224762 48.800201 -7.3480835
23.217699 40.482147 -7.1162996
20.454676 41.416954 3.7005126
19.226517 36.667202 -4.7387505
23.603462 40.278637 8.3244696
24.247578 30.654022 -14.718954
24.347601 34.614288 -8.7302389
20.698425 35.250771 -7.0896492
20.607761 35.426476 -6.7980261
24.347601 37.633511 -8.6517811
12.531893 41.216351 6.7592874
22.557842 40.678326 7.657093
32.610012 30.677504 -14.680487
21.868217 30.52512 -14.932742
12.752599 38.018486 -2.4956679
18.801544 40.12262 -7.1162996
21.298752 40.622906 1.8262973
24.347599 42.255146 -7.7586031
21.379948 48.051037 -11.530468
18.327 39.413273 -7.4586306
9.1864758 36.445869 -5.1055937
33.043045 36.051453 -5.7615194
20.033993 31.467585 -13.368446
28.094372 30.26082 -15.371767
18.327 37.770935 -9.4290409
18.593681 45.580814 -6.9400873
28.510632 41.418056 4.9447145
18.386726 40.155758 -11.2872
20.624304 39.521851 -7.1163001
13.744553 37.121941 -3.9836915
23.581104 36.915112 -7.1162996
23.740953 42.37822 -7.1163001
30.045359 35.959187 -5.9144726
23.210089 48.667599 -10.025493
22.949903 37.738708 -2.9606221
14.002247 39.354343 -0.27865267
24.347601 34.580883 -8.8201752
8.9297476 38.252377 -2.107285
31.763462 34.625797 -8.1275625
19.689146 35.156315 -7.1163001
26.892061 40.10994 0.97459984
20.4998 48.800201 -7.6319599
24.347601 40.511711 -10.245341
18.358189 30.217958 -15.442318
27.484144 41.104919 6.9444308
24.517847 48.738621 -11.524991
19.311916 36.45858 -11.2872
18.831081 33.797539 -9.5014162
18.401047 34.092537 -9.0117893
22.416086 33.396355 -10.167471
13.5131 38.624481 -1.4899561
34.223999 32.537193 -11.594029
22.91193 31.893757 -12.661322
24.608223 44.993385 -8.3924294
25.999071 40.96534 2.3943377
28.634192 37.637814 -3.1284192
23.353102 42.746937 -11.2872
19.482399 41.416679 3.8870268
20.069878 36.731102 -4.632741
13.506081 41.291435 6.6338415
12.202662 36.102543 -5.6754661
26.67872 40.965218 7.1777639
19.486044 35.098614 -11.287201
13.496669 37.16922 -3.9052153
24.313692 46.604271 -11.645317
24.349203 31.578911 -13.183946
11.286537 36.182789 -5.5422401
24.606544 45.153748 -6.9378004
21.903374 41.41877 5.4045749
19.09943 36.43259 -5.1281176
15.281803 41.41592 3.6771629
19.687668 38.003387 -2.5211427
17.821299 33.844093 -9.4240961
18.752075 48.546658 -11.526579
23.741848 29.36627 -16.856165
28.063961 41.420292 6.2441835
25.448257 39.307701 -0.35675669
24.793991 31.97204 -12.531506
19.697159 37.710117 -7.1163001
26.509365 29.368425 -16.852751
14.440536 41.228462 2.831732
27.604883 37.62162 -3.155231
18.963013 33.429447 -11.2872
21.925148 35.77343 -11.287201
20.730263 32.217888 -12.123239
22.672413 37.839561 -7.1163006
17.606606 33.33065 -10.276227
21.689453 38.622215 -7.1163001
33.245064 38.708477 -1.3517523
22.319374 38.656956 -11.2872
26.038761 41.417534 4.9988136
21.140543 34.861229 -7.1162996
30.350918 32.530571 -11.604868
17.959269 31.478683 -13.349896
19.757988 34.466335 -7.1162996
20.343872 35.305225 -6.9992447
8.2278223 37.912613 -2.6712065
30.764652 40.68018 1.9207795
20.585808 34.753494 -11.2872
21.58852 41.417309 3.4042292
33.796021 41.419773 3.4104462
20.92041 48.800201 -10.606883
20.273165 32.101028 -12.317153
22.86566 37.526848 -11.2872
32.039059 32.870525 -11.040755
22.110413 33.341312 -10.258801
23.760532 48.800201 -7.7195721
29.259972 41.420403 6.351696
26.873253 37.702049 -3.0217049
22.709084 28.276844 -18.664188
33.641159 36.622887 -4.8131762
19.018929 32.16301 -12.214211
18.327 43.353966 -7.4579387
24.347601 42.146492 -10.502276
21.908588 31.899391 -12.651903
21.444126 39.508995 9.6098108
31.644632 32.976936 -10.864124
23.517214 40.576775 7.8266115
16.555861 40.399845 1.4563727
22.922533 35.818497 -11.2872
19.697706 40.491566 1.6084113
31.276325 29.285912 -16.989986
11.362165 37.909283 -2.6768279
33.516048 30.218357 -15.442476
23.834421 35.076752 -11.287201
14.646962 40.880707 2.2545571
24.188709 46.667393 -6.7597027
28.523247 32.754807 -11.232597
23.417879 28.746223 -17.885221
18.484777 42.719021 -11.2872
33.498142 39.987732 0.77137661
20.829037 37.259731 -11.2872
17.972687 34.10376 -8.993145
18.327 34.558067 -11.260357
18.503578 48.800201 -10.300388
12.397779 38.8251 -1.1569259
18.937357 32.335533 -11.927874
18.076487 45.959904 -11.386877
24.79031 29.164314 -17.191406
30.850384 38.082371 -2.3907251
16.248571 36.665768 -4.7409401
17.805099 35.079136 -7.3743219
17.341036 32.018337 -12.454213
25.598001 41.417442 5.0073929
24.126566 40.753384 2.0426741
27.955944 35.164761 -7.2328329
14.393631 38.371708 -1.9095364
16.279007 40.80645 7.4435368
15.357817 40.02972 0.84215879
23.738686 33.643814 -11.2872
19.687963 41.417667 4.9345717
18.327 34.843819 -9.9023657
18.146088 37.231266 -3.8025205
18.165211 43.812424 -7.4076729
18.327 38.5443 -7.7147417
18.327 38.053387 -10.930086
11.120298 41.422043 5.7332473
25.611994 39.841373 0.52894592
18.327 38.668465 -9.6337748
18.414103 40.045395 0.86798859
19.488783 41.416744 4.6422348
18.327 39.535465 -7.543263
18.390083 35.520477 -6.6418819
21.681381 31.595606 -13.156077
19.367781 38.166992 -7.1163001
8.3304024 38.668503 -1.4166311
24.347601 33.577644 -9.7572136
22.11042 45.841972 -6.9419765
19.30422 48.800201 -7.4616013
24.440739 43.742355 -8.7892303
25.091682 29.584166 -16.49461
30.624388 30.740866 -14.575205
27.627312 29.952305 -15.883772
20.525652 40.103283 0.96392918
34.596718 41.41938 4.7187486
20.014389 46.862789 -6.7640944
20.728817 41.400017 6.4520731
23.611418 37.057941 -4.090518
21.296265 40.514236 -11.287199
15.589245 41.422852 6.2537465
18.462147 30.078526 -15.673735
16.336538 36.196251 -5.5201964
33.985054 36.895947 -4.3599906
14.791763 41.415909 3.4754565
31.385399 37.590363 -3.2073355
29.132034 38.850082 -1.1164804
33.573395 39.45541 -0.11210561
25.802269 36.467068 -5.0713015
13.904091 41.415722 3.4846735
18.327002 43.338734 -7.5762253
15.438377 41.05341 7.0311942
17.422342 41.094589 6.9623051
22.076733 33.524788 -9.9542866
20.845825 39.942184 0.6965487
33.783146 35.04921 -7.4249616
25.215628 39.84095 0.5282619
18.080662 40.395992 8.1288424
24.634235 30.019569 -15.771954
24.055441 47.080559 -6.7689905
19.880259 35.236546 -7.1132021
21.196209 31.279823 -13.680138
18.327 39.118904 -7.6687031
24.347599 40.10025 -8.5619755
20.822296 48.604759 -7.9191728
11.731828 39.846741 0.53869915
22.452734 37.34169 -3.6195135
24.347601 40.263523 -9.7621603
31.543428 34.194862 -8.842762
18.327 39.534927 -7.4017172
23.33762 30.478397 -15.010374
17.3009 35.727417 -6.2983685
13.969673 34.98386 -7.5322185
21.398647 44.430958 -11.471836
31.236589 39.614986 0.15287781
19.340544 41.419891 5.5874028
34.184235 38.771839 -1.2466443
21.106236 30.834982 -14.418425
27.706053 37.781094 -2.8905628
18.327 36.391022 -10.418299
19.920635 42.862007 -7.1163001
28.650051 29.316246 -16.93948
18.546265 41.41713 4.7001114
21.588774 39.373554 9.8359699
19.151993 42.525753 -11.287199
20.744106 36.180283 -11.2872
20.485445 48.106201 -9.1573038
18.327 39.12598 -8.456625
24.746477 33.144501 -10.585607
32.204964 36.042675 -5.7760363
23.276028 47.874596 -11.55428
24.347601 34.652153 -10.285257
20.411148 36.256084 -5.421134
28.296566 28.7215 -17.926542
18.785641 41.523384 -7.1163001
27.759178 29.961346 -15.868777
24.347601 34.755131 -8.8775482
13.119182 40.089176 0.94097424
24.614601 44.383545 -7.1581578
23.9559 35.672417 -6.3900528
23.886341 48.800201 -9.0826435
27.151133 40.301655 1.2927722
24.769249 47.242821 -6.7726374
12.941463 40.860031 2.2203491
30.905025 30.203941 -15.466339
19.520054 45.800793 -6.9416785
11.569637 41.420734 5.3644609
23.387022 39.799057 0.45884991
11.40529 39.812752 0.48229742
15.641041 38.130527 -2.3098919
16.593119 40.428288 1.5035815
22.819614 41.418606 5.410059
19.968269 48.106201 -10.247132
18.327 33.503876 -10.594866
21.734173 48.106201 -10.310184
29.427654 40.436169 1.5158807
26.674419 32.713394 -11.301212
18.739868 37.613049 -11.2872
18.327 34.317543 -9.4371881
20.850105 32.73418 -11.266365
20.538315 41.416973 3.6928825
17.987144 40.884422 2.2605305
23.672318 37.302711 -11.2872
18.327 36.639084 -10.744961
13.620787 35.538471 -6.6117296
24.347601 35.620567 -8.5623608
24.676399 48.800201 -8.8949299
21.250507 32.803467 -11.1514
10.538359 37.543835 -3.2832954
29.126745 37.905952 -2.6834319
25.873373 36.815331 -4.4933043
18.062948 44.665432 -8.7947569
24.347599 42.122574 -11.125299
9.4412527 38.301918 -2.0250664
17.970963 41.206673 6.7751031
23.101913 37.035061 -7.1163001
22.715443 36.199734 -5.5148048
15.569656 41.415882 3.9053366
19.8818 45.30957 -11.465477
22.048485 40.546707 -7.1162996
24.347601 32.930275 -11.246433
22.446814 35.261299 -7.0722771
13.041214 34.664085 -8.0628881
19.635784 48.164131 -10.069851
16.642603 32.737537 -11.260537
18.997173 35.289986 -7.0244603
24.911316 35.870502 -6.0613484
31.946398 29.779272 -16.171211
24.602512 45.539368 -8.3593731
23.840799 35.320644 -6.9738665
28.278547 34.129967 -8.9502668
22.449154 43.498634 -7.1163006
15.080647 33.501213 -9.9929924
17.137339 41.147598 6.8738084
34.095119 35.787216 -6.2001381
24.616985 44.155758 -7.387907
27.014145 41.417995 4.3690729
21.57485 33.330185 -11.2872
18.327 39.276253 -8.0859127
23.325878 48.800201 -8.7028294
20.677116 39.174213 10.1689
18.737247 40.946659 2.3637695
18.280397 46.58931 -6.7626257
20.320873 31.803577 -12.810831
19.82284 41.389549 3.0987606
17.72929 40.81461 2.1446812
23.823189 38.973785 -7.1163001
29.554714 31.848917 -12.73614
24.347603 38.668152 -10.036405
31.067104 36.792446 -4.5315981
33.225677 29.760971 -16.20159
30.030582 41.418335 5.7722516
21.555676 42.638817 -7.1163001
21.888195 48.382759 -11.527826
7.6053309 37.06242 -4.0837283
18.294678 34.096031 -9.0059834
15.277923 40.577316 7.8262219
17.821949 46.968399 -10.774346
18.433279 42.388248 -7.1163001
20.811329 40.759308 7.5219717
30.501137 30.015591 -15.778913
14.821462 41.388977 3.0981154
29.613224 37.722603 -2.9877551
32.723198 41.41909 4.5148687
11.909241 35.075386 -7.3802257
25.757324 28.753086 -17.87397
23.599285 32.964855 -10.883686
26.244181 41.418076 3.8204939
19.230534 34.620247 -7.1163006
23.523846 37.979225 -7.1163001
10.380551 36.28957 -5.3650141
24.604397 45.359303 -10.50529
18.327 42.472168 -8.859457
10.915414 41.420948 5.3897095
21.787508 40.539909 1.6885163
21.165577 40.665051 7.6793518
33.653149 38.525993 -1.654635
21.706589 43.661804 -11.297045
23.980625 36.540573 -4.949193
24.347599 40.34428 -11.11241
18.327 42.124332 -7.5855284
16.334127 34.751869 -7.9173937
19.547131 48.463943 -6.8763208
23.518459 41.164223 -7.1163001
19.072372 35.162476 -7.2360873
33.235416 31.300142 -13.647145
12.151933 38.72015 -1.3310938
34.299595 35.443851 -6.7700119
28.652657 39.569206 0.077058554
11.678478 36.355003 -5.2564354
32.619392 40.858044 2.2158642
28.274582 41.418015 4.9254055
24.347601 42.689922 -9.9902182
22.531494 39.691711 -7.1163001
23.959246 40.456367 8.0276508
22.238256 40.413021 8.1001434
12.116901 40.797504 7.4587374
20.81398 34.602177 -7.1162996
15.068573 41.415894 3.6417279
22.545321 39.689857 9.3077202
18.327002 41.880276 -7.3249607
32.230949 33.237881 -10.43108
23.247101 48.295254 -11.528522
10.72481 40.532104 1.6762352
24.130676 36.00441 -11.287199
20.1562 46.559612 -11.621187
18.327 37.51659 -8.5783548
14.386963 41.41581 3.5113626
31.64739 30.946669 -14.233704
31.35561 32.906792 -10.980521
18.333164 33.408463 -10.147128
21.40901 37.711159 -7.1163001
18.327 38.127426 -10.712601
31.755943 31.080187 -14.012107
24.605076 45.29422 -8.6459999
29.017237 40.593174 1.7764866
14.068495 41.008381 2.4664962
19.906021 39.095623 10.300186
34.111885 35.96143 -5.9109998
26.175772 32.256248 -12.059895
21.130449 37.204834 -3.8465717
18.416187 33.704334 -11.287201
24.347601 42.169949 -8.8159933
20.788929 47.574623 -11.623504
17.808659 34.360893 -8.5663719
10.777889 41.421341 5.5011034
18.42944 47.399914 -6.7761688
17.28299 41.420311 5.5880375
19.6866 40.517494 1.6514426
22.260244 36.295864 -7.1162996
18.142067 40.016911 0.82072902
24.125629 41.203812 2.7902358
22.003277 35.124413 -7.1163001
13.641343 41.417015 4.3652906
24.299223 43.751724 -7.0454559
29.35144 30.28079 -15.3387
21.033129 41.130692 2.6690686
21.069122 38.410187 -11.287199
18.327 35.151291 -9.6629114
21.40971 37.01609 -11.2872
24.854191 46.919983 -8.9509964
18.062082 44.582596 -7.6589975
11.283478 41.420803 5.3682795
30.529976 41.418617 4.5829911
23.921896 47.757122 -6.7923784
18.480326 33.711468 -9.6442461
29.542564 41.126114 2.6609521
24.84967 47.059292 -8.0819721
24.347601 42.367867 -10.622098
26.737314 41.418133 3.9105191
16.297871 40.536404 1.6830257
25.468473 38.358139 -1.9327285
13.768856 40.652222 1.8754079
20.827549 48.128799 -8.0313416
24.617264 44.128956 -8.9053173
22.498962 28.874483 -17.672293
24.347599 32.618393 -10.655474
16.940107 32.002098 -12.481146
28.069313 30.722893 -14.604879
14.211849 41.422405 6.0338449
30.80056 29.341354 -16.897942
16.032192 35.87035 -6.06106
31.544735 41.418968 4.2381902
15.032854 32.309212 -11.971321
21.991594 46.195934 -11.459063
34.443264 41.419971 3.2481132
23.478409 36.803001 -4.5136156
31.875681 39.862362 0.56340241
17.979874 48.406578 -11.247457
21.617792 48.726318 -10.512994
20.211494 45.178978 -11.466422
24.119703 35.684505 -6.3699894
24.347601 37.171844 -11.202517
20.110077 41.418392 5.1804008
19.778137 35.793594 -6.188683
18.327 43.301811 -9.4255314
22.088091 36.873871 -7.1163006
21.981747 45.485535 -6.9393969
18.994675 35.710464 -7.1163001
24.347601 33.712868 -10.926012
23.874655 40.232704 8.4011402
24.458076 43.760056 -7.360775
16.617809 36.336075 -5.288147
20.571695 46.679413 -11.643628
13.935988 41.419022 4.9920616
25.173904 39.162144 -0.59832239
14.33729 35.772942 -6.2226334
25.118938 37.709759 -3.0088019
24.347601 33.431137 -9.2340603
18.327 38.003899 -8.2663736
11.488941 38.275154 -2.0696051
21.815071 35.421146 -6.8069439
13.658559 33.358028 -10.23056
19.263929 32.942574 -10.920403
24.028656 29.496067 -16.640762
25.097952 41.417599 4.392067
19.607603 35.719166 -11.2872
21.585224 34.537895 -8.2728386
32.327209 33.266129 -10.384201
10.973266 36.007256 -5.833571
34.477264 37.898998 -2.6952906
18.327 42.523457 -7.4366646
29.975243 29.691139 -16.317366
23.745655 42.574219 -7.1163001
20.434801 39.535637 -7.1163006
23.994671 38.518898 -1.6658313
20.470491 34.954845 -7.5807714
15.153798 40.788525 7.4735351
16.629507 40.313004 8.2675085
24.347601 35.246929 -10.761373
18.029024 47.989372 -6.87254
24.607704 28.644159 -18.05468
19.986776 38.102028 -2.3574462
24.601551 45.631363 -9.8730812
24.347603 42.144516 -10.593634
23.296257 39.939686 0.69225597
34.169903 41.419647 3.8771815
21.795948 35.929981 -11.287201
18.327 33.478874 -9.9968929
13.092319 40.679127 7.6563396
29.080402 37.172234 -3.9011564
24.347603 34.375645 -7.3886318
24.347601 42.550571 -10.756921
24.347603 34.312958 -7.3826785
24.003517 48.800201 -9.4808302
20.481806 48.800201 -10.752321
20.129456 36.976448 -4.2255507
20.942764 38.394897 -11.2872
26.744535 41.418953 5.7562985
18.397404 33.218601 -10.462234
24.907982 37.726948 -2.9802587
16.392708 33.055206 -10.733299
29.0054 36.564312 -4.9101043
17.555155 41.088158 2.5986903
19.782518 39.358242 -0.27253509
19.285702 37.256847 -3.760134
24.576586 46.200409 -6.9445705
34.948471 41.419498 4.6074724
22.964062 34.71862 -7.9729843
24.347601 35.760628 -8.710474
27.463072 40.068729 0.90616775
12.925494 34.328297 -8.6201878
15.008135 40.411243 1.4753829
32.134651 31.280617 -13.679487
22.318853 32.135395 -12.260239
33.702538 41.419228 4.643034
24.85183 46.992722 -8.7292566
24.347601 37.353317 -7.2121773
22.31481 42.533405 -11.2872
17.202553 31.680359 -13.015141
25.060591 34.357792 -8.5719604
12.167423 37.684036 -3.0507112
27.297895 36.580818 -4.8826046
18.327 37.663876 -9.6069241
33.079216 35.988258 -5.8664083
29.415663 40.602837 1.7924947
23.052826 47.879986 -11.551668
23.476727 38.478088 -7.1163001
33.19035 38.713516 -1.3433838
18.327 35.147842 -9.6438379
34.426582 40.074001 0.9145031
18.632847 38.94474 10.552225
12.791718 41.423489 6.2739453
19.233555 39.536041 -7.1163001
34.432999 40.914803 2.3099465
20.347364 44.724136 -6.9338861
12.12539 39.161419 -0.5987339
31.595909 36.273342 -5.3931761
29.945787 35.914307 -5.9889536
24.347601 40.128662 -11.197709
22.255133 40.386871 1.4345043
24.055567 38.460026 -11.2872
17.792738 32.894791 -10.999624
17.367489 34.261639 -8.7310772
14.416734 39.469505 -0.087548018
31.84062 38.062534 -2.4237108
21.217262 32.28233 -11.287199
24.347601 40.53336 -10.977332
24.698505 48.077713 -9.7890224
33.557404 33.985245 -9.1907806
27.947849 30.93857 -14.246919
31.053732 41.418659 4.7342067
27.865923 37.442333 -3.4528031
23.411137 34.963188 -7.5671058
22.356518 33.802959 -11.2872
24.347601 41.614666 -7.2139087
19.998646 40.768887 7.5060277
30.399521 34.9347 -7.6148005
31.136543 39.078537 -0.73744512
20.72126 45.07074 -11.467206
14.200853 36.265667 -5.4048567
29.656607 31.930977 -12.59995
32.267162 34.756275 -7.9110432
29.270819 41.419025 5.9346919
21.514112 41.035728 2.5114341
24.347601 42.269978 -10.570844
