# .PCD v0.7 - Point Cloud Data file format
VERSION 0.7
FIELDS x y z
SIZE 4 4 4
TYPE F F F
COUNT 1 1 1
WIDTH 1559
HEIGHT 1
VIEWPOINT 0 0 0 1 0 0 0
POINTS 1559
DATA ascii
55.434898 -28.841358 33.275898
54.773975 -48.395966 33.518188
53.37672 -38.393421 39.227905
44.815994 -32.209805 39.752598
55.434898 -33.230858 34.102104
55.414101 -28.913521 20.755756
55.434898 -36.147152 31.092178
54.775116 -44.767014 25.292299
53.41608 -43.575275 39.062706
55.434898 -34.561035 23.107754
54.774136 -45.778648 32.361378
52.813145 -41.671585 39.086685
47.440002 -38.298496 39.354832
54.774757 -46.994427 27.885994
46.150749 -44.492622 39.077732
54.774078 -45.727108 32.792961
51.775688 -44.495171 39.085289
55.641304 -29.644018 28.010719
55.607357 -31.41494 28.3654
55.434898 -35.677341 29.12776
54.77372 -39.243675 35.354164
55.641296 -30.588226 28.114086
54.774574 -39.645679 29.181557
44.748833 -43.074329 39.075844
54.775124 -42.717918 25.237282
55.35186 -38.063332 27.881418
48.019852 -35.766453 39.752537
54.731678 -33.742599 39.75251
55.434898 -24.972107 35.523758
54.774773 -38.513905 27.752882
46.31123 -41.628281 39.07795
45.121147 -36.666504 39.752522
50.278595 -41.596725 39.083282
54.640694 -36.231178 39.75251
54.775421 -44.116352 23.10392
55.414101 -29.70405 21.07662
54.773506 -46.294647 36.890991
55.434898 -34.459934 33.317554
54.773701 -44.668335 35.495674
55.103638 -37.495319 39.752502
47.275898 -26.243845 39.752602
54.560425 -42.640438 38.296112
54.994232 -32.748001 39.752502
55.414101 -28.376373 20.948235
55.434898 -36.958977 24.345051
55.434898 -27.038671 36.925621
55.414101 -24.521378 25.1677
54.775402 -47.1506 23.252146
43.370186 -46.974224 39.073994
54.774605 -44.404922 28.969774
47.662754 -44.571495 39.079765
55.434898 -29.758574 30.989176
53.039173 -41.505058 39.08699
53.390251 -26.475742 39.752525
50.728443 -42.326096 39.083885
46.302006 -33.098499 39.752579
54.775249 -40.078289 24.339891
49.668884 -37.362095 39.75251
55.434898 -26.188864 29.953228
49.074379 -36.087807 39.752533
44.255524 -45.474327 39.075184
55.414101 -29.679848 19.444853
46.493073 -38.249916 39.419792
54.774776 -41.586937 27.719456
51.804771 -36.953339 39.752518
45.687904 -41.374878 39.07711
55.414101 -28.559677 24.329466
55.414101 -28.372225 22.684826
47.86681 -43.321068 39.08004
48.325485 -27.430157 39.752586
55.434898 -25.916218 35.608261
54.77523 -38.679649 24.46254
55.434898 -33.419994 25.87816
51.644035 -34.633575 39.752544
54.775726 -46.868008 20.877836
55.434898 -33.088535 22.199657
54.175613 -39.111069 38.81057
53.010685 -48.412537 39.086956
54.773457 -41.914024 37.253799
53.861309 -39.655605 38.914906
55.434898 -31.107414 36.971947
52.454651 -40.778893 39.086208
54.775505 -44.008156 22.504097
44.960434 -30.710985 39.704102
53.927437 -47.455471 38.892952
47.893974 -33.025185 39.752583
47.849697 -29.442955 39.752594
53.485996 -34.844704 39.752522
54.774944 -38.497055 26.522964
49.419762 -44.259819 39.082127
46.390232 -38.719219 39.078056
49.185745 -47.20182 39.08181
48.173107 -48.507072 39.080452
54.775333 -42.710255 23.722286
55.214657 -38.166157 23.379435
55.434898 -29.543644 37.591381
54.774094 -40.589676 32.666344
48.003799 -48.673687 39.080227
55.434898 -33.173218 24.465107
52.986099 -29.30769 39.752533
55.414101 -27.852495 19.364098
50.217331 -35.518627 39.752541
55.414104 -28.20813 25.346386
55.434898 -26.558784 36.049774
54.724247 -44.400505 37.805183
54.775017 -46.431656 25.979992
43.914581 -46.978832 39.074726
55.043251 -32.774204 39.752502
51.7327 -27.614513 39.752541
55.434898 -34.896809 27.404058
55.434898 -33.259567 28.826773
55.414101 -25.981909 25.01483
54.775932 -43.835201 19.414551
51.344624 -46.400196 39.084713
51.835968 -43.220261 39.085373
46.31459 -44.168129 39.07795
52.443356 -28.290482 39.752533
55.434898 -37.014927 35.485439
55.434898 -33.461349 29.147249
53.975079 -25.442009 39.752518
54.77515 -43.088905 25.039383
55.268181 -38.126041 27.927429
55.434898 -31.56628 29.887032
45.399647 -25.542431 39.704102
54.773788 -47.326565 34.849018
55.434898 -32.697624 23.351686
44.663589 -31.83728 39.815628
53.73465 -34.808456 39.752518
55.593315 -31.670637 24.792355
55.434898 -33.822594 31.24922
54.775398 -44.121513 23.240166
43.917294 -39.872166 39.07473
55.414101 -26.336531 23.21854
55.434898 -30.442863 35.165131
55.434898 -34.075737 20.569675
54.457973 -44.067471 38.603119
54.775688 -44.332352 21.170898
55.434898 -34.56094 31.002527
55.414101 -25.185621 27.255219
54.77417 -41.630989 32.119083
55.434895 -30.077911 31.739811
55.434902 -32.241936 30.81448
55.434902 -28.488537 30.487873
55.434898 -33.845242 28.729889
46.862961 -28.008621 39.85891
48.818409 -24.556772 39.752579
47.929291 -39.827164 39.08012
55.434895 -31.169884 28.870285
54.044289 -46.587082 38.854164
54.774502 -42.097527 29.745169
46.299763 -35.643356 39.752541
55.434898 -35.821377 22.319405
54.775337 -44.62265 23.666153
47.886795 -26.307007 39.75259
55.434898 -24.858101 35.084042
49.443687 -30.219799 39.752571
54.774555 -44.15781 29.346142
48.955807 -47.660358 39.081505
54.775738 -47.874802 20.841301
55.434898 -37.53698 22.484928
55.434898 -27.013172 37.997169
54.773647 -39.258835 35.862553
50.218895 -40.983406 39.083199
55.434898 -26.843834 34.626637
55.414101 -27.05768 23.482609
45.74934 -41.128822 39.077194
54.774796 -42.189701 27.595909
45.206783 -35.786819 39.752537
54.773712 -38.809887 35.395824
55.414101 -25.650991 22.79858
45.915352 -32.228199 39.752594
55.434898 -36.622093 29.097284
54.775291 -45.575615 24.023914
54.773399 -45.107124 37.624092
44.182869 -38.880489 39.075089
54.038567 -29.957876 39.752518
51.035339 -28.81406 39.752548
55.434898 -33.393257 24.548244
55.434898 -29.893127 38.488274
55.414101 -28.925278 24.267904
54.774338 -39.920715 30.897863
54.773834 -43.737823 34.52626
55.434898 -36.434116 36.251724
55.434898 -36.4687 36.118092
53.795387 -38.20076 39.485523
50.834061 -26.141045 39.752556
55.434898 -35.276848 28.959967
55.434898 -31.686106 29.999214
55.434898 -32.132927 32.971794
46.836628 -32.076675 39.752602
55.434898 -24.526142 37.358002
51.35392 -29.585499 39.752548
55.434895 -33.727158 24.292931
55.434898 -34.8564 24.472115
55.434898 -32.781597 28.081331
45.663734 -27.350506 39.704102
49.89431 -31.417557 39.752563
54.775375 -42.863312 23.440947
45.690952 -46.468681 39.077114
50.050674 -40.914619 39.082973
55.434895 -36.055424 19.717728
54.77433 -38.742836 30.964212
55.525753 -30.247082 28.507971
55.434898 -32.303677 23.22294
54.774628 -40.329723 28.827929
54.775249 -42.000313 24.34223
55.641296 -31.06098 27.377441
55.434898 -30.345156 39.394859
54.775822 -47.694244 20.197533
55.641304 -26.125797 28.212551
54.773926 -40.29496 33.873661
54.773849 -41.831619 34.410931
55.414101 -29.252388 21.150124
51.463943 -38.503143 39.084877
54.775372 -38.792206 23.472464
55.434898 -33.090542 25.425045
54.774773 -44.556915 27.762753
54.775642 -44.060883 21.510174
47.203323 -40.0867 39.079147
55.641296 -31.082859 25.88961
55.434898 -32.621475 38.472855
55.434898 -29.629665 36.301323
54.775528 -41.409706 22.316483
54.775745 -47.281349 20.757938
55.414101 -25.917542 20.996952
54.696739 -44.571823 37.887634
55.434898 -29.090454 36.451408
49.081764 -35.364571 39.752541
47.673393 -34.976143 39.752548
49.09716 -24.298103 39.752579
55.434898 -33.921917 35.75951
53.115761 -28.423386 39.752525
55.414101 -28.613985 21.330153
45.652771 -43.327087 39.077065
52.913544 -40.74633 39.086823
54.774864 -39.024559 27.091276
54.775063 -45.633347 25.687515
55.434898 -30.608957 39.257946
54.774719 -40.219994 28.142296
54.774681 -46.05415 28.451952
54.773502 -43.220612 36.892292
46.703888 -27.660162 39.949947
55.434898 -26.871017 32.429905
54.589775 -24.468782 39.75251
53.528679 -41.952389 39.02533
54.77401 -45.775124 33.271057
55.434898 -25.717739 36.355549
55.287273 -38.111736 23.366577
55.434898 -27.630615 37.586945
55.414101 -27.425188 21.930817
49.02739 -43.028423 39.081596
55.6413 -31.072018 19.299671
55.434898 -37.435585 24.541718
55.434898 -34.980167 37.960506
54.7752 -45.174374 24.678764
54.788231 -38.485737 28.229504
54.493782 -39.904476 38.495804
54.774612 -40.9846 28.898525
47.306561 -36.818184 39.752518
54.775776 -48.670708 20.531099
54.774712 -40.240631 28.199873
55.036003 -27.140532 39.752502
54.775082 -44.837334 25.536219
55.434898 -34.911076 25.772005
54.773506 -40.424286 36.883503
45.707924 -40.277725 39.077137
55.548279 -29.175343 28.46862
55.434898 -32.768925 38.109371
55.414101 -26.858868 26.522964
55.434898 -36.394863 25.602606
48.597271 -37.980896 39.752499
52.118988 -39.962784 39.085754
54.775814 -44.466824 20.263107
46.041748 -29.38892 39.882965
54.775135 -45.048203 25.122736
44.936378 -41.235542 39.076099
54.775105 -47.54525 25.382612
55.414101 -27.873924 23.726955
53.827606 -42.754631 38.926094
55.434898 -28.791061 39.104958
55.414101 -30.213396 23.011461
53.003082 -45.862488 39.086945
55.434898 -27.29978 29.445713
54.774796 -40.524712 27.600706
55.434898 -26.759817 34.571507
46.109688 -27.534056 39.959
54.775822 -41.46048 20.203217
54.773926 -42.503387 33.86557
55.414101 -24.674953 21.454853
46.684105 -38.163807 39.534935
54.774002 -41.005432 33.326698
51.627762 -42.667217 39.085094
55.434898 -37.357151 34.456558
55.434898 -32.926659 20.998648
54.618279 -45.281998 38.122742
54.774883 -47.518906 26.970644
55.434898 -33.667435 29.583923
53.268822 -34.908451 39.752529
55.414101 -26.23284 22.458609
54.775558 -40.944481 22.104942
52.232552 -36.4869 39.752525
52.29332 -40.698288 39.085991
54.774841 -44.026417 27.263773
49.105312 -36.807365 39.752518
46.928085 -30.959045 39.82164
55.434898 -34.519627 32.492699
53.635609 -39.940105 38.98983
55.434898 -27.030497 30.707653
48.511654 -45.89452 39.080906
54.774651 -45.847649 28.627739
54.774807 -44.215569 27.501556
54.966629 -38.352032 35.014233
53.555462 -39.40041 39.016438
46.64101 -37.261177 39.75251
55.434898 -36.760242 28.477177
55.434898 -27.764862 33.24379
46.327641 -34.167652 39.752567
51.669281 -41.920456 39.085152
54.773415 -44.585419 37.55434
48.711441 -34.572788 39.75256
54.542358 -46.843464 38.350254
55.414097 -30.663313 25.770382
44.265053 -36.98056 39.752518
55.434898 -25.000391 30.571632
55.434898 -31.338575 37.243431
55.434898 -27.945679 35.864395
46.949749 -27.649982 39.809238
50.049603 -25.503605 39.752563
47.845886 -34.831596 39.752556
54.773754 -40.704067 35.107452
54.773399 -43.941647 37.645447
54.230675 -26.536037 39.752514
46.277676 -24.662882 39.959
55.434898 -27.212648 33.535385
54.787178 -38.486526 27.361279
55.434898 -34.247593 25.526016
48.214722 -28.679903 39.752586
44.973885 -44.679802 39.076153
55.434898 -35.903694 38.764797
55.414101 -27.820164 23.997375
49.934883 -42.826584 39.082817
55.434898 -30.735046 35.333488
55.434898 -32.817734 31.349411
55.434898 -34.385063 33.480099
54.775288 -45.526035 24.066139
44.934071 -38.686092 39.076096
54.775032 -46.444317 25.893312
49.219841 -30.586599 39.752575
52.151688 -24.558146 39.752541
52.938686 -44.841606 39.086853
55.434898 -37.348 37.133633
54.77594 -46.798523 19.36537
46.057865 -32.179825 39.752598
54.775871 -47.067814 19.858387
54.775101 -42.550735 25.397537
54.774567 -41.571815 29.236998
55.414101 -27.952267 19.550472
54.774506 -41.020264 29.684175
55.434898 -29.01844 29.33399
55.434898 -34.254189 34.432102
55.434898 -27.822655 35.866135
52.804646 -35.640232 39.752533
54.7742 -40.87767 31.903595
55.434898 -28.432167 34.450493
48.258636 -35.570923 39.752541
48.999504 -36.819992 39.752518
54.607895 -40.287216 38.153854
43.335354 -47.375946 39.073948
55.414101 -29.881861 19.694269
55.434898 -37.843895 34.322304
47.806252 -35.614769 39.752537
55.434898 -36.719563 29.736935
46.061287 -40.743111 39.077614
47.628399 -48.627998 39.07972
45.963448 -48.264324 39.07748
55.434898 -34.283379 36.97747
53.215195 -30.416336 39.752525
48.048672 -46.521408 39.080284
55.434898 -35.504383 30.991596
55.434898 -28.848087 38.832592
43.526512 -44.975769 39.074203
44.775249 -34.42487 39.75256
49.537792 -27.14485 39.752567
51.351906 -31.421837 39.752548
55.414101 -27.959909 27.070614
52.577766 -46.669983 39.086369
55.414101 -26.856455 24.940563
54.008411 -24.436808 39.752518
55.434898 -29.102547 36.895664
53.572311 -46.844845 39.010845
44.023197 -39.888741 39.074875
54.775593 -42.250778 21.859688
54.775017 -39.430058 26.00289
54.775982 -44.704155 19.096972
44.066711 -46.336517 39.074932
54.733082 -28.466011 39.75251
50.197258 -45.47364 39.083172
55.506126 -31.822952 20.012728
55.434898 -25.411745 37.757618
54.775963 -42.666733 19.209209
54.681992 -25.577854 39.75251
55.434898 -34.751297 38.70039
54.775833 -40.271111 20.123585
45.62632 -43.489418 39.077026
43.705772 -43.08329 39.074448
45.866116 -38.336502 39.304012
49.504112 -39.400307 39.082237
52.072823 -37.519112 39.75251
44.401833 -36.387409 39.752525
47.527863 -24.990231 39.752594
55.434898 -34.706734 21.970819
49.51918 -26.489506 39.752575
49.765656 -27.843735 39.752567
54.774597 -48.337296 29.043423
55.434898 -37.802521 34.985226
55.434898 -25.052889 37.213577
54.153267 -29.003744 39.752514
55.414101 -29.290325 21.818314
54.775654 -45.570679 21.447359
55.414101 -30.195738 19.565277
54.773739 -41.851395 35.195911
48.214714 -40.360306 39.080505
51.496464 -47.262718 39.084919
55.434898 -33.676346 27.611111
55.434898 -35.629608 28.176023
54.774616 -48.254608 28.887087
55.434898 -33.099392 36.890961
45.38464 -47.990345 39.076702
54.774696 -42.739418 28.322325
55.434898 -32.6731 22.806995
54.774406 -45.209187 30.409027
43.718426 -47.845592 39.074467
54.774906 -39.572002 26.787609
55.434898 -35.255886 37.44368
54.774437 -43.613953 30.184156
55.414101 -27.201849 21.094267
54.775349 -44.638325 23.636669
55.434898 -37.972527 26.871578
54.773796 -44.421963 34.790028
55.434898 -37.696644 36.733601
55.434898 -34.942711 39.133934
55.434898 -30.694202 30.130459
45.067093 -32.7076 39.752586
52.854527 -39.865738 39.086746
55.434898 -33.421917 36.556953
55.434898 -30.211838 37.619362
55.04155 -38.295887 29.814812
44.141895 -40.607895 39.075031
51.456326 -30.488358 39.752548
55.414101 -30.264463 20.324409
53.138947 -47.911835 39.087128
55.414101 -28.451979 26.156929
54.773861 -46.591774 34.312416
45.26693 -36.44751 39.752525
45.725586 -26.871967 39.704102
54.774078 -46.792324 32.736996
55.434898 -32.788361 22.140615
53.931114 -24.29727 39.752518
51.744122 -24.603695 39.752544
55.135208 -36.428352 39.752499
55.434898 -36.485443 26.804289
51.323578 -26.094753 39.752548
55.434898 -25.27887 33.610222
55.434898 -35.641922 39.169304
54.774761 -45.83007 27.843616
55.434898 -36.247807 19.668705
55.434898 -35.115421 23.744173
54.703766 -39.116234 37.86657
55.434898 -29.362423 31.867966
53.019611 -26.731762 39.752525
52.855461 -42.199829 39.086742
55.434898 -36.988533 30.896744
55.414101 -27.790766 22.71386
54.775673 -39.761429 21.294931
55.414101 -26.343748 21.125483
50.460136 -32.139931 39.75256
55.414101 -24.529243 25.247684
47.103619 -30.297522 39.752602
54.7752 -42.669247 24.688297
50.882225 -35.242264 39.752544
55.434898 -28.846315 38.397003
54.774529 -39.198982 29.50943
55.414101 -30.096537 25.047071
54.774006 -43.818161 33.296936
55.639923 -25.449213 28.30851
54.773777 -43.777588 34.951042
45.389374 -46.519855 39.07671
55.434898 -33.150402 24.367662
50.185143 -41.535145 39.083153
54.774242 -43.396194 31.593128
43.800167 -46.273563 39.07457
55.434898 -26.612278 34.953064
54.774338 -47.052757 30.91321
55.550499 -31.745441 23.35084
55.434898 -27.458353 31.140905
54.773994 -41.128723 33.371841
55.414101 -29.868513 20.81226
55.414101 -28.365688 27.390259
45.425159 -44.551815 39.076756
55.434898 -35.800644 35.974888
55.434898 -33.995846 21.796579
44.545704 -38.237034 39.437019
55.434898 -35.903992 36.226959
54.77359 -45.385315 36.267776
55.434898 -27.04977 29.72414
55.414101 -27.6129 24.850084
55.434898 -27.14979 34.352894
54.791512 -24.267559 39.752506
45.966919 -39.403244 39.07748
49.192066 -35.021629 39.752548
54.774105 -42.85331 32.572407
55.434898 -34.468266 37.764133
55.6413 -31.094799 25.709564
55.434898 -32.483398 20.074087
54.774254 -47.327358 31.449009
54.774754 -38.663048 27.879538
44.111465 -40.795555 39.074993
53.315632 -27.064238 39.752525
55.022213 -31.036486 39.752502
54.773872 -47.560951 34.265034
54.125843 -34.791847 39.752514
45.874146 -33.784584 39.752571
55.414101 -27.475203 24.73929
49.956638 -29.436638 39.752567
54.775719 -41.201553 20.945202
55.414101 -24.427197 27.463764
54.773788 -41.98988 34.833904
48.142334 -47.631516 39.080406
45.057255 -32.262539 39.752594
46.080956 -33.289955 39.752579
45.990074 -44.792358 39.077515
55.434898 -24.680084 38.666855
54.804253 -30.753389 39.752506
55.434898 -37.863586 27.075455
55.434898 -36.211769 25.308712
53.908833 -46.705936 38.899132
55.434898 -37.590706 37.793327
52.549202 -29.165565 39.752533
55.434898 -31.612335 32.003162
54.775658 -48.591324 21.385899
55.434898 -34.302006 31.350164
51.333042 -48.369362 39.084698
54.775322 -40.681702 23.812122
54.774658 -43.027683 28.614742
55.434898 -33.975105 19.777653
55.284607 -38.113735 27.937487
51.69952 -26.058939 39.752544
55.434898 -33.422035 36.259495
55.434898 -34.736027 25.355915
55.434898 -24.810827 38.104404
54.773743 -46.475594 35.199898
54.774414 -41.121479 30.36657
55.434898 -26.562708 29.164024
54.775833 -45.036163 20.109024
55.434898 -32.805748 23.293066
54.774979 -45.839127 26.29225
54.775341 -44.071259 23.678932
55.434898 -24.867374 28.904282
55.434898 -30.562344 30.038174
53.807838 -46.900299 38.932655
47.516621 -39.870411 39.079567
55.414104 -30.271288 24.831316
54.77364 -46.433167 35.929153
55.434898 -36.718735 23.339918
54.486202 -48.428577 38.51852
50.511585 -46.887295 39.083595
55.434898 -37.360989 35.043285
54.773418 -44.045761 37.525375
49.548264 -27.460287 39.752571
45.227139 -47.952236 39.076492
55.434898 -35.260189 24.676388
55.143394 -38.219563 33.494923
55.434898 -33.741158 20.838095
55.434898 -27.638327 38.829025
55.6413 -29.985973 27.725847
47.977859 -35.254417 39.752544
45.022884 -43.092976 39.076214
55.434898 -32.065075 27.152725
54.774506 -40.135078 29.690819
55.434898 -37.023178 30.791061
54.539749 -43.773357 38.358063
55.414101 -29.967138 20.962704
55.434898 -36.523846 25.357672
54.774273 -44.080132 31.367584
46.02998 -47.087193 39.077568
54.773453 -46.168095 37.279747
48.857883 -41.345093 39.081371
54.184929 -42.966747 38.807472
55.434902 -25.917372 30.299946
46.530754 -38.063133 39.669548
55.434898 -24.536745 38.488159
54.775879 -38.606133 19.810013
55.434898 -36.345322 32.461929
55.434898 -37.222298 33.534992
53.106659 -26.497696 39.752525
52.176193 -41.304039 39.085831
54.773468 -39.838131 37.152241
54.774654 -47.841362 28.613537
55.52314 -25.075321 27.585159
55.434898 -26.379341 35.840069
46.498596 -38.753487 39.078201
54.774361 -40.102077 30.725922
55.434898 -29.161106 35.637466
55.434898 -36.756741 32.559254
55.414101 -29.800179 23.076279
55.434902 -32.058483 32.841042
52.758282 -40.225647 39.086617
55.434898 -37.031235 24.779377
54.775772 -40.470943 20.576586
55.434898 -30.379507 29.544897
55.105568 -38.247913 37.535271
55.414101 -25.925869 26.948891
55.434902 -28.074762 31.685772
52.293297 -44.884895 39.085991
54.775444 -48.307335 22.937954
54.775845 -44.050674 20.070015
55.434898 -35.589012 23.497625
45.795059 -47.181175 39.077255
50.887806 -36.438614 39.752525
55.434895 -32.782684 37.546535
55.434898 -29.727421 29.560791
55.434898 -31.668295 36.259819
54.773895 -43.613083 34.090504
55.434898 -33.921825 22.16684
55.414101 -28.292347 26.829191
55.414101 -24.544147 23.849136
47.328697 -40.68206 39.079315
55.434898 -37.333099 31.384228
43.999073 -45.098789 39.074841
55.434898 -34.505829 36.589535
55.434898 -32.701225 37.201645
46.937935 -30.15225 39.815998
55.414101 -28.287001 22.723951
55.434898 -33.524185 32.789276
46.111633 -30.267956 39.959
55.434898 -37.42207 32.951031
55.49865 -28.592514 28.555317
51.413101 -48.388798 39.084805
54.774567 -41.261543 29.26108
54.775696 -43.208672 21.153486
55.434898 -25.062008 32.546635
54.775658 -43.13203 21.395967
55.434898 -34.116653 33.870514
54.774021 -46.051815 33.141781
54.775627 -43.891762 21.623192
54.773441 -43.316208 37.338799
47.932735 -46.85321 39.080124
54.773483 -39.879898 37.056084
53.969391 -39.088413 38.879025
53.526207 -40.805534 39.026146
52.623184 -25.679691 39.752533
55.414101 -30.080036 21.75841
53.5396 -32.854595 39.752522
49.705441 -37.753666 39.752502
55.414101 -30.285036 19.957527
45.899757 -39.191048 39.077393
55.434898 -34.767029 33.882637
54.774616 -44.908772 28.880207
55.434898 -34.614071 33.35656
44.535378 -37.438751 39.75251
55.434898 -27.632328 34.406555
54.773766 -45.518021 35.007805
45.084953 -31.625484 39.936859
54.77544 -39.862297 22.96871
47.173359 -41.259102 39.079109
50.056149 -28.42437 39.752563
55.414101 -26.754408 26.205196
55.414101 -24.874786 21.034046
55.434902 -34.465755 27.454538
54.775219 -46.149921 24.536903
55.434898 -34.311768 34.038403
47.885712 -39.374222 39.080067
55.414101 -26.834984 23.548309
54.77581 -48.643055 20.306412
55.434898 -35.608345 28.474167
51.118801 -29.428879 39.752548
55.434898 -36.748455 19.50392
54.775391 -39.341076 23.348547
50.670742 -37.724838 39.752502
55.434898 -37.22678 20.292723
52.889496 -42.390724 39.086792
55.434898 -28.827845 33.503956
55.434902 -29.916916 31.76265
54.67738 -42.287086 37.945633
55.434902 -35.095581 27.421377
54.774376 -41.807072 30.60203
44.94696 -46.007683 39.076115
55.434898 -28.336109 31.638031
55.414101 -28.818253 27.203014
48.50016 -26.454847 39.752583
55.434898 -33.809029 20.399982
55.214333 -31.284145 39.752502
45.278511 -33.099758 39.752579
55.434898 -37.865433 38.128532
55.163147 -38.204762 24.940796
54.773685 -42.279869 35.601761
54.612469 -30.020733 39.75251
54.773949 -40.235603 33.716293
55.113102 -38.242264 21.004417
55.434898 -30.628958 37.631775
46.209087 -30.661135 39.959
54.774075 -46.534859 32.784626
55.414101 -29.263329 26.766621
55.434898 -25.14196 28.827944
50.565498 -28.793758 39.752556
52.587914 -36.39513 39.752525
54.77449 -44.868488 29.781631
51.540123 -26.282665 39.752548
54.125244 -26.987425 39.752514
45.218353 -39.762348 39.076481
55.434898 -29.999922 36.489365
55.434898 -32.230556 19.739801
54.775963 -41.169052 19.217398
53.494404 -41.471588 39.036705
54.629181 -38.636036 38.090084
44.410267 -34.581993 39.752556
55.434898 -33.418732 22.448275
54.773941 -40.70689 33.763882
55.434898 -28.456623 38.23563
54.773483 -47.500137 37.047699
55.434898 -30.066774 35.975018
55.434898 -32.194633 39.131123
54.775497 -41.089096 22.565269
55.434898 -31.720148 39.612793
54.775059 -48.680088 25.723167
54.77544 -38.607906 22.97365
54.774044 -45.244183 33.049328
55.569878 -28.418825 27.629635
54.774376 -44.56308 30.631218
52.073414 -35.606239 39.752541
49.004684 -38.746349 39.081573
54.775318 -38.743374 23.842123
55.434898 -34.968376 30.192383
45.282059 -45.629246 39.076565
55.434898 -36.258541 34.810776
47.926727 -26.76778 39.75259
52.747753 -27.758923 39.752533
54.775372 -46.06282 23.495615
54.774841 -42.758812 27.287592
54.630619 -28.829678 39.75251
46.10788 -28.695457 39.959
55.434898 -31.602043 35.100517
54.774803 -38.826092 27.521986
51.345718 -35.962238 39.752533
55.434898 -32.700157 24.82501
55.434898 -26.517101 32.055443
55.434898 -30.287659 36.238899
48.624725 -47.734047 39.081059
54.866371 -38.427174 22.248484
53.427525 -47.317284 39.058907
55.434898 -32.485443 21.100981
46.984039 -25.732691 39.789612
48.547691 -30.572662 39.752579
55.434898 -31.843384 30.874195
54.774418 -46.23188 30.308365
55.434898 -32.938187 32.183224
48.326172 -39.569679 39.080658
48.096046 -29.131763 39.752586
54.775307 -39.262344 23.907454
46.833099 -36.912537 39.752514
45.782589 -48.319683 39.077236
54.774384 -46.984287 30.576277
49.87706 -44.104946 39.082741
44.675385 -47.716343 39.075748
54.50304 -38.330521 39.312012
55.434898 -29.942833 31.041348
54.773811 -45.309578 34.70562
50.760098 -47.932594 39.083927
54.773968 -47.315063 33.554092
55.434898 -27.699602 34.522358
55.434898 -34.692822 36.948662
55.414101 -26.404202 22.544613
54.774799 -39.628273 27.598778
54.774311 -40.817322 31.096741
55.434898 -24.291237 33.20108
54.773697 -45.100208 35.500473
45.406849 -24.96821 39.741982
54.775471 -38.542351 22.737362
53.459831 -44.618629 39.048183
54.774055 -44.976238 32.964718
54.774193 -43.481827 31.94912
54.649845 -34.614857 39.75251
54.773872 -44.395168 34.260632
55.434898 -37.74242 20.785049
48.916317 -29.963955 39.752579
54.774864 -42.598289 27.121693
54.775154 -45.172043 25.025343
54.549343 -39.596611 38.329319
54.935669 -38.375244 20.177605
55.434898 -31.124199 30.208565
55.288544 -30.316183 39.752499
51.972153 -24.17486 39.752541
54.7742 -39.909248 31.896412
55.187744 -38.186329 28.626144
55.434898 -28.177771 37.878307
53.959007 -28.917191 39.752518
48.155083 -32.17466 39.752586
52.501129 -34.67358 39.752537
48.033817 -47.750542 39.080265
51.925179 -25.605469 39.752541
54.773842 -48.206951 34.463768
46.870697 -36.027653 39.752533
55.414101 -26.320496 21.090309
50.842426 -45.88084 39.084038
54.103565 -31.822823 39.752518
43.568745 -43.543358 39.074261
49.010391 -39.913685 39.081577
55.434898 -36.605507 25.413157
55.414101 -27.611452 26.708036
55.434898 -27.063526 34.369713
52.161522 -42.24794 39.085812
54.384323 -24.679607 39.75251
54.774162 -39.262131 32.161671
54.7757 -45.461552 21.089516
55.434898 -37.873047 28.608538
54.605797 -42.169731 38.160149
43.94717 -47.386803 39.074768
45.992985 -32.281933 39.752598
55.434898 -35.145355 24.233538
51.925858 -26.129581 39.752541
54.30761 -25.783201 39.75251
54.77462 -48.059101 28.86643
54.775215 -45.397793 24.598907
54.773575 -45.96468 36.419559
54.70443 -40.73576 37.864574
54.773842 -43.576492 34.492859
54.775764 -47.029045 20.592278
53.600487 -30.120514 39.752522
46.355068 -34.336349 39.75256
54.775902 -38.737679 19.605112
55.434898 -28.89673 29.060556
55.414101 -30.620302 24.427727
54.774292 -41.391182 31.206806
55.434898 -24.311985 33.650612
55.434902 -33.450027 29.365389
49.681477 -31.894251 39.752571
55.434898 -34.867901 24.224728
54.774426 -41.359547 30.278751
45.128578 -30.350468 39.704102
50.14053 -40.081642 39.083096
54.775005 -45.437607 26.085102
50.115696 -45.676033 39.083061
49.264549 -37.307602 39.75251
54.775551 -39.854111 22.192677
55.434898 -37.869263 23.2131
55.434898 -33.786339 22.446251
50.808659 -47.131641 39.083992
49.884605 -43.88258 39.082756
55.434898 -35.442814 26.818657
55.536865 -31.769249 20.749367
50.24474 -44.127136 39.083237
54.773682 -47.782303 35.627296
54.826668 -38.456932 20.675133
53.144257 -27.902334 39.752525
49.71027 -27.571644 39.752571
55.414101 -27.770994 24.240791
54.774475 -40.676075 29.929523
55.434898 -27.917439 38.659416
55.434898 -35.722343 26.530094
55.414101 -25.966925 22.311134
55.223904 -35.465847 39.752499
54.77475 -42.709396 27.941811
55.434898 -26.995729 33.814331
55.434898 -34.339409 29.229429
55.434898 -34.028423 31.815908
49.975281 -44.816643 39.082874
54.774208 -41.731964 31.793503
54.774891 -45.442593 26.912851
55.434898 -34.64933 38.887001
55.434898 -36.591957 24.178549
55.141613 -38.220898 26.763714
54.773544 -42.398228 36.613945
52.932674 -35.786114 39.752529
55.414101 -28.477068 25.449266
49.474907 -42.446049 39.082199
51.042179 -39.87571 39.084309
55.6413 -31.052036 19.428707
54.775372 -45.124504 23.429928
51.436394 -42.446255 39.084839
54.774479 -46.556503 29.865883
46.064972 -27.521435 39.929623
55.434898 -35.769169 39.312859
49.73587 -28.554737 39.752571
55.414101 -27.397875 22.334072
55.434898 -33.491417 32.436344
55.434898 -32.804913 36.246262
54.774544 -41.533234 29.416212
55.414101 -24.471205 26.75164
55.434898 -32.72551 30.643539
54.300869 -37.16515 39.752514
52.299263 -31.872765 39.752533
54.775421 -45.267502 23.140444
45.568569 -24.888527 39.887169
55.434898 -25.028875 36.021187
54.774269 -42.210258 31.408638
44.264492 -37.836674 39.752502
55.434898 -34.088287 30.314487
55.422565 -30.770161 25.477695
53.678032 -28.557449 39.752518
55.414101 -25.911259 22.120586
54.775806 -41.183876 20.317631
55.434898 -36.594479 34.839039
54.77425 -47.0121 31.533039
53.122551 -28.930532 39.752525
54.774662 -38.86652 28.573532
46.728844 -24.348412 39.935654
54.775635 -44.612579 21.551607
55.414101 -29.187502 22.138233
50.161751 -42.509869 39.083122
55.434898 -28.822546 35.060829
44.404175 -43.162807 39.075386
55.434898 -27.954914 37.415558
55.434898 -24.709301 30.124346
46.493568 -38.182198 39.510342
54.993507 -38.331894 35.202591
55.434898 -34.927643 37.738422
55.414101 -25.865267 19.534235
54.774269 -46.050789 31.373199
55.434898 -29.022617 39.472404
46.086143 -42.484497 39.077644
55.434898 -24.942566 35.799
49.272377 -31.158802 39.752575
55.434898 -37.273857 31.847067
55.434898 -32.32819 31.932095
55.434898 -31.600185 30.042568
55.434898 -33.882866 21.814636
55.414101 -26.644415 25.483593
54.428246 -26.627056 39.75251
54.773453 -46.008194 37.258255
54.773628 -41.848251 36.001221
51.346123 -43.873001 39.084717
54.280502 -37.926586 39.752499
47.764923 -35.969505 39.752533
55.434898 -28.723099 38.579704
55.434898 -36.598427 29.648224
55.434898 -30.15638 36.599281
47.191608 -38.404514 39.21307
55.6413 -31.235027 25.559797
46.296165 -34.904671 39.752548
54.774109 -45.357975 32.537331
55.434898 -33.677383 19.759439
54.774689 -46.900322 28.385765
53.171879 -30.416258 39.752525
54.453278 -31.130558 39.75251
50.626625 -44.432381 39.083748
54.774239 -42.14344 31.601398
48.443447 -27.104221 39.752583
55.434898 -27.648964 36.178654
55.434898 -37.339909 36.119114
55.414101 -26.822145 26.064659
53.851917 -41.191341 38.918022
50.473297 -39.930275 39.083542
55.434898 -37.792229 30.35276
53.95882 -39.973743 38.882534
55.434898 -30.983343 36.921688
49.771088 -34.879959 39.752552
49.009552 -27.609894 39.752583
55.434898 -33.25642 35.535179
47.473354 -35.762604 39.752537
54.774849 -40.64032 27.230587
55.414101 -25.682852 24.407625
54.775234 -43.977798 24.416847
54.775951 -43.527519 19.252459
55.434898 -35.676277 37.52589
55.434898 -37.45187 34.653297
53.735107 -46.47097 38.956802
50.676224 -28.867447 39.752556
55.434898 -36.060886 38.734009
55.434898 -31.558933 33.326027
54.93148 -25.681141 39.752502
54.774529 -41.393555 29.525827
53.832329 -31.089907 39.752522
55.414101 -30.314024 20.902565
54.338596 -42.609352 38.756458
47.26548 -44.508209 39.079231
55.434898 -32.670212 21.914867
55.434898 -30.518021 31.396015
55.434898 -25.407848 33.755741
54.775139 -38.767555 25.127523
54.774494 -39.145168 29.774864
54.773495 -48.621094 36.986599
54.774479 -42.527969 29.880379
53.627209 -27.342613 39.752522
54.774826 -42.091568 27.385298
53.128632 -37.717609 39.752502
55.434902 -33.851562 24.748693
55.389603 -38.035042 35.024193
45.082527 -36.661537 39.752522
54.423744 -41.473503 38.705685
55.414101 -27.46961 27.04715
47.617508 -25.576485 39.752594
55.434898 -26.455732 38.311893
55.434898 -26.454718 32.039795
55.434898 -33.642021 30.360518
54.774483 -41.400749 29.877728
51.98082 -24.382843 39.752541
51.031708 -35.85347 39.752537
54.773418 -47.2561 37.53714
55.434898 -30.677238 31.200388
54.774643 -46.089596 28.702591
55.434898 -27.963184 28.782015
52.905998 -44.001556 39.086815
50.123589 -32.22879 39.752563
55.434898 -33.74086 35.417862
49.200027 -39.993767 39.081833
55.434898 -37.569706 26.498291
47.108345 -35.380093 39.752541
54.773991 -39.827679 33.400002
54.773602 -39.062962 36.180447
50.61779 -34.393818 39.752556
53.163124 -35.509647 39.752525
55.434898 -37.64164 19.622784
55.434898 -34.273708 27.098009
54.625977 -40.958298 38.09967
54.774742 -46.600163 27.990772
55.434898 -27.590931 38.890625
54.774807 -45.56868 27.535255
55.434898 -33.100674 22.25098
51.70945 -25.907959 39.752544
54.774155 -48.306923 32.211994
54.774864 -42.989639 27.101318
54.773872 -45.152039 34.21632
54.775818 -45.443913 20.255304
55.434898 -32.071598 31.502222
54.775864 -39.736748 19.900124
51.11805 -35.279198 39.752541
55.434898 -31.808199 34.607399
55.213722 -38.166862 21.293697
55.434898 -33.823643 29.968773
45.522202 -33.886887 39.752571
55.434898 -34.871681 23.757172
54.7742 -41.816536 31.91976
44.894268 -47.775116 39.076046
52.944214 -47.24958 39.086861
50.381878 -24.842718 39.75256
55.434898 -29.651947 31.119574
55.540112 -24.48185 27.601311
47.963257 -38.605713 39.080166
54.774452 -40.982071 30.059772
55.434902 -34.007744 33.452991
55.434898 -32.464451 38.48917
55.434898 -28.972744 32.664417
55.414101 -30.64687 26.070644
50.665649 -42.211342 39.083801
55.434898 -26.266354 30.372696
54.773659 -40.785736 35.823895
55.434898 -33.99155 31.214733
51.054043 -32.70948 39.752552
54.775108 -40.476196 25.325676
48.013889 -32.644096 39.75259
51.889145 -31.438183 39.752541
55.576958 -27.617949 27.636372
54.774151 -44.045574 32.240868
54.775787 -40.242725 20.458574
55.434898 -29.179972 35.074104
55.414101 -25.83194 26.135788
53.887802 -47.205299 38.906113
55.434898 -32.141857 39.368359
54.775249 -39.324993 24.3316
54.77536 -45.319683 23.531841
55.434898 -28.481323 34.125362
44.034241 -41.221737 39.074886
49.985146 -31.194622 39.752563
55.414101 -30.339321 20.12027
51.532028 -37.957783 39.752499
54.774956 -41.054665 26.439161
47.325706 -35.064003 39.752548
54.67461 -32.776886 39.75251
46.265663 -48.311989 39.077888
55.434898 -27.23172 37.799931
48.702675 -41.715679 39.081161
45.9645 -42.72036 39.077484
54.773941 -40.086418 33.768383
55.6413 -31.118176 24.773027
55.545113 -31.754845 20.781063
54.774601 -38.778122 29.00145
45.052288 -46.874901 39.076256
54.773842 -45.487591 34.469307
55.434898 -33.068619 25.723152
50.341927 -47.873936 39.083366
47.534943 -26.146589 39.752594
54.775452 -40.589497 22.879608
54.775936 -43.22533 19.375338
44.082451 -47.267994 39.074951
54.775612 -46.60968 21.699783
53.283371 -34.375626 39.752522
45.189491 -29.750847 39.704102
53.867065 -28.871868 39.752522
52.094818 -42.352207 39.085724
54.7752 -41.243767 24.68627
55.434898 -34.245789 36.714718
51.957367 -38.155495 39.546051
53.734962 -31.360588 39.752518
54.773598 -43.149582 36.2332
55.434898 -31.184729 39.283058
55.434898 -31.642578 31.604065
54.773399 -39.405231 37.654778
54.77388 -43.296135 34.219429
55.414101 -29.764715 26.60318
54.77449 -44.490582 29.799845
55.434898 -31.991934 21.348877
55.434898 -26.716436 36.144203
55.434898 -33.310555 19.256569
55.434898 -29.009003 36.986649
50.612289 -27.442089 39.75256
55.434898 -25.207571 32.873844
55.434898 -32.478127 21.356541
55.242046 -28.697866 39.752502
54.774887 -39.401817 26.939505
46.365738 -28.032406 39.959
54.775497 -43.13073 22.53023
55.434898 -30.057203 39.472038
55.434902 -30.514145 29.33955
54.775463 -42.66333 22.802399
54.775341 -45.224201 23.675697
44.397682 -45.863487 39.075375
52.318245 -40.526772 39.086021
55.434898 -32.709179 28.706911
47.742008 -27.817385 39.752594
55.434898 -30.109859 33.52216
55.434898 -32.267582 21.264849
51.171547 -44.529263 39.08448
55.434898 -35.389103 25.413868
54.77536 -44.464661 23.547359
54.774822 -48.121117 27.421526
45.829765 -47.840126 39.077305
55.434898 -34.315582 20.613087
54.773537 -46.287308 36.643875
52.855934 -29.930647 39.752533
54.773876 -48.520432 34.225502
54.774078 -42.593365 32.786034
54.750088 -42.433037 37.72776
55.115009 -25.625988 39.752506
55.434898 -34.982197 20.064838
55.414101 -30.693491 19.477976
55.434898 -32.050602 28.862484
55.434898 -32.739422 23.083347
44.095146 -47.602093 39.07497
44.245213 -43.960777 39.075172
55.434898 -25.688969 32.623848
48.780411 -44.605595 39.081268
51.138279 -39.503605 39.084438
46.062164 -28.055729 39.923981
55.434898 -25.733894 30.305031
46.50074 -36.561752 39.752525
46.157482 -32.720695 39.75259
55.414101 -26.132343 25.210573
55.459679 -30.80549 23.291073
54.773506 -42.177387 36.879513
55.434898 -34.397972 20.036657
47.675587 -48.617107 39.079784
54.775124 -48.284492 25.257542
45.097466 -31.613911 39.943485
47.919678 -35.163052 39.752548
55.434898 -36.335049 35.034714
54.775505 -40.601601 22.498329
54.774681 -39.021633 28.429579
55.434902 -26.80928 31.609562
48.085556 -33.906639 39.752563
52.478508 -24.474154 39.752537
53.382484 -46.692852 39.07386
45.386227 -29.342693 39.704102
55.434898 -36.319969 20.02751
54.775761 -48.188786 20.643496
54.634548 -42.461151 38.073997
54.773918 -43.036705 33.927673
44.301815 -43.479385 39.075249
55.414104 -29.861204 26.916594
48.515694 -43.890953 39.08091
53.101646 -44.057686 39.087074
47.611347 -30.181625 39.752594
55.641304 -24.59449 27.722912
49.559811 -41.664864 39.082317
45.083946 -33.502567 39.752579
54.775787 -40.163635 20.442896
55.434898 -28.435867 32.053585
48.341049 -38.254509 39.413643
43.771751 -44.456341 39.074535
54.614559 -25.902313 39.75251
55.414101 -28.717381 25.463638
45.420532 -43.516891 39.076752
45.903992 -45.900249 39.0774
54.77457 -47.98838 29.229404
54.77417 -40.415787 32.102505
53.017372 -30.728762 39.752529
54.775219 -44.05711 24.534218
51.217346 -36.164772 39.752529
55.065922 -38.277622 19.277843
54.773415 -47.04689 37.528683
55.414101 -28.283007 21.459486
54.774269 -47.509697 31.384792
53.978657 -35.950638 39.752518
55.414101 -30.548546 20.629583
54.774734 -48.667343 28.05331
47.999592 -26.816463 39.75259
55.434895 -27.930803 33.427147
54.775883 -46.736526 19.755299
55.434898 -32.657227 23.146217
55.414101 -24.824692 21.125694
54.77446 -41.533501 30.018888
55.414101 -27.490957 20.697586
47.30407 -25.743956 39.752602
55.434898 -26.868217 29.695782
51.948349 -35.50177 39.752541
52.602333 -33.099506 39.752533
54.773628 -46.910526 35.995308
54.775429 -44.589127 23.075354
44.499657 -47.016853 39.075512
45.243607 -39.867264 39.076511
55.414101 -28.569206 19.760397
54.774055 -42.720963 32.903664
55.048534 -38.290653 27.435534
55.434898 -26.65892 31.495167
54.774807 -43.399345 27.50168
44.969063 -36.009781 39.752533
54.775944 -40.521858 19.318045
50.633408 -41.53606 39.083755
46.074291 -48.344624 39.077633
55.434898 -33.151119 26.870234
51.661922 -36.131828 39.752533
55.434898 -30.311722 35.991653
51.255882 -40.961632 39.084591
54.77393 -40.588856 33.852097
55.434898 -35.278027 33.98774
53.605068 -40.315754 38.999969
55.434898 -34.60508 31.676739
55.434898 -31.371384 35.806339
55.434898 -36.458298 32.051662
55.434898 -34.936756 32.07349
55.434898 -37.259995 21.218227
55.434898 -27.584093 39.301327
55.434898 -33.274124 19.882051
55.434898 -35.605122 31.734612
55.434898 -28.870213 37.710098
55.434898 -29.456295 34.910748
47.835426 -25.242609 39.752594
52.382187 -45.012436 39.086109
54.774227 -44.624428 31.691875
47.965019 -38.150009 39.553383
55.434898 -28.184364 36.754303
51.157272 -41.874039 39.084465
48.589066 -28.533752 39.752579
51.845383 -38.215401 39.46595
55.434898 -35.245373 26.87668
55.434898 -37.524559 30.799395
54.775314 -44.805771 23.894222
55.434898 -35.472286 31.731764
45.591385 -48.05442 39.076981
55.611012 -26.652002 27.668777
55.434898 -37.041512 22.983112
54.77388 -41.337006 34.218761
55.414101 -28.617739 26.595287
54.77486 -39.461369 27.141459
55.434898 -25.500923 38.658623
54.775505 -48.323792 22.519302
55.6413 -31.113888 22.349207
53.576496 -47.649071 39.009453
54.783764 -29.08062 39.752506
50.335323 -27.110184 39.752563
55.434898 -36.956978 21.728674
55.434898 -30.61668 31.012362
55.434898 -33.64959 36.404472
53.882069 -37.184319 39.75251
47.003986 -41.789555 39.07888
54.773811 -44.910873 34.654743
54.774609 -47.690071 28.960934
46.462147 -27.309841 39.959
55.434898 -33.907253 20.551271
49.418663 -46.301582 39.082123
54.7757 -45.605694 21.089403
54.940094 -38.371922 27.377979
54.774475 -43.925434 29.89193
54.968773 -38.350433 19.645971
55.434898 -35.967285 34.015678
55.414104 -25.564224 26.352974
51.236446 -36.993889 39.752514
54.774742 -38.495846 29.124435
55.434898 -30.864117 38.206085
54.773949 -44.157318 33.708557
54.773556 -44.035366 36.537811
55.641296 -28.632118 27.998922
49.646412 -25.952114 39.752571
51.650181 -44.633755 39.085125
47.771797 -31.870468 39.752594
54.773487 -48.038151 37.050301
55.278755 -38.118118 27.502216
54.774712 -43.529682 28.194284
54.7757 -45.708736 21.111208
51.885773 -24.296152 39.752541
44.248909 -43.497528 39.075172
47.056881 -31.923447 39.752602
43.507008 -47.268497 39.074177
55.434898 -24.797894 32.356617
47.894508 -48.364288 39.080074
54.774635 -45.42062 28.777134
55.414101 -29.091873 24.35412
54.774513 -41.289879 29.651848
50.097858 -24.392088 39.752563
45.128853 -25.891773 39.704102
52.080261 -32.033401 39.752541
55.434898 -25.08733 33.620819
53.094055 -30.920549 39.752525
55.434898 -33.084694 34.196732
54.773876 -38.677166 34.227741
54.914314 -35.377056 39.752506
55.434898 -25.214365 30.465038
48.925732 -40.053383 39.081463
55.434898 -26.579758 29.4056
47.232407 -26.053734 39.752598
49.949734 -26.952692 39.752567
47.573292 -31.986881 39.752594
53.433598 -36.889626 39.752518
46.2407 -30.918545 39.959
54.774372 -42.944427 30.653797
54.775902 -41.171005 19.623142
54.774971 -48.214287 26.359295
50.500801 -33.923965 39.75256
54.774529 -45.250046 29.543972
50.947403 -47.013172 39.084183
54.639099 -45.485546 38.06036
49.084877 -35.295738 39.752544
55.121445 -31.813984 39.752502
54.773796 -44.672344 34.806499
54.775856 -42.710884 19.956844
49.481331 -35.625031 39.752541
51.942284 -33.739227 39.752541
54.774635 -43.199093 28.743855
55.434898 -36.685314 34.940254
55.641304 -31.005299 23.865326
45.047112 -27.756844 39.704102
53.618996 -44.989174 38.995346
55.434898 -33.013588 29.381523
45.002125 -33.498352 39.752575
54.775803 -45.374378 20.335558
55.434898 -30.394655 37.201153
54.775253 -47.740517 24.304142
55.434898 -27.045275 29.676842
54.775063 -47.152767 25.697071
44.735325 -45.750526 39.075829
54.775326 -41.362282 23.78957
54.774315 -42.9114 31.060827
55.434898 -29.255371 39.661232
54.774624 -47.005608 28.835712
43.75975 -48.274117 39.074516
52.112877 -42.843155 39.085747
52.766842 -45.936302 39.086624
54.775673 -47.712692 21.299557
49.466824 -24.291256 39.752571
55.434898 -37.98587 32.4566
53.950863 -31.91272 39.752518
51.60424 -37.657959 39.752502
54.774284 -41.790066 31.292984
52.25425 -30.089306 39.752537
54.447376 -46.720078 38.63488
45.444511 -37.916969 39.752499
44.404949 -34.03355 39.752567
52.976524 -35.450535 39.752529
53.669205 -36.451817 39.752522
47.273788 -38.120785 39.592461
55.434898 -28.921043 29.213224
54.774982 -46.055843 26.253881
55.434898 -28.792126 36.3209
54.775787 -47.766212 20.452763
54.774685 -48.68644 28.391254
51.041252 -36.152634 39.752529
54.773746 -40.621353 35.178123
48.512817 -45.796288 39.080906
55.434898 -30.336704 30.878708
55.429604 -38.00507 32.582321
54.775223 -41.828392 24.546179
47.876282 -30.565378 39.75259
55.434898 -36.105492 22.269707
47.86953 -45.357182 39.08004
47.689774 -42.876278 39.079803
55.434898 -32.573677 32.892288
54.775162 -40.133224 24.961288
55.434898 -29.461721 37.939953
54.77544 -46.801338 22.93112
50.20845 -36.922398 39.752514
55.115311 -25.276289 39.752502
55.414101 -25.720762 21.586111
55.481308 -30.826082 23.01376
45.09481 -29.139299 39.704102
55.434898 -31.209953 36.485001
55.434898 -36.819195 25.287022
54.77552 -41.229713 22.404921
54.775703 -42.807281 21.049194
54.77552 -42.079987 22.401997
55.434898 -36.356766 27.940432
54.329166 -32.721516 39.75251
50.308731 -38.284962 39.372932
54.77372 -45.747551 35.347969
54.774521 -38.640221 29.572634
51.937988 -47.748039 39.08551
54.77475 -43.040756 27.927551
55.434898 -31.624409 36.471687
47.446968 -24.37101 39.752594
44.84586 -48.03437 39.075977
54.775356 -44.332809 23.578661
54.774719 -46.478535 28.164379
46.800026 -45.680199 39.078606
52.29977 -48.180481 39.085999
47.052132 -36.323109 39.752525
47.771915 -41.718235 39.07991
54.774124 -48.463844 32.44912
48.231277 -36.967285 39.752518
54.774193 -44.125229 31.949921
54.774063 -39.032646 32.875454
55.414101 -24.634232 26.913204
55.414101 -25.103367 19.536366
55.434898 -32.986778 34.703949
55.414101 -25.649048 20.897385
55.434898 -32.86084 28.600464
54.773502 -44.89698 36.909637
55.414101 -26.283173 26.060867
51.637177 -32.954117 39.752548
55.434898 -35.619724 33.130939
55.641304 -26.053381 28.021461
54.774403 -48.267189 30.427996
54.773949 -46.967773 33.685703
55.434898 -37.434242 34.771893
55.414104 -30.669922 26.047514
54.775688 -47.552567 21.180595
54.775673 -39.840569 21.281647
52.392128 -28.512394 39.752537
55.434898 -36.550232 33.522789
52.768238 -37.923912 39.752502
47.171425 -45.125706 39.079105
55.414101 -30.654865 22.669643
54.774284 -45.530693 31.297447
45.638588 -37.118214 39.75251
55.434898 -27.277283 35.967785
54.774429 -41.269981 30.238319
54.474739 -47.598694 38.552872
55.414101 -26.792583 25.557903
55.434898 -35.798176 29.456793
54.775162 -42.136848 25.004616
54.773529 -42.149849 36.708824
55.434898 -29.757286 34.118729
54.775509 -42.886173 22.455687
55.434898 -37.809593 23.942482
54.775261 -47.037323 24.271778
50.566528 -38.21209 39.470375
49.467655 -33.178009 39.752571
55.434898 -25.400566 37.776028
55.434898 -28.508387 29.322058
55.434898 -34.549313 33.913521
55.434898 -37.454159 23.084272
55.414101 -28.429585 24.669062
53.363243 -38.419456 39.193092
46.285133 -40.602184 39.077911
54.774918 -44.311584 26.713987
48.853088 -34.352558 39.752563
54.775249 -46.809647 24.324123
54.578377 -47.898285 38.242317
47.814537 -24.69735 39.752594
52.66761 -31.540773 39.752533
55.414101 -25.15881 20.61311
55.434898 -35.963299 33.085468
54.774738 -46.187836 28.034388
55.434898 -37.672028 23.742624
54.773975 -46.556187 33.491104
54.773579 -46.185112 36.380127
54.775894 -40.596062 19.716837
45.674049 -27.798157 39.704102
55.434898 -34.04303 28.404255
43.862999 -46.93026 39.074657
55.449478 -26.682423 28.641224
47.165405 -29.982632 39.752602
54.358307 -47.861977 38.74992
54.774498 -43.554554 29.738358
54.773544 -47.281906 36.627731
51.321205 -25.255217 39.752548
55.434898 -31.1632 32.733456
55.414101 -26.901037 25.273067
52.36911 -37.09436 39.752514
55.414101 -25.500191 20.328388
55.391991 -38.033257 33.249542
50.454674 -31.937115 39.75256
55.434898 -28.979841 28.764906
54.774078 -47.109524 32.732189
55.086281 -38.262367 27.860725
55.434898 -37.774841 30.509541
54.775131 -47.11161 25.168463
55.414101 -29.942389 24.013599
54.292267 -27.988174 39.75251
54.775913 -40.541534 19.558889
51.140873 -28.392672 39.752552
48.861477 -27.022474 39.752579
55.434898 -32.633987 29.761244
45.131203 -24.580673 39.959
55.434898 -35.784695 33.676949
54.773651 -38.773251 35.830818
55.434898 -27.437965 34.081013
49.089214 -47.818291 39.081684
55.434898 -36.745819 31.006794
55.434898 -30.907465 34.832539
55.434898 -31.143147 31.364334
46.934765 -39.363819 39.078789
55.359497 -38.057606 30.143299
55.023262 -38.309597 24.478701
54.774254 -40.240402 31.48859
55.434898 -31.714458 33.154339
54.775738 -45.979427 20.812815
55.434898 -24.307676 36.761299
47.241455 -33.584221 39.752571
55.434898 -35.445068 25.559002
55.434898 -37.008057 26.867075
51.85379 -38.689407 39.085403
47.175591 -42.716827 39.079109
54.087906 -48.601254 38.839684
55.434898 -24.998466 30.389519
55.434898 -37.286598 19.825935
55.188477 -35.046455 39.752495
49.093822 -38.370911 39.258003
53.934013 -45.20903 38.89077
45.607269 -35.802822 39.752537
54.8946 -26.586674 39.752502
51.422874 -25.603634 39.752548
53.873173 -44.114639 38.910969
55.434898 -32.274635 35.237095
48.701717 -38.744446 39.081161
52.585457 -34.184303 39.752537
45.876408 -30.122902 39.704102
55.434898 -37.085297 31.399096
54.774269 -39.90345 31.409986
54.773991 -45.021797 33.39167
49.127544 -26.78953 39.752575
48.78904 -28.29006 39.752579
50.008663 -38.457451 39.142281
54.753368 -42.544548 37.717934
54.774475 -45.986866 29.941299
55.434898 -30.549358 33.677967
54.77523 -44.601406 24.452187
51.168392 -24.393173 39.752548
52.854935 -36.59111 39.752525
55.434898 -28.779896 38.108688
54.77417 -46.424904 32.104691
54.77364 -42.321011 35.950645
49.025806 -47.930576 39.0816
55.414101 -29.984737 26.889963
52.671978 -32.269699 39.752533
55.434898 -24.945593 34.783867
46.925335 -28.340569 39.823208
55.434898 -26.088196 39.726627
54.773975 -47.503399 33.518688
53.714661 -24.614408 39.752522
55.434898 -31.982086 21.237839
54.26622 -38.968445 38.780487
54.187065 -35.974068 39.752518
55.434898 -37.634384 34.985012
54.774055 -44.6353 32.911247
55.411148 -38.018894 33.756916
55.414101 -30.234858 24.197308
45.034714 -45.131165 39.076233
55.534805 -30.125401 28.492149
50.574131 -38.43634 39.170513
50.381557 -30.513931 39.752563
54.77359 -46.311893 36.263119
