-12.4151 -40.0964 -81.2496 0.476307 0 0.879279 
96.9425 17.0625 -28.3128 -0.863251 0 0.504776 
-50.7437 -37.1803 -65.4289 0.436854 0 0.899532 
-60.9833 22.5989 -25.0756 0.918035 0 0.3965 
32.3999 -8.82782 86.7647 -0.0431874 0 -0.999067 
1.7927 15.5933 -80.1696 0.202596 0 0.979262 
-22.9752 -11.4549 78.6425 0.147046 0 -0.98913 
45.3072 38.488 -53.1434 -0.438207 0 0.898874 
106.725 -36.4241 48.2018 -0.962417 0 -0.271576 
-11.5392 32.0181 64.9684 0.411487 0 -0.911415 
103.676 -12.6501 -22.7045 -0.915971 0 0.401244 
-54.8901 15.8245 56.9721 0.908554 0 -0.417766 
-75.1485 -40.7858 -15.9612 0.913082 0 0.407777 
-3.53031 -5.95601 -75.3728 0.150705 0 0.988579 
9.68988 17.2525 -75.2493 0.453257 0 0.89138 
98.3665 -12.0951 40.6702 -0.984434 0 -0.175752 
-96.3558 -37.9782 36.6447 0.981426 0 -0.191841 
37.2257 -35.0643 93.9043 -0.073819 0 -0.997272 
-58.0752 -11.1249 -47.231 0.393301 0 0.91941 
90.6456 32.5657 -28.4556 -0.869513 0 0.493909 
-77.6999 -14.0075 -41.8564 0.897935 0 0.440128 
-45.9394 34.1029 -1.41637 0.990004 0 0.141037 
110.991 8.60031 10.1079 -0.994203 0 0.107517 
91.7476 16.1568 61.1037 -0.838432 0 -0.545006 
97.1974 16.5408 -57.9307 -0.816074 0 0.577948 
-102.725 -44.6482 36.1674 0.921849 0 -0.38755 
-85.0123 -38.673 -13.9982 0.896064 0 0.443925 
21.5537 16.1428 84.3176 -0.217918 0 -0.975967 
21.4257 -13.822 -75.5193 0.0424145 0 0.9991 
24.4716 -7.95128 84.5996 -0.402363 0 -0.91548 
-65.4171 -1.03151 -8.50537 0.997846 0 0.065608 
-34.1143 -34.9614 -66.6828 0.54497 0 0.838455 
30.8544 16.9729 90.6115 0.0735354 0 -0.997293 
-77.0475 -10.4372 -4.58662 0.880145 0 0.474704 
-32.8492 -35.9639 84.16 0.422104 0 -0.906547 
-82.797 -36.5475 23.2826 0.996906 0 0.0786095 
-44 -10.515 -73.6046 0.522898 0 0.852396 
74.0762 -40.1614 -63.0322 -0.832341 0 0.554264 
-57.2534 15.7947 -56.6199 0.843997 0 0.536348 
1.81572 29.5025 -68.5925 0.0560133 0 0.99843 
51.0951 33.4564 63.7756 -0.387034 0 -0.922065 
82.1108 -8.22859 -62.1587 -0.668533 0 0.743682 
107.937 -36.2077 -10.4009 -0.959432 0 0.281941 
-72.8168 -1.82741 10.4741 0.993436 0 0.114385 
-69.3636 22.5913 4.05857 0.980856 0 0.194736 
-55.7658 -12.4791 81.0949 0.340499 0 -0.940245 
85.2242 28.2512 38.5384 -0.767123 0 -0.6415 
26.6802 -34.1535 92.508 -0.28032 0 -0.959907 
-72.8362 -26.2587 15.9567 0.937676 0 -0.347511 
87.3283 -34.7871 -66.8009 -0.645093 0 0.764104 
