14.1519 -40.0964 -27.6072 -0.134999 0 -0.990846 
63.0594 17.0625 -6.46438 -0.979222 0 0.202791 
-26.2832 -37.1803 -14.9171 -0.424979 0 -0.905203 
-8.84163 22.5989 -6.50836 -0.984515 0 0.175302 
29.1554 -8.82782 36.6051 0.35935 0 0.933203 
10.9924 15.5933 -33.9924 0.327611 0 0.944813 
-14.0612 -11.4549 31.0856 -0.540878 0 0.841101 
23.5436 38.488 -9.34385 -0.347869 0 0.937543 
56.0751 -36.4241 33.7057 -0.977937 0 -0.208899 
9.51001 32.0181 17.5095 -0.345478 0 0.938427 
61.8545 -12.6501 0.134703 -0.966082 0 -0.258236 
-7.35806 15.8245 33.7351 -0.799534 0 0.600621 
-28.1695 -40.7858 2.99715 -0.998526 0 -0.0542739 
0.224482 -5.95601 -36.3406 0.449904 0 0.893077 
31.3182 17.2525 -26.0226 0.446458 0 -0.894805 
56.2591 -12.0951 33.3705 -0.969791 0 -0.243937 
-39.3097 -37.9782 26.8958 -0.99558 0 -0.093919 
31.7104 -35.0643 33.025 0.223976 0 0.974595 
-34.7197 -11.1249 4.12595 -0.705045 0 -0.709163 
49.4682 32.5657 -5.03074 -0.874914 0 0.484278 
-25.4119 -14.0075 -18.7233 -0.998085 0 0.0618596 
1.1012 34.1029 1.73838 -0.901745 0 0.432268 
61.7961 8.60031 18.4998 -0.893963 0 -0.448141 
56.5312 16.1568 37.8955 -0.892753 0 -0.450546 
58.4533 16.5408 -31.9872 -0.697102 0 0.716972 
-49.022 -44.6482 14.5816 -0.970262 0 0.242059 
-39.9426 -38.673 7.21897 -0.963512 0 -0.267666 
13.8843 16.1428 44.8924 -0.446949 0 -0.894559 
20.8053 -13.822 -38.0654 0.385631 0 0.922653 
4.7237 -7.95128 36.5974 0.0110163 0 0.999939 
-12.08 -1.03151 -3.09727 -0.8969 0 -0.442234 
-6.97886 -34.9614 -24.2219 -0.466095 0 -0.884735 
35.3672 16.9729 43.7066 -0.226007 0 -0.974126 
-34.8353 -10.4372 16.1288 -0.981429 0 0.191825 
-10.5762 -35.9639 32.4417 -0.0732384 0 0.997314 
-28.2395 -36.5475 24.5969 -0.704952 0 0.709255 
-11.441 -10.515 -24.6597 -0.961401 0 -0.27515 
31.9357 -40.1614 -37.8559 -0.462926 0 0.886397 
-9.67469 15.7947 -21.6699 -0.369178 0 -0.929359 
6.04663 29.5025 -10.5408 -0.214564 0 -0.97671 
34.005 33.4564 24.8188 -0.266616 0 -0.963803 
50.7439 -8.22859 -28.6562 -0.285012 0 0.958524 
58.8241 -36.2077 3.56787 -0.921691 0 0.387926 
-11.505 -1.82741 14.423 -0.899189 0 0.43756 
-10.2228 22.5913 14.0444 -0.98841 0 0.151808 
-37.8142 -12.4791 26.2888 0.0748534 0 0.997195 
59.9877 28.2512 13.0275 -0.993724 0 -0.111862 
12.3676 -34.1535 44.8028 -0.214857 0 -0.976646 
-32.5678 -26.2587 0.394372 -0.808394 0 0.588642 
55.4831 -34.7871 -29.8726 -0.582758 0 0.812645 
