# .PCD v0.7 - Point Cloud Data file format
VERSION 0.7
FIELDS x y z intensity
SIZE 4 4 4 4
TYPE F F F F
COUNT 1 1 1 1
WIDTH 1414
HEIGHT 1
VIEWPOINT 0 0 0 1 0 0 0
POINTS 1414
DATA ascii
-19.067448 19.211735 -27.418018 40
-19.29248 19.006041 -27.972881 40
-19.138134 19.147125 -19.889645 40
-19.429407 18.880882 -19.901617 40
-19.219704 19.072565 -19.566433 40
-19.429173 18.881096 -19.60804 40
-18.819469 19.438412 -20.065432 40
-19.586664 18.737137 -28.684114 40
-19.297117 19.001802 -26.864485 40
-19.311354 18.988791 -18.81963 40
-19.510633 18.806633 -19.939243 40
-19.404655 18.903505 -19.659908 40
-19.490713 18.824841 -18.663607 40
-19.497065 18.819036 -25.954605 40
-18.907461 19.357979 -17.399666 40
-19.160065 19.127079 -17.302294 40
-19.389215 18.917618 -17.522171 40
-19.411554 18.897202 -25.107748 40
-19.769735 18.569794 -25.060858 40
-18.905674 19.359612 -17.874537 40
-19.663988 18.666458 -17.540676 40
-19.802975 18.539412 -24.942745 40
-19.952839 18.402424 -25.275352 40
-19.956154 18.399395 -25.945576 40
-19.831181 18.513626 -26.127659 40
-19.741013 18.59605 -18.575413 40
-19.441124 18.870171 -16.503555 40
-19.824141 18.520065 -19.182859 40
-20.094515 18.272923 -25.140501 40
-19.865734 18.482048 -19.827341 40
-19.662479 18.667835 -20.263643 40
-19.747131 18.590458 -21.439362 40
-19.495529 18.82044 -20.706314 40
-19.84684 18.499313 -21.956903 40
-20.022381 18.33886 -22.075333 40
-20.068514 18.296688 -22.320322 40
-20.283062 18.100576 -22.676483 40
-20.115723 18.253536 -22.761856 40
-20.93977 17.500294 -23.452917 40
-21.073999 17.375774 -22.62373 40
-20.900112 17.536547 -22.440073 40
-20.850487 17.581907 -22.091709 40
-20.798405 17.629513 -21.741623 40
-20.546114 17.860126 -21.614132 40
-20.237711 18.142031 -21.989933 40
-20.845186 17.586752 -24.185089 40
-21.073999 17.288696 -23.252895 40
-20.851416 17.581059 -21.766022 40
-20.771038 17.654528 -25.301256 40
-20.870317 17.56378 -21.296915 40
-20.933365 17.506149 -21.495613 40
4.9265676 16.433609 45.935135 54
4.9787798 16.431511 45.925312 54
-43.229752 -30.528275 -0.1437 47
51.71962 -33.486092 39.752544 5
51.984463 -33.951393 39.752541 5
51.989246 -34.209702 39.752541 5
52.268593 -33.083981 39.752537 5
52.41922 -31.978518 39.752537 5
52.320099 -31.552534 39.752537 5
52.534073 -31.944626 39.752533 5
52.756905 -33.379375 39.752533 5
52.296394 -30.200127 39.752537 5
52.456017 -29.911772 39.752537 5
52.327347 -29.352249 39.752537 5
52.524086 -29.150383 39.752533 5
52.598263 -29.566002 39.752533 5
52.766434 -29.51499 39.752533 5
52.620003 -28.910757 39.752533 5
52.757011 -31.315929 39.752533 5
52.303116 -29.193213 39.752537 5
52.209694 -28.717136 39.752537 5
51.962879 -29.899612 39.752541 5
51.931992 -30.583847 39.752541 5
-45.036598 -40.081596 16.740103 53
-20.141941 18.229527 3.0890226 40
-20.057436 18.306765 3.9325933 40
54.087776 18.103556 -35.545902 41
54.0061 18.094 -35.561779 41
55.266426 18.060112 -35.617867 41
55.537395 18.078993 -35.586502 41
52.486416 18.030592 -35.667183 41
54.031021 17.991896 -35.731228 41
55.195045 17.967331 -35.771858 41
54.725803 18.013126 -35.695908 41
56.898598 18.068825 -35.603222 41
54.656391 18.189503 -35.403206 41
52.058029 18.169239 -35.437138 41
55.984348 17.944366 -35.809879 41
57.221527 18.262751 -35.281338 41
51.632515 18.124439 -35.511536 41
51.602669 18.236061 -35.326294 41
51.422379 18.172686 -35.431496 41
52.759514 18.06864 -35.604012 41
57.697594 18.052301 -35.630554 41
53.35973 18.164915 -35.44416 41
57.751099 18.114836 -35.526756 41
53.344078 18.175209 -35.427082 41
52.098728 18.280708 -35.25214 41
51.915031 18.391291 -35.068638 41
61.122398 15.967852 37.966656 42
61.122398 15.877842 38.446571 42
-10.484452 19.439529 -33.406799 26
-10.459713 19.465113 -33.364231 26
-11.263352 19.221077 -33.771992 26
-11.296525 19.12652 -33.929134 26
-9.4109173 19.355675 -33.542744 26
-11.344845 18.910233 -34.288483 26
-12.15799 19.527285 -33.266224 26
-11.455564 19.035454 -34.08086 26
-10.739579 19.05929 -34.03907 26
-10.926401 18.936769 -34.243118 26
-10.998988 18.796375 -34.476505 26
-11.367123 18.729885 -34.588062 26
-12.303234 19.328253 -33.597214 26
-12.22151 18.944412 -34.234421 26
-12.371096 18.975496 -34.183262 26
-9.6937332 19.045694 -34.058418 26
-29.570742 -12.530026 -22.644136 27
10.028684 11.936168 39.752499 43
9.1004467 12.044761 39.752499 43
8.9004555 11.796264 39.752499 43
8.0189066 12.168442 39.752499 43
9.4333315 11.585573 39.752502 43
9.7977495 11.612726 39.752502 43
7.6644893 11.794429 39.752499 43
8.9578276 11.34149 39.752499 43
8.5042181 11.399799 39.752499 43
6.2606997 11.850529 39.752499 43
6.4891567 12.104268 39.752499 43
5.3395109 11.767617 39.752499 43
3.777916 11.61239 39.752262 43
2.5436916 11.415805 39.749947 54
8.5597792 14.083958 39.745079 43
6.8406587 17.768303 45.89463 43
6.6978416 17.752359 45.920757 43
6.7161927 17.915985 45.647736 43
6.8031139 18.052502 45.420181 43
7.8353472 17.863722 45.73875 43
5.1933293 18.130772 45.2841 54
8.2785912 17.904268 45.672585 43
-14.334287 -7.099412 -16.662756 27
-14.33225 -7.0862617 -16.976561 27
-14.342943 -7.7211466 -17.887203 27
61.570534 18.035124 11.053335 50
-20.985584 17.458414 11.510431 52
-20.719366 17.701744 11.617889 52
-21.073999 17.367836 11.260144 52
-21.017456 17.429281 11.036108 52
-20.988998 17.455292 10.186883 31
53.297043 33.482059 1.5523742 13
53.152729 32.789009 2.6705687 11
52.920258 33.81004 2.3499367 13
52.868942 33.853954 2.1221347 13
52.955463 32.983856 2.6518586 13
53.085625 32.854504 2.3441067 13
0.26497746 17.706524 -36.25172 26
0.89980745 17.764046 -36.154232 26
-6.9069557 18.705257 -34.6152 26
-7.1882758 18.645971 -34.714527 26
-6.6457005 18.97644 -34.164028 26
-7.243331 18.954514 -34.202286 26
-6.3371568 19.085058 -33.982689 26
-7.1579218 19.196476 -33.800186 26
-6.1418262 19.120483 -33.923256 26
-7.3487186 19.194233 -33.804497 26
-31.646317 -4.8083768 18.594614 17
-31.537554 -4.7716966 18.728418 17
-31.171835 -4.6483622 18.788036 17
53.673523 33.049385 -0.46217036 13
53.962727 32.902317 -0.57072353 13
53.28759 33.405762 0.10885787 13
53.892574 32.051918 0.1765399 13
53.850616 32.999733 -0.27608991 13
54.398064 32.524033 -1.1054451 13
53.985153 31.960497 0.19227791 13
53.714424 32.229622 0.86335588 13
52.975872 33.759838 0.91221619 13
53.928329 32.017258 0.44439578 13
54.023182 32.849785 -0.22406697 13
54.296406 32.612366 -0.74102449 13
54.499783 32.435642 -0.93892312 13
53.818726 33.027447 0.14816928 13
-7.4233894 29.85577 18.292295 29
-7.6373334 29.660255 18.618595 29
-7.1893988 30.069605 17.943933 29
-6.9776478 30.263159 17.886581 29
-8.1207876 29.218395 19.028374 29
-6.6494098 30.563124 17.417362 29
-6.3143134 30.86936 16.93696 29
55.255421 -38.142467 -28.367043 6
54.984657 -38.345295 -27.97419 6
54.812626 -38.474239 -28.019394 6
10.9887 -41.476372 -34.945274 4
10.9887 -40.911057 -34.095291 6
10.988699 -41.919884 -35.88863 4
11.041707 -41.9272 -36.252499 4
10.770492 -42.240372 -37.206329 4
10.730883 -42.237965 -36.642391 4
10.9887 -42.489712 -36.715599 4
52.620888 26.7665 12.538984 7
52.431709 26.608189 12.727547 7
52.342911 26.766502 12.95121 7
52.6959 26.348583 12.81859 7
52.630329 26.413017 12.918486 7
52.800545 26.24575 13.496617 7
53.04137 26.009106 13.408593 7
52.838409 26.208544 13.677963 7
52.71489 26.32992 14.166954 7
54.348495 25.25668 13.820349 7
54.381077 25.224102 13.984951 7
52.52565 26.766499 12.951104 7
52.936962 26.668118 13.240387 7
52.847569 26.766502 12.989968 7
53.766186 25.838947 13.812742 7
53.806107 25.799036 13.959206 7
53.954712 25.650436 13.633554 7
54.454468 25.150719 13.402061 7
53.008282 26.596804 12.955888 7
52.984165 26.065319 11.889001 7
52.936012 26.11264 11.616519 7
52.844429 26.202631 11.361684 7
53.35651 26.7665 12.781228 7
-30.924652 -11.707945 35.511299 12
-15.436302 26.766499 8.9589376 31
-31.227985 -20.412251 -22.644669 23
-31.192177 -20.190639 -22.644659 27
-43.116173 -11.393704 35.511299 12
-42.962044 -11.623234 35.511299 12
-44.619293 -11.114519 35.511299 12
-45.613243 -10.7692 35.162308 12
-45.429207 -11.8008 35.964149 12
-45.841167 -10.7692 34.795731 12
-46.745602 -10.570917 35.015526 12
-46.745602 -10.731934 34.872616 12
-45.834446 -10.7692 35.101643 12
19.125885 39.980293 -7.1163001 9
19.125843 39.984802 -7.1163001 9
19.153204 40.170883 -7.1163001 9
-45.623001 -27.591347 1.2241251 46
-45.623001 -27.733139 1.4267228 46
55.434898 -35.335003 36.469849 3
55.434898 -34.820919 36.775185 3
55.434898 -36.189072 36.446922 3
55.434898 -36.406559 36.463493 3
55.434898 -36.45686 36.787243 3
55.434898 -36.346233 36.871078 3
55.434898 -36.890118 36.905132 3
55.276535 -38.119781 36.689682 3
55.265396 -38.128136 36.695187 3
54.773617 -39.50684 36.088562 3
54.773609 -38.82206 36.140213 3
54.773605 -40.444466 36.17532 3
54.773582 -40.730461 36.335079 3
54.773628 -39.422493 35.983856 3
55.308422 -38.095882 36.275909 3
54.773582 -40.717216 36.356091 3
54.773651 -40.472309 35.835159 3
-19.9683 15.963471 19.397514 52
-19.9683 16.157475 19.473856 52
-19.9683 16.023579 20.356028 52
-19.9683 15.864931 20.487175 52
-15.269246 15.229202 -33.539886 26
-25.096258 -11.147502 32.635414 12
-14.293404 -17.451864 39.646389 28
-14.203572 -18.32719 39.658138 28
-46.745602 -10.998446 34.710209 12
-45.66814 -11.459167 35.511299 12
-45.207985 -11.516309 35.511299 12
-44.536304 -11.423271 35.511299 12
-45.295967 -10.7692 34.691887 12
-43.987408 -11.8008 35.783783 12
-43.981152 -11.8008 35.85891 12
-43.571743 -11.8008 35.648998 12
-45.29937 -10.7692 34.499382 12
-43.093311 -11.723228 35.511299 12
-45.708191 -10.7692 33.923588 12
-16.327229 15.224998 40.636169 54
-16.359226 15.225087 40.592209 54
-16.471174 15.225401 40.717438 54
-14.318859 -2.9532568 -1.8455181 8
-14.321313 -3.0157712 -2.2153616 8
-44.274826 -37.887798 10.652567 30
-35.449776 -37.887798 1.24966 51
-34.216072 -37.887798 0.57787442 51
27.105902 -15.374169 -30.898008 19
27.083675 -15.396225 -30.911316 19
27.297068 -15.373539 -30.973734 19
27.458647 -15.373761 -30.835297 19
55.434898 -33.976463 39.668449 3
55.27737 -32.309944 39.752502 5
55.185692 -31.704071 39.752502 5
-28.639156 -10.823606 -25.6094 27
-28.703745 -10.769201 -25.395035 27
-28.003788 -10.7692 -24.781872 27
-27.74963 -10.7692 -24.736917 27
-27.836508 -10.7692 -25.139614 27
-29.51825 -10.7692 -25.310299 27
-45.482899 -41.669552 20.217875 53
-45.036598 -41.693741 19.876362 53
-45.482899 -41.717258 20.790428 53
-45.482899 -41.797649 20.909729 53
-45.036598 -41.961693 21.109589 53
-45.036598 -42.152584 21.202335 53
-45.036602 -42.204262 21.360466 53
-45.036598 -42.179649 21.048492 53
-45.036598 -42.567059 22.236849 53
-45.482899 -41.927361 19.957546 53
-45.482899 -41.940674 19.825151 53
-45.036598 -42.633133 22.719131 53
-45.036598 -42.468109 21.46199 53
-45.482899 -42.950508 23.210682 53
-45.918083 -42.914848 23.3855 53
-46.013748 -43.099377 23.3855 53
-45.036598 -42.316227 20.44791 53
-45.482899 -42.930443 23.427597 53
-45.774872 -42.86113 23.3855 53
20.104275 -15.383961 -31.687588 2
20.621668 -15.388761 -31.679289 2
19.44924 -15.389834 -31.568825 2
21.437084 -15.389664 -31.586384 2
21.639942 -15.381525 -31.591465 2
19.445679 -11.453376 -31.92906 48
18.860016 -10.739742 -31.879295 48
61.122398 16.225256 10.31161 22
61.122402 16.160797 8.9487963 50
59.815895 19.789644 30.433027 10
59.976173 19.629379 30.191814 10
20.736578 35.764839 -11.2872 9
54.78215 -42.150475 -25.37921 6
54.782158 -42.296532 -25.436796 6
54.78212 -42.281303 -25.134958 6
54.782166 -41.600487 -25.480984 6
54.782177 -41.102734 -25.530344 6
54.782093 -43.512756 -24.939373 6
54.78207 -42.104408 -24.785965 6
54.782063 -41.31987 -24.713455 6
54.782101 -41.045769 -24.989273 6
54.782192 -42.344425 -25.658384 6
54.782215 -40.77636 -25.811571 6
54.782227 -40.819485 -25.902536 6
54.782162 -40.523144 -25.441666 6
54.782074 -44.638096 -24.816429 6
54.782131 -44.639004 -25.20822 6
54.782223 -41.945477 -25.895264 6
54.782246 -40.283478 -26.029869 6
54.782219 -40.219162 -25.868679 6
54.782288 -40.300171 -26.330503 6
54.782085 -45.249817 -24.890385 6
54.782047 -45.231087 -24.621191 6
54.782089 -45.940041 -24.892776 6
54.782139 -44.215366 -25.265272 6
54.782139 -44.135662 -25.2771 6
54.782276 -39.153225 -26.255388 6
54.782078 -46.069557 -24.880468 6
54.78204 -46.373737 -24.593117 6
54.782051 -43.864079 -24.629528 6
54.782269 -38.885517 -26.198717 6
55.252403 -38.144257 -26.518757 6
55.443214 -37.849812 -26.308071 6
55.443256 -37.722618 -26.736441 6
55.44323 -37.675705 -26.763769 6
54.782024 -46.98753 -24.470257 6
55.443501 -37.90976 -26.993105 6
55.443546 -37.975784 -26.977539 6
55.270741 -38.130703 -27.272552 6
55.442677 -36.852585 -27.116581 6
-9.5776653 33.844975 2.3563027 15
55.437855 14.126678 -26.297653 41
55.437908 14.02546 -26.816477 41
55.437897 13.928249 -26.780754 41
-44.113201 -31.002258 1.061582 47
-44.113201 -31.408201 1.1510926 47
-45.083519 -31.289225 0.081799999 47
-45.623001 -30.897268 -0.06093964 47
55.11462 -4.6921277 39.75259 42
55.22789 -6.2181349 39.752579 42
55.434895 -6.3004217 39.640575 42
55.327595 -6.9585371 39.752571 42
55.428177 -7.0186653 39.752571 42
55.381233 -5.9192719 39.752579 42
34.150917 18.242201 -35.318146 36
33.034798 18.299995 -35.222355 36
33.217384 18.328079 -35.175728 36
34.24337 18.461006 -34.954998 36
33.071587 18.767845 -34.445904 36
-12.4073 25.299616 -9.7420998 40
-12.444101 25.265974 -10.390974 40
55.47493 24.130318 18.460478 10
55.865875 23.739401 19.357298 10
55.886467 23.718811 19.266048 10
55.966454 23.638826 19.036905 10
23.475206 15.228961 -33.440308 36
23.51001 15.227655 -32.972549 36
23.00473 15.228851 -33.401382 36
22.786842 15.229126 -33.499397 36
22.421104 15.227966 -33.083549 36
22.453289 15.227646 -32.968746 36
22.482901 15.226526 -32.567932 36
23.522017 15.232782 -34.809937 36
22.120747 15.227723 -32.996605 36
22.017912 15.2276 -32.952694 36
22.761093 15.23284 -34.830509 36
22.761707 15.22785 -33.042198 36
23.169811 15.226803 -32.667114 36
21.669537 15.229366 -33.585476 36
24.434042 15.233167 -34.947872 36
22.468204 15.232133 -34.577065 36
23.718098 15.230377 -33.947628 36
25.459642 15.230188 -33.880169 36
25.015743 15.229324 -33.57053 36
25.605688 15.230251 -33.902443 36
24.243975 15.231285 -34.2733 36
24.247454 15.228416 -33.244831 36
24.99567 15.232694 -34.778416 36
25.025414 15.233023 -34.896172 36
26.459736 15.230738 -34.077106 36
26.384993 15.231426 -34.323902 36
26.452066 15.231807 -34.460167 36
25.971182 15.231624 -34.394905 36
26.129793 15.231823 -34.46587 36
8.1552916 -43.743713 -29.378624 6
8.478673 -43.935806 -29.378189 6
8.9073715 -43.916779 -29.377609 6
7.8512983 -43.496941 -29.379032 6
8.6634989 -43.184349 -29.377941 6
8.523941 -43.052784 -29.378128 6
8.2761097 -42.714378 -29.37846 6
8.4399099 -42.67411 -29.378241 6
-4.6819878 34.560719 2.6587057 15
54.78223 -44.422749 -25.926857 6
54.782185 -44.915257 -25.588144 6
54.782303 -42.83783 -26.45343 6
54.782349 -42.992527 -26.791208 6
54.782219 -45.784969 -25.839785 6
54.78233 -42.48415 -26.641573 6
54.782238 -43.069443 -25.986826 6
54.782291 -43.517742 -26.36248 6
54.782299 -43.769066 -26.443186 6
54.782372 -43.34911 -26.946915 6
54.782345 -43.564777 -26.756107 6
54.78236 -44.005005 -26.859301 6
54.782261 -45.655006 -26.143959 6
54.782265 -45.477112 -26.185717 6
54.782394 -44.477768 -27.106726 6
54.782318 -45.022205 -26.56139 6
54.782307 -45.667625 -26.490198 6
54.782406 -43.938591 -27.183989 6
54.782345 -45.226971 -26.75812 6
54.782455 -43.105396 -27.55027 6
-45.686935 -39.777828 12.428744 30
-45.748005 -39.745453 12.173495 30
-45.753956 -39.742298 13.075347 30
-45.53421 -39.672096 13.636192 53
-46.619858 -39.6721 11.329659 30
-45.463005 -39.672104 12.024393 30
-46.122253 -39.6721 12.107198 30
-45.623505 -39.6721 11.634741 30
-46.497246 -39.6721 12.02322 30
-46.64048 -39.6721 12.038803 30
-45.844498 -39.694298 13.104614 30
-45.560371 -39.6721 13.240005 53
-45.482658 -39.6721 13.399254 53
-45.036598 -39.824577 14.372299 53
-45.482899 -40.173016 14.632154 53
-46.446686 -39.672104 11.355214 30
-46.378654 -39.6721 11.677686 30
-45.927517 -39.650284 11.306924 30
-45.036598 -39.794224 10.867378 30
-45.367462 -39.6721 12.706112 30
-46.154655 -39.6721 13.705866 53
-45.036598 -39.739162 11.682528 30
-46.878365 -39.6721 11.031027 30
-46.293976 -39.6721 13.56127 53
-46.156925 -39.6721 15.028738 53
-46.294388 -39.6721 15.258386 53
-45.273998 -39.6721 11.300311 30
-47.153625 -39.672104 9.5443754 30
-45.97488 -39.625172 14.58042 53
-45.871708 -39.679874 14.665708 53
-45.914516 -39.657173 15.894355 53
-45.92757 -39.650253 15.940433 53
-45.036598 -39.943726 14.941874 53
-46.757175 -39.6721 14.509052 53
-45.088169 -39.6721 14.718566 53
-45.08181 -39.6721 15.482934 53
-45.056255 -39.6721 16.002779 53
-45.036598 -39.927414 17.337814 53
-45.036598 -39.831024 16.600521 53
-46.81662 -39.6721 14.497372 53
-46.61454 -39.672096 14.366327 53
-46.573868 -39.6721 13.826535 53
-45.65086 -39.6721 17.081905 53
-45.611816 -39.672104 17.158194 53
-45.036598 -39.928764 17.832233 53
-45.482899 -39.916222 17.956989 53
-45.607277 -39.820061 17.961632 53
-46.884026 -39.6721 14.755079 53
-45.995201 -39.343185 13.974692 53
-45.388191 -39.672096 18.387579 53
-45.036598 -40.103241 18.444775 53
-46.477745 -39.6721 13.130739 30
-46.599712 -39.672104 13.257671 53
-45.995201 -39.078274 12.696733 30
-45.429985 -39.6721 18.119291 53
-45.995201 -39.087902 13.812255 53
-45.995201 -39.290455 14.074801 53
-46.005554 -39.6721 17.190907 53
-45.964466 -39.6721 17.115883 53
-45.995201 -39.437809 16.557159 53
-45.347908 -39.6721 16.792522 53
-45.995201 -39.392506 16.148155 53
-45.625626 -39.6721 17.592325 53
-7.1505756 29.197876 26.077515 29
-7.0506687 29.212818 26.136946 29
-6.8971596 29.520323 25.450665 29
55.434898 13.926185 -3.0237823 21
55.434898 13.980617 -3.7414935 21
55.434898 13.639776 -3.2931788 21
13.209562 -13.749928 -31.38538 35
13.329391 -13.953163 -31.49712 35
13.621159 -13.741438 -31.347202 35
13.66039 -13.752859 -31.446697 35
13.718679 -13.70903 -31.456654 35
13.707284 -13.675274 -31.544888 35
14.161965 -13.347179 -31.189085 35
14.325798 -13.226889 -31.197416 35
13.907606 -13.531979 -31.305246 35
14.265394 -13.309732 -31.169159 35
26.435446 15.228893 -33.416046 36
26.310089 15.227832 -33.035648 36
25.356781 15.227794 -33.021801 36
25.245556 15.227463 -32.903427 36
26.662859 15.228559 -33.29604 36
26.692726 15.228922 -33.426174 36
24.099548 15.225264 -32.115196 36
-44.282074 -37.887798 26.440977 33
-44.289993 -37.887798 26.082748 33
-44.527012 -37.887798 26.150856 33
-44.420277 -37.887798 27.185377 33
-44.286552 -37.887798 25.680286 33
-44.22641 -37.887798 27.299849 33
-44.675549 -37.887798 25.529551 33
-44.538406 -37.887798 25.473633 33
-44.88089 -37.887798 27.311005 33
-44.709362 -37.887798 27.502266 33
-44.116684 -37.887794 25.194595 33
-45.358303 -37.887794 25.506378 33
-45.577705 -37.887798 25.562647 33
-44.824913 -37.887798 24.690987 33
-46.055588 -38.291313 26.025166 33
-46.165134 -38.238907 25.945639 33
-45.995201 -38.383751 27.223164 33
-46.093346 -37.934753 26.946383 33
-44.963791 -37.887798 28.087898 33
-45.297337 -37.887798 28.000357 33
-45.722126 -37.887798 27.907999 33
-45.403175 -37.887798 28.412457 33
-45.484383 -37.887798 24.875317 33
-45.996895 -37.888611 25.984455 33
-46.049362 -38.294292 25.168549 33
-46.107811 -38.266335 25.575266 33
-46.138336 -37.956276 25.834322 33
-45.444653 -37.887798 24.151947 33
-46.076736 -38.281197 27.419495 33
-46.06073 -37.919147 27.993238 33
-46.016727 -38.309906 28.085693 33
-45.995201 -38.589558 28.06181 33
-46.184799 -38.074219 26.546736 33
-45.995201 -38.395775 24.594458 33
-45.995201 -38.57621 24.272448 33
-45.995201 -39.171547 26.937885 33
-45.995201 -39.317719 26.933441 33
-45.847633 -39.692635 26.48612 33
-45.738243 -39.750626 25.601078 33
-46.100021 -38.270058 24.481218 33
-45.932541 -39.647617 27.241985 33
-45.482899 -39.913651 27.47695 33
-45.995201 -38.810829 28.322996 33
-46.073856 -37.925426 28.840399 33
-45.523769 -39.86433 28.091679 33
-45.995201 -38.663342 24.722868 33
-46.164417 -38.23925 23.638126 33
-45.995201 -38.947784 25.551754 33
-45.995201 -39.483517 25.093029 33
-46.114044 -37.944649 23.479145 33
-45.995197 -39.498684 25.41642 33
-46.024185 -38.306335 23.538155 33
-46.5854 -37.503159 23.179558 33
-45.482899 -40.489403 26.302454 33
-45.482899 -40.775932 25.457874 33
-45.482899 -40.370838 24.562862 33
-45.880424 -39.675251 24.580732 33
-45.482899 -40.52092 27.004169 33
-45.988449 -40.384266 23.385502 53
-45.482903 -40.041862 24.411808 33
-16.584875 27.727047 9.9775677 31
-16.184553 28.117765 8.6489058 31
-16.158356 28.144249 8.4055681 31
-28.391916 -12.604321 -22.64374 27
-27.85861 -12.173246 -22.643559 27
31.056299 -46.932446 -37.642014 4
31.056299 -46.674351 -37.059589 4
31.056297 -46.414185 -36.287113 4
31.056297 -46.44986 -36.059605 4
31.056299 -46.412231 -35.718029 4
31.056301 -46.185898 -35.494667 4
31.056301 -46.580345 -35.604523 4
31.056299 -45.946972 -34.133034 6
31.056301 -45.932671 -33.647018 6
31.056299 -45.75742 -33.481171 6
31.056297 -46.750278 -33.905823 6
31.056301 -46.802021 -33.018024 6
31.056299 -46.178207 -33.4128 6
53.791893 16.839212 46.566299 42
53.313354 16.886608 46.566299 42
-30.365107 -20.999611 32.633194 25
-30.41906 -20.62114 32.633175 25
-30.061115 -20.183949 32.633327 25
-30.745415 -22.298277 32.63303 25
-29.863281 -19.51413 32.633415 12
-30.864859 -22.431501 32.63298 25
-30.735863 -23.046408 32.63303 25
-29.87977 -18.651611 32.633408 12
-30.919811 -20.917553 32.632961 25
-29.773951 -18.795717 32.633453 12
-30.612011 -19.479109 32.633095 12
-29.5121 -19.748158 32.63356 25
-48.642372 -32.336243 22.765339 33
-48.644081 -32.337353 23.133652 33
-48.894279 -32.500046 23.28027 33
-48.820477 -32.28352 23.510799 33
56.58461 15.224485 41.358391 42
57.092232 15.227106 42.243538 42
-32.103241 -11.910969 -10.584908 24
-33.284412 -10.7692 -10.385099 24
-33.296856 -10.7692 -10.373341 24
-33.293621 -10.7692 -10.232402 24
-33.622501 -10.769817 -9.8243599 24
-33.622501 -10.773416 -8.959733 24
-34.522591 -9.9716358 -10.655462 24
-33.622505 -10.821373 -9.5549669 24
-33.622501 -10.961859 -9.0380402 24
-33.436901 -10.7692 -10.487522 24
-33.622501 -11.010344 -9.5820084 24
-33.622498 -11.161566 -9.5763512 24
-33.374432 -10.7692 -7.8486466 24
-33.622501 -10.870246 -6.9875579 24
-4.5675297 31.654789 21.955658 29
-3.7668753 32.24921 21.13476 29
-3.7756939 32.270958 21.066479 29
30.474207 -39.995602 -34.547188 6
-14.29522 -6.6503239 32.279064 28
-14.296182 -6.3735838 32.098812 28
-14.291386 -6.9653959 31.999119 28
-14.291449 -7.1983356 32.304829 28
-14.295866 -6.6413908 32.981457 28
-14.294724 -7.1275434 32.795135 28
-14.295602 -6.7474179 33.698441 28
-14.29483 -7.1833725 32.884808 28
-14.295481 -7.2308807 34.03434 28
-14.289912 -7.0635729 31.862301 28
-14.295301 -7.6811457 34.52433 28
-14.295177 -7.0124702 34.854729 28
-14.289489 -7.6601624 32.542519 28
-14.274984 -8.5873976 31.148182 28
-14.295254 -7.8296394 34.652367 28
-14.295276 -8.2970181 34.59634 28
-14.295077 -6.9622512 35.125103 28
-14.279266 -8.5420876 31.849106 28
-14.279334 -8.6562662 32.005569 28
-14.281282 -8.6987534 32.404232 28
-14.272037 -9.2013912 31.403643 28
-14.283392 -8.6224413 32.680996 28
-14.271292 -9.4290104 31.559746 28
-14.280842 -9.1812267 32.937172 28
21.676037 38.621853 -11.287201 9
21.596779 38.811432 -11.2872 9
-13.967551 31.138103 -3.4180999 49
-13.751699 31.144299 -3.5005503 49
-14.18145 30.886705 -3.9461341 49
-13.488153 31.157562 -3.4733305 49
22.746 48.106201 -8.961339 9
22.743746 48.106201 -8.9740534 9
11.314186 -39.995602 -34.853752 6
11.386446 -39.995602 -34.472141 6
10.9887 -40.34642 -35.921486 4
10.767735 -40.295124 -36.003624 4
-16.486526 29.246628 12.26764 31
57.014709 22.590229 8.1951008 22
57.018509 22.586433 8.1145029 22
-44.539394 -14.048605 1.8141 24
-45.622997 -13.127358 1.4567889 24
-45.623001 -13.024672 1.2662314 24
-45.073074 -14.396513 1.8141 46
-44.76609 -15.226389 1.8140999 46
-44.620148 -14.860553 1.8141 46
-44.175823 -16.166624 1.8141 46
-44.722881 -13.540159 1.8141 24
-45.07235 -13.025497 1.8141 24
-45.623001 -12.86798 1.5210091 24
-14.306185 14.651907 4.414063 40
-14.305873 14.66666 5.2834144 40
-14.305748 14.316009 5.6263928 40
-14.305696 14.191672 5.7666111 8
52.167755 -33.448559 -29.976856 6
52.342754 -33.497402 -29.976812 6
52.221596 -33.841389 -29.976875 6
52.135433 -33.996307 -29.976912 6
51.900036 -32.876736 -29.976889 6
52.126633 -32.353085 -29.976784 6
52.431107 -34.207973 -29.976845 6
52.575104 -32.757111 -29.976692 6
20.335976 41.70723 -7.1163001 9
-15.230672 29.070179 4.6004529 49
-15.296682 29.004606 4.7449312 49
-15.186428 29.109982 6.1859598 49
-14.424147 -20.446642 -23.629438 23
-14.422707 -20.052134 -23.687737 23
-14.462433 -18.708633 -23.472034 27
-51.63752 -33.907196 23.495552 33
-51.087936 -33.758514 23.510799 33
-51.069851 -33.696766 23.510799 33
-51.171482 -33.604145 23.246395 33
-51.22419 -33.638416 23.02132 33
-50.952782 -33.838623 23.44248 33
-51.025921 -33.509491 23.348085 33
-51.177647 -33.971378 22.763599 33
-50.967026 -33.758396 22.763599 33
-50.92778 -33.781231 22.763599 33
-51.776932 -33.997852 23.058308 33
-49.930065 -33.17358 23.438896 33
-50.115322 -32.917351 23.039661 33
-50.034836 -32.865013 23.459873 33
-49.82642 -33.106186 23.506773 33
-49.781548 -33.077011 23.507124 33
-49.703182 -32.649349 23.294319 33
-51.89056 -34.071739 23.427834 33
-49.415627 -32.675667 23.510799 33
-49.552299 -32.551231 23.359236 33
-35.242538 -37.887798 24.632309 37
-35.497993 -37.887798 24.518751 37
-35.562683 -37.887798 24.496748 37
-35.367092 -37.887798 25.082796 37
-35.262024 -37.887798 25.273375 37
-35.569748 -37.887798 25.51853 37
-35.483559 -37.887798 25.862303 37
54.217575 26.766502 8.0728893 22
-32.104465 -13.668232 28.651217 12
-32.104465 -13.577984 28.611574 12
46.796898 31.251511 23.277973 7
46.979462 31.017828 23.713036 7
47.297348 30.70788 24.214354 10
46.102684 31.805599 22.472866 7
47.182388 30.522404 24.615685 10
46.885696 30.891207 23.999819 7
46.968018 30.63678 24.424686 10
47.441322 30.352764 24.89897 10
47.628178 30.067574 25.37521 10
45.302349 32.522003 21.276537 7
46.873531 30.390564 24.835844 10
48.514595 29.529659 26.111155 10
45.05262 32.857243 20.716717 7
44.790405 33.152119 20.224308 7
47.251564 30.042576 25.416952 10
45.939705 30.953659 23.895531 7
48.720795 29.404179 26.236591 10
48.830284 29.257969 26.51354 10
45.176529 32.896484 20.550659 7
44.241669 33.256218 20.050468 7
44.209518 33.438251 19.746489 7
44.29108 33.613998 19.453003 7
44.543156 32.86272 20.707567 7
45.705315 30.845556 24.07605 7
45.635307 31.000317 23.817614 7
45.452156 31.551628 22.896973 7
49.059948 29.201431 26.433296 10
49.464893 28.787586 27.12215 10
44.613178 32.822525 20.774696 7
44.712589 32.642822 21.074776 7
43.82555 34.047855 18.728504 7
49.210621 29.104855 26.537867 10
48.592846 29.704737 25.57015 10
48.386173 29.964489 25.090298 10
50.036758 28.186508 28.138937 10
43.936394 32.893024 20.656963 7
49.089268 29.406563 25.861799 10
48.559689 29.960825 24.926447 10
47.613594 30.745949 23.797461 7
50.321102 27.945187 28.492405 10
50.473511 27.74316 28.873966 10
43.91732 32.850498 20.727982 7
43.911278 32.840652 20.744419 7
48.757828 29.95256 24.750151 10
49.97998 28.541855 27.256523 10
48.279594 30.395678 24.05722 10
48.074715 30.659668 23.564367 7
49.619041 29.201006 25.875292 10
47.725414 30.851009 23.407949 7
48.623707 30.344128 23.849148 10
47.313377 31.361938 22.469601 7
47.256313 31.428493 22.350754 7
48.952324 30.051392 24.294203 10
49.271881 29.680668 24.954601 10
46.610165 32.087444 21.255283 7
45.926163 32.611382 20.554525 7
45.866394 32.620026 20.591454 7
46.060883 32.367996 21.063086 7
46.06813 32.32856 21.160065 7
45.76128 32.943058 19.84276 7
46.643715 31.648598 22.381645 7
45.276299 33.402256 19.114082 7
44.490761 34.185631 17.829082 7
-42.523697 -45.611721 -0.31571105 51
-13.731125 30.56381 -0.30142236 49
54.160458 25.445475 -9.9792213 44
54.350655 25.255327 -10.204795 44
54.141857 25.464146 -10.479118 44
54.059425 25.546583 -10.547215 44
53.907494 25.698544 -10.855534 44
54.248756 25.357256 -10.512479 44
54.351013 25.254898 -9.7540083 44
54.186569 25.419273 -9.3945246 44
53.737625 25.868406 -10.960348 44
-18.269102 -6.8595066 17.190941 18
-13.878622 26.766499 15.31558 29
-16.796049 -9.2202682 33.897713 28
-16.868462 -9.1857386 33.788849 28
-16.818079 -9.3019371 34.155193 28
-17.029402 -9.0491238 33.123451 28
-16.566826 -9.5317268 34.879654 28
-16.505842 -9.6565561 35.273209 28
-17.092316 -9.0587206 33.312481 28
-16.839632 -8.9558792 32.021946 28
-16.57209 -9.4872637 34.739475 28
-16.791639 -9.5249777 34.858383 28
4.8201704 13.079466 -29.983248 26
4.5902462 13.233011 -29.985962 26
5.0750828 12.843496 -29.97938 26
5.8114834 12.942966 -29.978409 26
5.9911308 12.933134 -29.978001 26
3.4540527 13.358191 -29.9911 26
3.2777045 13.281423 -29.990639 26
6.1491098 13.075146 -29.979094 26
3.1349876 13.31353 -29.991501 26
2.7312152 13.072368 -29.989594 26
7.5976353 13.495823 -29.980122 26
3.2683585 13.644226 -29.995409 26
2.7084956 13.008438 -29.988831 26
2.1288779 12.826469 -29.988239 26
8.0746031 13.563403 -29.979534 26
9.2462358 13.485701 -29.978001 26
2.9115713 13.777365 -29.998247 26
2.9772768 13.995992 -30.0009 26
1.7295022 13.721214 -30.001156 26
1.4710572 12.868738 -29.990818 26
1.8380172 12.78882 -29.988644 26
9.7788019 13.394169 -29.978001 26
10.67822 13.44065 -29.978001 26
3.4693437 14.166111 -30.001606 26
4.036376 14.107929 -29.999098 26
1.530246 12.446712 -29.985125 26
4.9916196 13.895013 -29.99337 26
4.9941525 13.664654 -29.990355 26
-0.022910833 12.196932 -29.986649 26
-0.16247129 12.310172 -29.98856 26
-0.24673557 12.27031 -29.9883 26
0.2611475 11.995066 -29.983139 26
-0.70944381 12.628761 -29.994408 26
-1.3279994 12.410804 -29.993465 26
-0.76811647 12.722857 -29.995819 26
0.97925735 11.904587 -29.979742 26
-0.34093142 12.849442 -29.996155 26
-0.20309114 12.731076 -29.994183 26
0.77040982 11.699419 -29.978001 26
1.7391011 11.891237 -29.978001 26
1.9032964 11.910304 -29.978001 26
2.0844202 11.49702 -29.978001 26
1.95153 12.302911 -29.981947 26
3.151495 11.334381 -29.978001 26
2.0170143 11.207412 -29.978001 26
-32.570507 -10.7692 -10.782993 24
-32.103268 -11.106141 -9.7667313 24
-32.440514 -10.769201 -9.8165369 24
-32.103279 -10.919062 -9.2891054 24
-32.355278 -10.7692 -10.575815 24
-32.103241 -10.919788 -10.656432 24
-32.103325 -11.013332 -7.6075387 24
-32.408897 -10.769199 -12.206468 27
-32.290073 -10.7692 -10.6862 24
-32.103191 -10.869926 -12.341733 27
-32.268509 -10.7692 -8.8568344 24
-32.362499 -10.7692 -8.8555794 24
-32.326363 -10.7692 -13.239478 27
-32.103302 -10.930064 -8.356287 24
-32.103146 -10.841812 -14.027929 27
-32.103119 -10.955532 -14.873066 27
-32.271164 -10.7692 -13.961246 27
-32.397633 -10.7692 -15.064924 27
-32.114822 -10.7692 -13.508592 27
-32.286297 -10.769199 -14.677637 27
-32.278961 -10.7692 -16.103487 27
-32.433594 -10.7692 -16.18589 27
-32.103043 -10.914605 -17.700399 27
-32.103096 -10.974744 -15.857375 27
-32.760811 -10.769201 -15.412506 27
-32.504238 -10.7692 -17.070696 27
-32.473984 -10.769201 -18.201031 27
54.147041 4.1304111 39.752602 42
55.434898 -16.140205 38.407742 42
55.434898 -16.470039 38.255848 3
55.434898 -16.459648 38.142132 3
55.434898 -15.702663 38.38969 42
55.434898 -15.409249 38.428139 42
55.434898 -14.908505 38.538322 42
55.434898 -14.48135 38.390934 42
55.434898 -16.729134 38.502022 3
55.434898 -13.81811 38.374004 42
55.434898 -13.028766 38.56448 42
55.434898 -17.019951 38.379486 3
55.434895 -16.319014 38.716129 42
55.434898 -17.797937 38.50956 3
55.434895 -15.396623 38.888645 42
55.434898 -14.92366 38.823872 42
55.434898 -14.004403 38.925064 42
58.153503 23.765554 9.5231876 22
58.1535 23.775608 9.2569008 22
57.7939 24.146011 10.078161 22
57.7939 24.163561 11.363803 22
55.324654 -23.370285 39.752502 5
55.153988 -23.431416 39.752499 5
-14.294284 10.100636 37.407028 54
-14.294304 10.522811 37.359829 54
-14.294252 10.565524 37.502106 54
-14.294424 10.058999 37.022274 54
-14.294195 10.79146 37.665024 54
-14.29425 11.118707 37.519161 54
-17.546455 27.195169 1.4660809 31
-16.52397 27.801584 0.88164425 49
-16.515774 27.80682 2.0414591 49
-32.104389 -10.922239 26.145536 12
-32.365776 -10.7692 26.901209 12
-32.129997 -10.769199 27.79229 12
-32.414093 -10.7692 26.932354 12
-17.547441 -9.2823849 -23.754196 27
-14.295672 -27.374798 33.293339 28
-14.295742 -27.211624 33.096836 28
-14.29565 -28.081669 33.357777 28
-14.295692 -26.478832 33.239346 28
-14.295692 -26.290039 33.23893 28
-14.295652 -29.552176 33.351929 28
-14.295649 -30.435936 33.361263 28
-45.995201 -39.213554 16.693691 53
-45.995201 -39.221672 17.014416 53
-45.95224 -39.637177 17.954384 53
-45.995201 -39.510502 17.292873 53
55.434898 9.841404 36.208214 42
55.434898 9.3423815 35.922943 42
55.434898 8.3899851 36.121445 42
55.434898 8.3596258 36.280704 42
55.434898 8.3430367 36.478409 42
55.434898 8.1308784 35.927689 42
55.434898 7.6644516 36.296295 42
55.434898 7.4646864 35.858322 42
55.434898 7.3447018 35.807823 42
55.434898 8.7827864 35.497269 42
-14.295363 -33.690769 34.157455 28
-45.024261 -45.339684 31.935497 33
-46.745602 -10.953666 32.903912 12
-46.745602 -10.927547 32.877304 12
-32.102966 -31.199654 -20.323282 23
-32.102966 -31.267813 -20.387188 23
-32.102959 -30.808971 -20.475021 23
-32.102962 -32.26049 -20.44206 23
-32.102966 -30.045383 -20.409252 23
-32.102959 -29.358456 -20.6768 23
-32.102962 -33.853218 -20.50938 23
-32.102966 -29.995842 -20.22184 23
-32.102966 -29.963879 -20.198153 23
-32.102955 -29.070786 -20.683681 23
-32.102951 -28.319195 -20.825497 23
-32.102959 -34.504177 -20.639406 23
-32.102974 -30.985626 -19.991152 23
-32.102974 -31.109577 -20.004086 23
-32.102955 -28.256527 -20.665379 23
-32.102951 -27.832359 -20.81324 23
-32.102951 -27.817497 -20.841345 23
-32.102951 -35.163448 -20.887341 23
-32.102943 -35.640347 -21.070271 23
-32.102959 -26.642473 -20.61981 23
-32.102943 -26.696301 -21.064451 23
-32.102943 -26.624941 -21.123632 23
-32.102943 -26.543327 -21.110558 23
-32.102943 -26.354771 -21.173601 23
-32.102947 -35.035885 -21.053122 23
-32.102943 -35.991753 -21.165178 23
-32.102943 -26.70546 -21.208319 23
-32.102936 -26.672266 -21.367489 23
-32.102936 -26.037157 -21.382591 23
32.749561 15.233244 -34.974987 36
33.004208 15.233339 -35.008999 36
33.61985 15.233975 -35.237637 36
32.329128 15.230902 -34.135529 36
33.482872 15.234191 -35.314613 36
32.099808 15.231012 -34.17485 36
30.95966 15.231174 -34.233215 36
30.841005 15.232836 -34.828884 36
33.945431 15.321626 -35.676399 36
34.17308 15.234795 -35.530991 36
32.149525 15.231958 -34.513794 36
31.428965 15.232855 -34.835697 36
30.97802 15.231207 -34.245079 36
30.444172 15.230204 -33.885357 36
29.564266 15.231501 -34.350342 36
29.498968 15.231398 -34.313293 36
34.501789 15.3467 -35.676399 36
34.699646 15.235056 -35.625183 36
32.922462 15.232445 -34.688301 36
33.600353 15.231447 -34.330593 36
31.50708 15.231995 -34.526989 36
30.321999 15.228758 -33.367233 36
30.093357 15.22895 -33.436035 36
31.240683 15.228651 -33.328926 36
29.325281 15.229788 -33.736572 36
31.706167 15.228816 -33.387856 36
29.230148 15.232139 -34.578972 36
29.064634 15.230859 -34.120407 36
28.732527 15.232752 -34.798599 36
34.437763 15.232209 -34.603584 36
35.065498 15.23203 -34.5396 36
35.06691 15.232238 -34.614506 36
28.717806 15.228002 -33.096375 36
31.220434 15.228908 -33.420853 36
31.193665 15.229043 -33.469303 36
32.457565 15.229271 -33.550743 36
28.458704 15.227823 -33.032509 36
28.22035 15.228268 -33.19138 36
28.850988 15.233036 -34.900818 36
28.441067 15.232994 -34.885731 36
35.381248 15.231505 -34.351448 36
27.524513 15.226821 -32.673607 36
27.901144 15.228788 -33.378452 36
26.041483 15.225709 -32.274933 36
25.756996 15.22292 -31.275457 36
25.885105 15.222185 -31.012081 36
26.246532 15.220052 -30.247515 36
26.128521 15.221823 -30.882135 36
24.679192 15.222778 -31.224173 36
24.677769 15.222808 -31.234957 36
25.786591 15.219639 -30.09919 36
27.232779 15.219565 -30.072775 36
24.830738 15.219695 -30.119545 36
27.56122 15.220029 -30.239262 36
24.291136 15.222334 -31.065147 36
24.015238 15.222445 -31.105242 36
24.022051 15.223223 -31.383556 36
23.777929 15.22206 -30.966984 36
23.949371 15.100775 -29.978001 36
28.294123 15.141478 -29.977901 36
24.613512 15.001594 -29.978001 36
24.022057 15.219332 -29.989178 36
28.753214 15.221234 -30.671026 36
25.53874 15.222116 -30.986725 36
28.424614 15.221453 -30.749428 36
24.869698 14.943493 -29.978001 36
29.896318 15.221181 -30.651674 36
25.221022 15.222027 -30.955505 36
25.034412 15.044996 -29.978001 36
29.066347 15.220889 -30.547346 36
25.772863 14.853912 -29.978001 36
-12.874178 24.872854 -4.7995119 38
-12.873222 24.873726 -4.9179478 38
-12.586083 25.136192 -5.219172 38
-13.224827 24.552334 -5.3295074 40
-13.24999 24.529335 -5.7006669 40
-11.781072 25.872034 -5.1880641 38
-12.821797 24.920731 -6.3608999 40
-13.118576 24.649454 -5.5036836 40
-12.559625 25.160378 -4.3982854 38
-12.67405 25.055786 -4.2065463 38
-12.263826 25.430759 -4.4216371 38
-11.860505 25.799427 -5.2653599 38
-12.068824 25.609007 -4.4718213 38
-12.083414 25.595673 -3.7277448 38
-11.686327 25.958637 -5.7528386 38
-11.702474 25.9436 -2.3255465 38
-11.289497 26.321371 -6.222343 38
-10.806112 26.76322 -5.2160816 15
-11.674152 26.766502 -3.1849806 38
-11.865517 26.766499 -1.0746846 38
-10.537917 27.008373 -5.4914322 15
-11.189843 26.536816 -4.7985559 38
-11.084101 26.509121 -4.7106552 38
-10.967342 26.755455 -4.5703173 38
-11.267399 26.460608 -4.7550607 38
-11.037369 26.551834 -4.5217528 38
-11.611179 26.122789 -3.455945 38
-11.80826 25.847183 -3.1677501 38
-11.547506 26.08539 -2.3596077 38
-11.397854 26.221846 -1.9419112 38
-11.417398 26.31321 -1.8039038 38
-11.384481 26.345552 -1.5791836 38
-10.571037 26.978096 -5.5389338 15
-10.656366 26.900099 -5.7276216 15
-10.990372 26.7665 -5.5262556 38
-11.259312 26.7665 -5.0954027 38
-11.19901 26.7665 -4.8596611 38
-11.148438 26.577499 -4.2694511 38
-11.077545 26.51511 -4.2992148 38
-10.529955 27.015648 -4.738173 15
-11.10785 26.486917 -1.379186 38
-10.21604 27.302589 -5.4709463 15
-10.788262 26.77903 -0.6449526 38
19.150295 -15.384549 -32.112617 2
-14.297032 12.961996 29.839386 52
-14.297024 13.160524 29.858709 52
-14.29705 13.32042 29.791912 52
-14.296715 13.595185 30.723616 52
-20.532785 17.14382 -35.352726 26
39.448914 15.232777 44.562031 43
47.917221 15.232664 44.522297 42
48.238895 15.232599 44.499077 42
48.035446 15.231342 44.050377 42
47.682922 15.233385 44.779217 42
47.624435 15.233349 44.766617 42
49.283932 15.233568 44.844692 42
48.564377 15.234126 45.043503 42
49.979034 15.230888 43.888947 42
49.176735 15.229995 43.569271 42
50.312489 15.231071 43.953384 42
50.31488 15.230539 43.76366 42
50.386356 15.230079 43.599396 42
48.001343 15.234255 45.090004 42
49.489693 15.233982 44.992279 42
48.790962 15.229992 43.568459 42
51.092293 15.231605 44.143707 42
51.30291 15.230139 43.620258 42
51.339157 15.232154 44.339958 42
47.59787 15.228796 43.14119 42
48.774864 15.231737 44.191383 42
51.943848 15.230691 43.817627 42
51.599377 15.232843 44.586353 42
52.236938 15.23089 43.888817 42
52.243999 15.23012 43.614346 42
51.533264 15.229744 43.479778 42
51.818165 15.229801 43.500168 42
51.868317 15.229888 43.531239 42
52.143166 15.232203 44.357784 42
52.780533 15.233011 44.645767 42
53.223755 15.229034 43.226357 42
53.442665 15.230034 43.58334 42
52.779129 15.233589 44.852325 42
53.56115 15.228912 43.183411 42
53.810287 15.229944 43.55164 42
50.956993 15.229128 43.260536 42
50.892918 15.228394 42.997765 42
51.590076 15.233523 44.828773 42
53.4104 15.228735 43.119957 42
53.236912 15.233019 44.649239 42
54.86409 15.230725 43.830254 42
53.834099 15.233697 44.890781 42
55.105064 15.230957 43.912498 42
54.893162 15.23297 44.631424 42
50.389061 15.228932 43.19014 42
55.299202 15.232388 44.423618 42
55.521893 15.228237 42.942207 42
54.066437 15.232172 44.346046 42
56.268696 15.230883 43.88633 42
56.314209 15.227888 42.817501 42
56.062515 15.226776 42.421078 42
56.687836 15.226622 42.365341 42
55.597355 15.222836 41.014069 42
55.424767 15.222754 40.984901 42
-41.724098 -40.734207 -0.31571978 51
-42.29847 -39.551872 -0.82800001 51
-42.067253 -39.151909 -0.82800001 51
-41.876389 -39.617123 -0.8228693 51
-41.773117 -39.706604 -0.65410024 51
-41.833588 -39.77536 -0.52441305 51
-14.317897 0.311764 -28.362694 27
-14.317982 1.6570978 -28.577549 27
-14.318062 1.8531899 -28.795458 27
-14.318034 3.1178765 -28.697855 27
-14.318081 2.8683009 -28.830177 27
-14.317955 3.9812317 -28.469746 27
-14.317951 4.0932083 -28.456118 27
54.340073 25.265104 16.431482 7
54.527565 25.077621 16.878769 7
54.858818 25.064447 16.6534 7
53.373337 25.737915 16.6534 7
54.55217 25.053019 17.19315 7
54.952709 25.281685 16.6534 7
-13.397215 -38.985039 38.260105 28
-13.38991 -39.132774 38.282032 28
52.26796 -35.077854 39.752537 5
52.20348 -35.272381 39.752537 5
52.647419 -34.942051 39.752529 5
52.401875 -35.689728 39.752537 5
52.485771 -36.220043 39.752529 5
52.39632 -37.636433 39.752506 5
51.980667 -37.596889 39.752506 5
52.244724 -38.031651 39.711647 5
52.020741 -37.984531 39.752499 5
-39.756653 -10.7692 17.5186 20
55.66888 15.219949 -15.734015 21
55.993774 15.220858 -16.060852 21
55.568592 15.219668 -16.704243 21
55.515133 15.219519 -16.769533 21
55.476219 15.219411 -14.445827 21
55.783226 15.220268 -16.64036 21
55.548359 15.219613 -16.501673 21
56.038475 15.220982 -15.693025 21
56.012623 15.220909 -17.209148 21
-13.253025 -11.388302 -30.058538 27
-13.467624 -12.571037 -30.060888 27
-13.41105 -12.936169 -30.060268 27
-13.177369 -12.243972 -30.057709 27
-13.581834 -13.576852 -30.062138 27
-13.83517 -14.673375 -30.064909 27
18.39592 38.914165 -11.2872 9
-45.036598 -41.093029 22.669098 53
-45.482903 -41.063042 22.497337 53
-45.267448 -40.856266 23.3855 53
61.122398 15.681925 -6.3884993 21
61.122398 15.671784 -6.5613503 21
61.122398 15.631714 -8.0841236 21
61.122398 15.359674 -9.1225815 21
61.08189 15.235086 -9.3073835 21
52.721241 18.539984 -34.821766 41
-18.721403 18.043222 44.948212 54
6.7684612 -42.829372 -29.380489 6
6.3540287 -43.2901 -29.381048 6
6.3661814 -43.305264 -29.381031 6
6.73001 -44.07407 -29.380543 6
6.6233177 -44.293205 -29.380688 6
6.7726374 -42.408314 -29.380484 6
6.7641764 -45.126232 -29.380493 6
7.0849905 -45.065323 -29.380064 6
6.7139702 -45.327446 -29.380562 6
-32.104454 -36.063004 27.176695 32
-32.104485 -35.397636 28.474911 32
-15.94699 -7.4584637 18.090889 8
-15.895678 -7.4376745 17.829607 8
-15.830298 -7.5148797 18.353596 8
-15.918054 -7.4266882 17.777842 8
-15.64373 -7.6550574 19.186621 8
-15.480691 -7.6963115 19.243195 8
-16.165943 -7.4590354 18.477461 8
-15.188765 -7.8359895 19.888357 8
-15.452841 -7.6369891 18.704399 8
-15.064594 -8.0166588 21.16481 8
-14.549854 -8.2781811 22.428278 8
-15.370671 -23.376768 -22.639301 23
-15.362801 -22.794445 -22.639301 23
-15.160343 -21.752861 -22.639236 23
-20.886084 17.553049 40.440868 54
-20.87714 17.561262 40.677536 54
54.582981 31.389469 8.1565142 7
-43.138092 -10.7692 25.46089 12
-43.654873 -10.7692 25.711994 45
-43.691422 -10.7692 25.897102 45
-42.100239 -10.7692 26.757206 12
-13.01233 24.746931 18.190075 29
-21.078247 16.816097 41.758049 54
-14.317525 -36.939888 -27.622904 23
-14.31741 -36.88002 -27.300497 23
-14.317451 -36.669838 -27.410686 23
-14.293474 -28.535864 39.4487 28
-14.293429 -29.061226 39.57534 28
-14.228683 -28.58869 39.658741 28
-14.162868 -28.942465 39.659542 28
56.975342 30.297338 14.138361 7
56.808693 30.4692 13.767799 7
56.883839 29.129919 13.696025 7
56.924267 29.08968 13.576251 7
56.954529 30.342514 13.57416 7
57.496071 29.876106 14.660301 7
57.087341 30.22781 13.69716 7
56.793617 30.480911 13.167212 7
57.875271 29.548758 15.077636 7
57.438282 28.584692 14.729696 7
56.924702 29.088558 13.293891 7
56.202267 30.990015 11.893627 7
56.031837 31.137669 11.941226 7
57.545506 28.479374 14.981269 7
57.482643 28.540133 14.432801 7
57.436619 28.585781 14.50705 7
56.034298 31.134985 11.694459 7
55.71637 31.409077 11.177717 7
56.815887 30.460403 12.618601 7
56.151249 29.848343 11.520507 7
55.695576 31.428104 11.638876 7
58.087917 29.364412 14.968067 7
56.094162 29.903042 10.830202 7
56.481415 29.523209 11.95067 7
55.788719 31.344141 10.148547 7
57.009819 30.291595 12.207667 7
57.140804 30.178856 12.504452 7
56.006943 29.988216 10.425702 7
56.169842 31.013866 10.005024 7
56.156792 31.024328 9.6307135 7
56.474182 30.749893 9.7820807 7
56.071815 29.922319 9.6940126 7
55.881016 30.109858 9.2991076 7
56.194988 29.801632 10.099703 7
56.226013 29.77103 10.120119 7
55.417 30.567326 8.9060659 7
56.507736 29.494841 10.991795 7
56.49868 29.504227 11.168324 7
56.482285 29.520437 11.175894 7
56.984337 29.027517 12.431084 7
-33.209324 -10.7692 16.703991 17
-33.116104 -10.7692 16.341402 17
-33.639214 -10.7692 17.66943 20
-33.084389 -10.7692 15.854457 17
-11.220732 -26.161617 39.693909 28
-11.312434 -26.346174 39.692844 28
-10.989566 -25.064493 39.696533 28
-11.150042 -27.363304 39.694843 28
-10.98577 -27.415876 39.696777 28
-10.809774 -27.810251 39.698887 28
-10.475985 -24.970686 39.70256 28
-11.248329 -28.927059 39.693825 28
-11.127567 -28.979675 39.695251 28
-10.958452 -29.005791 39.697243 28
-10.666803 -27.439831 39.700535 28
-10.611713 -24.32596 39.700909 28
-10.340282 -25.912739 39.704239 28
-10.345091 -26.013432 39.704193 28
-10.570444 -23.826996 39.701351 28
-11.123384 -30.340424 39.695419 28
-10.562474 -27.700527 39.701786 28
-10.162556 -27.561399 39.706474 28
-11.277989 -31.261858 39.69368 28
-10.661018 -28.804419 39.700722 28
-11.49467 -32.317459 39.691223 28
-11.595627 -30.936331 39.689915 28
-11.72025 -30.839199 39.688438 28
-11.656857 -30.889544 39.68919 28
-11.80378 -30.072895 39.687393 28
-21.418219 -11.135595 -25.6094 27
-22.302391 -11.434923 -26.117676 27
-21.188643 -10.769201 -24.505917 27
-14.293639 -3.5806658 39.011478 12
-14.293703 -3.8841527 38.839958 12
-14.293631 -4.3792896 39.041218 12
-14.293746 -3.6177437 38.720135 12
-14.293788 -3.3228106 38.607475 12
-14.293849 -1.9199722 38.435314 54
-15.891612 28.399437 11.792175 31
18.072124 45.221149 -11.466118 9
24.413113 -11.315567 -32.83213 19
24.387142 -11.431971 -33.021965 19
25.927696 -11.361193 -32.875153 19
26.587452 -11.475906 -32.854198 19
26.323744 -11.877297 -32.376015 19
27.505747 -12.23773 -32.138138 19
-46.1898 -11.743492 26.616074 45
-46.189804 -11.616027 26.569345 45
58.11224 27.923683 16.697538 7
-45.995201 -41.040581 30.478718 33
-45.995201 -41.02491 30.398281 33
-45.995201 -41.019146 30.745827 33
22.883877 48.059624 -6.8731003 9
-14.312177 13.191513 -12.303374 40
-14.312157 13.046483 -12.252442 40
-14.312024 13.194688 -11.877449 40
-14.311847 13.174418 -11.386909 40
-14.311825 12.841986 -11.340289 40
-14.311852 12.864884 -11.410347 40
17.652451 16.537729 46.422684 43
18.121407 16.517172 46.326416 43
14.304726 19.761612 -32.796894 26
14.151375 19.72403 -32.859268 26
14.579607 19.673595 -32.942978 26
14.611242 19.899464 -32.568096 26
13.366559 19.708027 -32.887295 26
16.140343 19.892509 -32.579639 26
12.437905 19.617048 -33.041256 26
17.020544 19.961483 -32.46516 26
17.329872 20.019253 -32.369278 26
17.838017 19.966228 -32.457287 26
16.58811 20.042423 -32.330826 26
-32.103714 -30.143227 2.464129 16
-32.103706 -30.523056 2.278317 16
-32.103703 -31.195276 2.1359546 16
57.755062 28.22768 -3.1564751 50
11.270645 -38.848728 -32.6828 6
-14.523256 -11.249202 -23.75703 27
-14.757958 -10.7692 -24.903847 27
-14.562624 -9.952939 -26.276917 27
-14.846633 -9.8937931 -26.054384 27
-14.853739 -9.87152 -25.970652 27
-14.317233 -9.3348284 -26.641115 27
-14.317318 -8.9520464 -26.871019 27
-14.317289 -8.8403997 -26.789272 27
-14.317315 -8.2667379 -26.851263 27
-14.317364 -8.082655 -26.983719 27
-14.317186 -8.50951 -26.496496 27
-14.31707 -8.6332369 -26.172752 27
-14.321012 -9.7042589 -25.34222 27
9.7431173 41.414917 3.3961604 15
8.9667387 41.414837 3.4174128 15
11.171479 41.415112 3.6166146 15
8.4551468 41.414886 3.4016464 15
55.434898 -4.2784314 39.367687 42
55.434898 -3.8240576 39.282959 42
13.459099 -13.501505 -32.796219 35
13.487507 -13.475676 -32.817692 35
13.604799 -13.731394 -32.801487 35
14.116598 -13.35844 -32.641342 35
14.137286 -13.343593 -32.61985 35
12.942737 -13.364672 -32.288239 35
12.726473 -13.552368 -32.303036 35
