# .PCD v0.7 - Point Cloud Data file format
VERSION 0.7
FIELDS x y z intensity normal_x normal_y normal_z curvature
SIZE 4 4 4 4 4 4 4 4
TYPE F F F F F F F F
COUNT 1 1 1 1 1 1 1 1
WIDTH 604
HEIGHT 1
VIEWPOINT 0 0 0 1 0 0 0
POINTS 604
DATA ascii
-31.651901 -44.650291 31.346643 -2 -0.9435944 0.20066656 0.26336753 0.053188339
55.278603 9.5217295 -15.175316 -2 -0.98412967 0.14991067 0.094950147 0.013024701
-14.457642 -5.450634 -9.3517218 -2 -0.95113802 0.29186255 -0.10076083 0.0022818483
-14.352582 -5.3017931 -9.2659893 -2 -0.953969 0.28857231 -0.081664272 0.0025528737
-14.442985 -5.5187421 -9.6077642 -2 -0.95584643 0.27966633 -0.090245366 0.0038686893
-14.352408 -5.1474271 -8.9264803 -2 -0.95406646 0.28825977 -0.08163017 0.0025035911
22.947763 -42.982616 -39.468498 -2 -0.052145328 0.14407645 0.98819166 0.0047857743
22.663731 -43.022476 -39.468498 -2 0.0081431326 0.17894572 0.98382527 0.004459396
22.35714 -43.022896 -39.468498 -2 0.038527384 0.18442391 0.98209143 0.0079159634
-7.9226556 29.398918 -5.7729445 -2 -0.22446337 0.90489149 -0.36164564 0.051431309
-7.9910831 29.331375 -5.6993499 -2 -0.20759295 0.88915449 -0.40781048 0.044901073
-7.8471451 29.383022 -5.5855331 -2 -0.15259859 0.9100045 -0.38549376 0.050032485
-8.07658 29.258219 -5.9078794 -2 -0.27512071 0.88221163 -0.38211414 0.054561928
-7.5673027 29.369499 -5.6096048 -2 -0.26727569 0.89963114 -0.34529352 0.06204484
-43.130737 -36.296486 30.9972 -2 -0.18099605 0.15552212 -0.97110933 0.094426043
14.227676 -41.953133 -39.723869 -2 -0.10958528 0.66115522 0.74220282 0.039887037
-14.862865 -6.0472026 5.8252993 -2 -0.48613602 0.84511846 0.22236598 0.028932104
-14.932766 -5.8329773 4.475811 -2 -0.4674938 0.85936195 0.2072355 0.013614709
-15.006121 -5.9764047 5.2110543 -2 -0.41643107 0.89217401 0.17495932 0.019274522
-21.417324 -38.000031 32.547577 -2 0.09229178 0.32331789 -0.94177908 0.0060383119
-21.256535 -38.117867 32.447971 -2 0.11978566 0.29623607 -0.9475736 0.0063401056
-21.69215 -38.553055 32.150501 -2 0.15025827 0.31984356 -0.93547988 0.010861773
-21.444614 -38.700893 32.150501 -2 0.14995898 0.31917578 -0.93575579 0.01102854
-15.739293 -30.674799 32.639301 -2 nan nan nan nan
49.245712 31.739176 11.943661 -2 0.19207716 0.6596083 0.72665203 0.092590079
55.069466 9.6070919 -29.974854 -2 -0.36258414 0.291765 0.88510221 0.10549311
-14.426342 -2.5317583 23.097038 -2 0.97114116 0.051447496 0.2328908 0.01662351
-19.968575 15.580252 -32.169678 -2 0.84337068 0.40872881 0.34880754 0.079044163
-35.098801 -10.331841 36.190868 -2 -0.024967073 0.39100349 0.92005044 0.076292738
-9.5037346 35.306961 5.5036364 -2 -0.63618952 0.60551637 0.47813469 0.03984496
28.181589 -41.9272 -36.27914 -2 -0.27644992 0.75103223 -0.59960485 0.058479555
24.327118 -43.815365 -39.468498 -2 -0.036258753 0.96962202 -0.24190588 0.035423927
24.473907 -43.858799 -39.618591 -2 0.018980429 0.97564304 -0.21854171 0.028676953
55.661362 31.447332 6.986105 -2 -0.75280374 0.090405218 0.65200722 0.15872157
-31.651899 -44.250542 22.574844 -2 -0.98976189 0.14271143 -0.0021671916 0.032815129
-31.933601 -43.790154 23.957903 -2 -0.98955888 0.14399853 -0.0061319144 0.030476386
45.987579 -25.630457 39.774158 -2 0.27293393 0.00056317763 -0.96203256 0.0051384489
45.70023 -26.110214 39.704102 -2 0.27663231 -0.038590562 -0.96020067 0.0044121412
46.221752 -26.879642 39.959 -2 0.34891149 0.0094888378 -0.93710762 0.0022367076
13.098185 -13.862302 -30.670918 -2 -0.43073419 0.90232742 0.016534092 0.11430034
12.533006 -13.713387 -30.892939 -2 -0.4320659 0.90059048 -0.047496065 0.18134069
57.418869 29.770676 -5.5348811 -2 0.34169501 0.87930804 -0.3317557 0.00037755902
57.609867 29.528624 -6.0042791 -2 0.32223669 0.8927927 -0.31477737 0.00095727044
58.026848 29.248112 -6.3338542 -2 0.31910336 0.88628626 -0.33566302 0.00053016114
-54.477192 -36.02887 23.510799 -2 -0.41546872 0.79798424 -0.43658546 0.018012304
-54.721558 -35.966896 23.510799 -2 -0.43314031 0.81529444 -0.38429737 0.021872608
-13.272567 -37.731873 39.663467 -2 0.03811891 0.12529704 -0.99138665 0
-32.889145 -37.887802 14.853935 -2 -0.080132432 0.9958815 0.042412065 0.019230112
-32.986801 -32.065525 0.95213729 -2 0.23286416 0.24183038 0.941962 0.11086094
-43.897999 -28.431087 30.392527 -2 1 0 0 0
-43.897999 -28.624449 30.431278 -2 1 -0 -0 0
-43.897999 -29.351208 30.270876 -2 0.99985582 -0.0066871946 0.015608275 0.00024238022
-43.897999 -27.444759 30.398157 -2 0.99999964 0.00077503023 -0.00039563904 0
-43.897999 -27.528572 29.928387 -2 1 -0 -0 0
-43.897999 -26.636648 30.305386 -2 0.99999964 0.00078890781 -0.00032099464 0
-43.897999 -26.519566 30.132069 -2 0.99999988 0.00038277259 -0.00041635582 0
-13.626282 -40.8424 32.581032 -2 0.2569963 0.91012603 -0.32499772 0.10449448
-13.62614 -40.953449 32.24736 -2 0.25896806 0.9092716 -0.32582319 0.10288776
48.623505 30.521912 -4.7537575 -2 0.6251353 0.72526491 -0.28843844 0.18603526
-16.680347 26.7665 10.336379 -2 -0.29186562 0.76226801 0.57772142 0.14387849
10.887274 -38.646915 39.030334 -2 0.037938263 0.54082406 -0.8402797 0.0081155356
11.635603 -38.363064 39.263905 -2 0.036121309 0.52732307 -0.8488968 0.010947759
13.701749 15.503841 45.427078 -2 0.049890455 0.66165364 -0.74814802 0.044398785
14.774852 15.595649 45.427078 -2 0.10056364 0.676135 -0.72988242 0.051714607
18.327 41.498878 -7.7530518 -2 -0.97044468 0.22625409 0.083941855 0.0093832724
-32.195587 -37.997589 32.059898 -2 0.77530003 0.096327551 0.6242041 0.073787548
54.690662 -38.131901 39.577599 -2 -0.035106849 0.78354001 -0.62034875 0.017914293
54.661209 -38.069031 39.661663 -2 -0.036358297 0.78296477 -0.62100261 0.018118011
31.056299 -44.038624 -29.376183 -2 -0.14833538 0.12037114 -0.98158419 0.06157412
-14.318404 0.67370218 -29.755531 -2 0.98181576 0.10362892 0.15905616 0.016288878
-43.897999 -32.464222 30.309555 -2 -0.57064712 0.28257117 0.77104825 0.11530418
13.612394 -13.802702 -34.886356 -2 -0.43457711 0.27861583 -0.8564555 0.16632046
42.770134 -9.8489466 39.752529 -2 nan nan nan nan
25.991755 -15.59396 -38.544567 -2 -0.23155506 0.18101726 0.95583206 0.052577294
45.96048 -24.93845 -29.957199 -2 0.32777029 0.2704145 0.9052307 0.00083783327
17.461609 15.23336 44.770256 -2 0.092240714 0.89288104 -0.44074386 0.0096591897
-4.0447445 -2.6645002 39.757786 -2 0.17113388 0.14112958 -0.97508752 0.0040532388
-2.2646794 17.549841 -36.519741 -2 -0.025008731 0.67727 -0.73530936 0.012891679
-2.9761009 17.689568 -36.289879 -2 0.016239993 0.71631849 -0.69758439 0.021184416
-1.4685688 17.540714 -36.53244 -2 0.028460536 0.6592502 -0.75138479 0.015767261
-1.8639116 17.388119 -36.787079 -2 0.015836628 0.6020714 -0.79828525 0.026047122
-1.6012659 17.089102 -36.803741 -2 0.015819166 0.60230249 -0.7981112 0.025637086
-0.54230022 17.52603 -36.553967 -2 0.087341055 0.63983262 -0.76353508 0.015719051
-1.2671261 17.054035 -36.802711 -2 0.11127596 0.58247823 -0.8051936 0.017962011
-45.40234 -10.7692 14.977617 -2 -0.11522987 0.99224323 0.046640959 0.0091747185
-45.59716 -10.7692 16.004196 -2 -0.18094522 0.98157442 0.06140504 0.015151262
-48.243198 -40.793343 10.992024 -2 -0.86355686 0.18774123 -0.46799868 0.024109725
56.781979 28.841036 -7.4702692 -2 0.32799557 0.75729328 -0.56473511 0.11061263
23.862766 -14.724378 -29.8647 -2 -0.084273733 0.15872906 -0.98371893 0.058751065
23.752165 -14.673429 -29.8647 -2 -0.097215973 0.19400267 -0.97617221 0.057242054
23.973619 -14.658255 -29.978001 -2 -0.027700739 0.17421593 -0.98431772 0.067911074
23.738651 -14.765448 -29.977999 -2 -0.097130097 0.19396177 -0.97618878 0.057236999
24.641441 -15.315883 -29.978001 -2 -0.046572506 0.19228075 -0.98023421 0.076378211
23.890444 -15.2258 -29.8647 -2 0.007926872 0.21743688 -0.97604227 0.073712699
22.718407 -15.351994 -29.978001 -2 0.046490032 0.21479851 -0.97555131 0.16954067
23.750778 -15.155005 -29.978001 -2 0.051889073 0.28155017 -0.95814252 0.08711607
23.563963 -15.108743 -29.978001 -2 -0.014149628 0.27312097 -0.96187556 0.086361267
22.908199 -15.385374 -29.942585 -2 -0.056825962 0.29908943 -0.95253152 0.1438726
23.293751 -15.251066 -29.8647 -2 -0.057409421 0.3542631 -0.93338197 0.063263312
23.073332 -15.245831 -29.8647 -2 -0.024132717 0.37731594 -0.92577004 0.062752843
-21.662725 -29.260197 -22.641405 -2 0.0081436662 0.25266433 -0.96751976 0.00030694369
55.434898 14.624222 0.24638438 -2 -0.68086475 0.72081918 0.12977971 0.0033461025
-31.933601 -45.006073 2.6969399 -2 -0.98701936 0.15978827 0.016140543 0.036963858
-31.933601 -45.117786 2.6105757 -2 -0.98774803 0.15587653 0.0075153718 0.043744531
-31.651899 -44.824898 3.1483889 -2 -0.98444831 0.17445737 -0.020642446 0.035919696
28.456329 -12.719549 -34.798416 -2 0.67645329 0.54724985 0.49287781 0.065051734
60.852348 15.234445 37.530972 -2 -0.91377187 0.4037782 0.044541966 0.025816137
61.122398 15.369032 37.569309 -2 -0.91341954 0.4046815 0.043561995 0.025877042
21.422981 35.932629 -7.1163006 -2 -0.04100167 0.13818958 0.98955673 0.060998913
-45.502495 -34.901447 23.116407 -2 -0.63695747 0.54787588 -0.54232562 0.18977831
-33.622501 -11.032424 -19.951326 -2 -0.54369563 0.8365851 -0.067233875 0.052719206
-16.988129 27.683929 3.6673884 -2 -0.53242385 0.83801657 -0.11938657 0.11096703
-14.464965 -15.344793 32.639832 -2 0.90333372 0.085966647 -0.42023557 0.1016895
-14.314579 -15.54272 32.639889 -2 0.90333289 0.085998923 -0.42023075 0.1016947
-14.295846 -15.585571 32.795616 -2 0.90355307 0.086048953 -0.41974691 0.1019356
55.695576 31.428104 11.638876 -2 -0.41060764 0.076195553 0.90862292 0.16102506
56.034298 31.134985 11.694459 -2 -0.34891361 0.034083769 0.93653494 0.19513093
56.202267 30.990015 11.893627 -2 -0.41652831 0.15261173 0.896222 0.25190499
54.956009 5.5265789 39.752602 -2 -0.48108023 -0.080179103 -0.87300229 0.09030313
54.951805 5.4847498 39.752602 -2 -0.52053142 -0.13568896 -0.84299207 0.10482015
-6.692358 -37.831161 -30.044853 -2 -0.058535792 0.32141122 0.94512874 0.01279026
9.027236 16.358501 -35.824509 -2 -0.2610153 0.85663438 0.44502643 0.027421437
-14.214727 3.3255827 20.210772 -2 -0.9709515 0.12092414 0.20647176 0.017967261
-14.1245 3.1698651 20.291407 -2 -0.97096527 0.1209383 0.20639893 0.01791507
-14.5373 2.7102201 20.04104 -2 -0.96169245 0.19814016 0.18944179 0.034720086
-0.64397478 35.940166 -4.6995678 -2 -0.50805229 0.84201485 -0.18136711 0.0090061072
-0.68628883 35.889095 -4.7940426 -2 -0.48974898 0.83805609 -0.24043263 0.0096603902
-0.93933916 35.569527 -5.3950691 -2 -0.49816501 0.81860518 -0.28586227 0.0066406727
-14.274479 -38.021782 -24.565512 -2 0.69571185 0.71829593 -0.0060013961 0.0033422436
-14.070011 -38.162956 -24.526527 -2 0.72791314 0.68500918 0.030084386 0.0054275515
-14.03437 -38.186695 -24.362442 -2 0.70691925 0.70611513 -0.040825155 0.0039332798
55.646225 15.21988 -28.335827 -2 -0.29985407 0.90897584 -0.28956938 0.11701915
-19.678146 15.234386 39.901646 -2 0.54835951 0.83159107 0.088080205 0.0038370781
-19.9683 15.399367 39.712158 -2 0.55938369 0.8261711 0.067313485 0.007877118
15.644853 -45.790398 -43.603317 -2 -0.024626687 0.97713196 -0.21120286 0.039632384
14.954809 -45.790401 -43.552071 -2 -0.03972394 0.98059118 -0.19199759 0.033872683
59.262627 26.64949 17.731924 -2 -0.86251336 0.39510629 -0.31616738 0.093058363
-15.947189 -24.502951 -22.639492 -2 nan nan nan nan
57.996399 23.591469 16.6534 -2 -0.23834053 0.1546552 -0.95878857 0.030193236
-13.62839 -45.131191 37.540485 -2 nan nan nan nan
24.347601 40.274803 -10.465874 -2 -0.9562397 0.16601127 0.2409272 0.044248428
38.18288 -1.6180249 39.596298 -2 0.060277641 0.22310109 0.97292989 0.0095891831
37.941242 -1.4149476 39.596298 -2 0.044076458 0.21325223 0.97600245 0.0067969523
38.369316 -1.9024508 39.851349 -2 0.04091683 0.23011255 0.97230345 0.0080647375
39.146049 -1.5849555 39.596298 -2 0.059509516 0.24030881 0.96887064 0.010011819
-32.103981 -17.063707 12.446364 -2 -0.98256677 0.16559173 0.084509358 0.0020825388
-25.572332 -38.156326 32.437706 -2 -0.10139409 0.33061203 -0.93830425 0.00030584208
-25.579119 -38.218803 32.383305 -2 -0.10110058 0.32976082 -0.93863541 0.00089896843
55.434898 -36.282196 20.048883 -2 nan nan nan nan
-18.392157 16.388119 44.961166 -2 0.16445398 0.98247832 -0.087699801 0.0047575966
-18.250011 16.365292 44.83511 -2 0.18379036 0.97439057 -0.12955356 0.0074474402
-18.749163 16.428251 45.072155 -2 0.085493572 0.99287754 -0.082976595 0
-18.164055 16.410601 45.465572 -2 0.17395876 0.98207748 -0.072541036 0.0064294534
-22.847801 -9.7850552 -25.640411 -2 -0.1468838 0.89714277 -0.41660538 0.043970235
51.433594 33.037979 8.623867 -2 -0.29859185 0.90248358 0.31042913 0.051427975
51.639622 33.119968 8.4779348 -2 -0.32138404 0.90289152 0.28548044 0.073327906
51.468414 33.294823 8.1667137 -2 -0.34383792 0.89246774 0.29202187 0.084733799
50.700134 32.440536 9.6872568 -2 -0.32992089 0.90491462 0.26885271 0.051171426
51.011322 32.678776 10.259078 -2 -0.37430376 0.89962023 0.22490036 0.096055984
18.327 34.546616 -7.2801952 -2 0.64453208 0.4029111 -0.64980072 0.15719387
-26.80238 -10.891344 35.511299 -2 -0.45516178 0.10811746 -0.8838203 0.18510126
-51.2575 -41.587917 23.578825 -2 0.68896776 0.67378497 0.26709044 0.03854531
-50.98703 -41.775734 23.58469 -2 0.73981696 0.62641573 0.245508 0.028383655
-31.933601 -38.045078 27.867798 -2 0.88014489 0.43526977 0.18943392 0.13647825
31.432014 -14.624384 -29.978001 -2 0.087501481 0.41872674 0.90388691 0.14487474
55.278599 -1.6148274 26.140276 -2 0.91089296 0.41173431 -0.027366729 0.014943136
17.30868 -14.496244 -36.336353 -2 -0.07602679 0.99594277 0.048145395 0.17134149
58.104813 19.565397 -33.074825 -2 0.090649381 0.83747268 -0.53890848 0.00021617036
58.524166 19.240416 -33.509987 -2 0.099573068 0.84299475 -0.52862567 0.0011687119
57.84269 19.559217 -33.129642 -2 0.090649381 0.83747268 -0.53890848 0.00021617036
-19.867268 -11.461905 -22.64086 -2 -0.0054177046 0.1932248 0.98113954 0.0253164
-18.770544 -11.672144 -22.64049 -2 0.056006864 0.16243458 0.98512852 0.015990425
13.707284 -13.675274 -31.544888 -2 -0.69775271 0.65735203 0.28465694 0.1245959
13.661137 -13.34023 -31.676113 -2 -0.69793254 0.62310803 0.35302487 0.14973222
13.679926 -13.329294 -31.341465 -2 -0.65367717 0.67077434 0.35038269 0.19161636
-14.30295 14.107512 13.397956 -2 nan nan nan nan
-9.3151407 28.783648 16.120041 -2 0.25658253 0.67470556 0.69205332 0.14727619
-8.4837475 28.886261 16.750608 -2 0.3038539 0.62073112 0.7227487 0.083989255
19.011312 35.072289 -11.2872 -2 0.18274853 0.079545259 0.97993648 0.0097642718
18.639597 34.992905 -11.287201 -2 0.23473831 0.08123298 0.96865845 0.013125386
19.214081 34.417007 -11.287201 -2 0.12699734 0.039386448 0.99112076 0.0049786298
19.113867 34.129467 -11.287199 -2 0.15848583 0.095601507 0.98272198 0.0052995612
19.286736 34.181534 -11.2872 -2 0.097129308 0.029460922 0.99483562 0.0018532366
-57.330761 -37.609348 7.5617876 -2 -0.42689535 0.88499784 -0.18584734 0.033764269
59.502079 28.126423 8.8335609 -2 0.88784701 0.45204079 0.08594621 0.14573623
2.3708463 15.219599 39.820251 -2 -0.64593768 0.70494109 -0.29295501 0.10185033
2.6243749 15.056062 39.715801 -2 -0.67414916 0.70401615 -0.2233479 0.13436964
2.5155554 14.901525 39.716896 -2 -0.67358601 0.70413387 -0.22467135 0.13429709
-17.258247 26.419003 5.9250431 -2 0.91993338 0.30303928 -0.24877661 0.049798578
-16.83902 25.920212 6.1179562 -2 0.91791278 0.28554285 -0.27550212 0.030283347
-29.659782 -10.017488 -26.509754 -2 0.41477257 -0.033735566 0.90929949 0.05291516
-32.100063 -37.98579 25.39122 -2 0.35455269 0.93410158 0.041792165 0.072256178
39.750477 15.21949 39.820129 -2 -0.84039766 0.33254313 0.42795667 0.15522406
31.246704 -14.294011 -33.889919 -2 0.75200188 0.65539312 0.070376702 0.051451679
11.704384 -38.0639 -30.72393 -2 -0.005914175 0.99912065 0.041508932 0.0039831209
12.050561 -38.063904 -31.057961 -2 -0.00054248003 0.99999928 0.0010339059 0
-43.550438 -8.8956566 32.874302 -2 -0.15762234 0.98054379 0.11700042 0.0054133204
-43.733326 -8.9817457 33.145718 -2 -0.14485301 0.97680455 0.15770343 0.0042491965
-43.240551 -8.8414288 32.703339 -2 -0.077742174 0.99072093 0.11148112 0.0058203819
-43.891754 -8.9380512 32.426666 -2 -0.23224804 0.969796 0.074542031 0.00058434863
-44.291046 -9.07271 32.453434 -2 -0.29904568 0.94628882 0.12291939 0
31.056299 -41.772743 -29.447248 -2 0.35805061 0.25822937 0.89728332 0.21729641
-38.406944 -10.973417 35.511299 -2 -0.92826867 0.22490075 0.296204 0.16309103
57.366039 28.277441 -7.2456627 -2 0.51991642 0.8152042 -0.25520384 0.02395694
55.443558 -35.51297 -29.418251 -2 -0.72620171 0.13070367 0.67494273 0.018635415
55.443493 -35.488937 -29.33107 -2 -0.78078473 0.098238364 0.61702871 0.016009526
61.122398 15.394432 -14.746863 -2 -0.69956565 0.70941889 -0.085631125 0.099567637
55.436249 14.600755 -13.426149 -2 -0.91803306 0.28604585 -0.27457795 0.020839317
-45.407799 -13.267938 29.897589 -2 0.95669794 0.06214584 0.28437141 0.025775481
55.434898 -11.327841 0.7709496 -2 0.65950674 0.6769861 -0.32671168 0.0015238202
-31.651897 -41.369865 4.5335464 -2 0.95218235 -0.066341527 0.29824081 0.040889561
-34.012985 -11.8008 -3.1151371 -2 0.16699238 0.98340362 -0.070928194 0.045399327
-34.345261 -11.8008 -3.6864033 -2 0.1480673 0.98859549 -0.02747806 0.030626062
-45.036598 -43.221714 12.20927 -2 0.95871437 0.28433719 0.0043732109 0.09447135
20.29929 36.454498 -5.0918293 -2 nan nan nan nan
-14.675505 15.220352 20.219875 -2 0.65457517 0.74960083 -0.098131649 0.068831265
-14.300599 15.022116 19.942846 -2 0.66582692 0.74163216 -0.081586204 0.085432239
-14.118925 -20.906712 39.659355 -2 0.58359259 -0.11189238 -0.80430079 0.040593959
47.566261 34.148777 0.94769132 -2 0.11198665 0.71489102 -0.69020993 0.13815184
-17.753338 28.172461 2.1715145 -2 -0.89596969 0.18744086 -0.40262172 0.10659318
-44.483944 -10.954734 -0.66930002 -2 0.86362946 0.4887343 -0.12362403 0.17435317
17.411469 15.830049 -35.676399 -2 0.018171826 0.57508439 0.81789231 0.079397373
18.057436 15.70387 -35.676399 -2 0.043658741 0.50811887 0.86017972 0.10420692
17.655216 16.28421 -35.676399 -2 -0.026060736 0.50222147 0.86434633 0.042359825
-11.968556 26.7665 12.296818 -2 0.59039807 0.79843992 0.11799894 0.13613132
-14.297809 14.888556 27.689774 -2 0.74462765 0.64892662 -0.15628128 0.059105754
-14.297682 14.750929 28.042879 -2 0.7485081 0.63171726 -0.2016651 0.077888608
15.002242 -11.573585 -31.397474 -2 -0.84467435 0.5205729 0.12461589 0.18662941
16.724237 -38.259205 -32.99522 -2 0.07703004 0.15238462 0.98531485 0.1072525
16.728828 -38.223717 -32.995197 -2 0.099566795 0.21530317 0.9714582 0.12543435
16.680389 -38.281342 -32.995239 -2 0.076624587 0.15195037 0.98541349 0.10726995
16.725809 -38.31192 -32.995262 -2 0.076596349 0.15213141 0.9853878 0.1073012
16.621605 -39.085487 -32.6828 -2 0.0094898865 0.20177428 0.97938603 0.020431224
16.190983 -39.037025 -32.6828 -2 0.12489811 0.19181412 0.9734515 0.016399389
16.446383 -41.9272 -38.7416 -2 -0.11510788 0.98590827 -0.12138786 0.034526881
-31.997728 -28.154005 32.632481 -2 0.95502281 -0.15231346 -0.25442472 0.021125197
-16.246794 -11.434386 -25.6094 -2 0.069294088 0.35213152 -0.93338186 0.10984737
-15.949768 -11.362944 -25.6094 -2 0.05053382 0.27737081 -0.95943302 0.11421772
-16.330139 -11.800799 -25.958303 -2 0.070027292 0.3418746 -0.93713284 0.12595344
-15.674397 -11.202359 -25.6094 -2 0.083341666 0.38535178 -0.91899842 0.082893081
-41.293907 -38.808613 31.935497 -2 0.024794055 -0.064719588 -0.99759543 0.010485848
-40.863266 -38.270241 32.039932 -2 0.06053827 -0.05955869 -0.99638736 0.014002264
-43.314953 -10.7692 20.935987 -2 nan nan nan nan
-32.541599 -29.132488 -9.3808603 -2 -0.59726125 0.80150384 -0.029505108 0.0014594005
-32.191883 -28.816668 -9.0257759 -2 -0.61148226 0.78754157 -0.076600626 0.006230372
-16.479401 23.231628 3.9972365 -2 -0.99232775 0.11685839 -0.040370014 0.011933729
57.589245 22.015781 5.1775889 -2 0.62259376 0.67058092 0.40335867 0.12318998
-60.776985 -41.700684 22.8435 -2 0.91435021 0.022078669 0.40432185 0.10411408
-3.3953285 31.773787 -12.900784 -2 -0.10558899 0.84001487 -0.53218991 0.0039873379
-3.6040564 31.779766 -12.891494 -2 -0.11987323 0.84130973 -0.52709436 0.0049490915
-15.123498 20.617424 41.06514 -2 -0.10652305 0.88223064 0.45860872 0.0017900435
-15.609304 20.227032 41.715046 -2 -0.080373511 0.88142228 0.46544048 0.0019287524
-15.65343 20.137663 41.864056 -2 -0.06623441 0.89331675 0.44452024 0.0015849932
-61.016476 -46.974602 12.772653 -2 nan nan nan nan
-13.626141 -45.436169 32.246849 -2 0.38457745 -0.015749825 -0.92295831 0.040304564
-17.190151 27.15897 -7.2895584 -2 0.53797776 0.63894963 -0.54983938 0.18400928
47.066357 33.921753 8.0305767 -2 0.29665631 0.92039293 0.25469989 0.1025057
47.488602 33.433731 7.9194689 -2 0.32833502 0.90067303 0.28457728 0.095561922
47.813065 33.476807 7.8428035 -2 0.29945922 0.92553538 0.23175099 0.10466804
47.950981 33.019249 8.6572084 -2 0.32130373 0.9109894 0.25857738 0.11094009
-49.887749 -42.548244 7.3708 -2 -0.11372142 0.058413364 0.99179399 0.0072755292
-14.840751 15.220771 -26.836979 -2 0.78026038 0.62190735 -0.066521421 0.035460461
-14.317432 14.97515 -26.8347 -2 0.78026038 0.62190735 -0.066521421 0.035460461
-41.072544 -8.0684776 5.5890212 -2 -0.074684873 0.98779196 -0.13670853 0.0018105983
-40.354549 -7.8581448 6.3641558 -2 -0.11643763 0.97194397 -0.20437025 0.0063064038
-40.36821 -7.8225622 6.4954805 -2 -0.18749204 0.9656592 -0.17985837 0.0040785512
-39.588627 -7.5967073 7.3278041 -2 -0.10371329 0.98672938 -0.12493391 0.0055959378
-40.520233 -7.8010325 6.6264982 -2 -0.20771085 0.97058523 -0.12173942 0.0037101025
-39.907951 -7.5945458 7.6058006 -2 -0.1714009 0.98245692 -0.073485158 0.0087971529
-40.016064 -7.6310067 7.3722334 -2 -0.1701699 0.98151177 -0.087617435 0.0051931739
55.434898 -3.8039861 30.201962 -2 0.19162484 0.70986873 -0.67776573 0
-32.820137 -37.887798 25.703287 -2 -0.0069982465 0.99452698 -0.10424554 0.034501255
45.664421 -2.2079604 -30.234518 -2 -0.37390548 0.26773837 -0.88798136 0.022568777
-45.623001 -30.92794 1.2018775 -2 0.99999309 -0.0036149265 -0.00087966595 0
-45.623001 -30.980476 1.1986083 -2 0.99999309 -0.0036149265 -0.00087966595 0
-45.623001 -31.351709 1.5916282 -2 1 -0 -0 0
-45.623001 -32.030651 0.72666776 -2 0.9999485 0.0099626267 -0.0019183761 0
-45.623001 -29.769819 0.48754126 -2 1 -1.9247996e-06 -1.015331e-05 0
26.231447 -38.0639 -31.932629 -2 -0.042289481 0.97269702 -0.22819327 0.044230226
26.123018 -38.063896 -32.487045 -2 -0.026342331 0.96689337 -0.25381747 0.064226553
26.667471 -38.0639 -32.309837 -2 -0.064712688 0.97456497 -0.21455862 0.034973979
27.361868 -38.0639 -32.317036 -2 -0.060175575 0.98273319 -0.17497006 0.084947027
25.306471 -38.0639 -32.46048 -2 -0.050665222 0.94298756 -0.32894909 0.054959159
25.305235 -38.073769 -32.780014 -2 -0.043695509 0.94604695 -0.32106975 0.053864136
58.873161 26.564074 13.293961 -2 -0.27295721 0.95179778 -0.13991168 0.059481721
-32.051193 -38.039761 30.737072 -2 0.87846226 0.44678 -0.16938598 0.082931951
56.693089 22.912476 -5.8092117 -2 0.5253154 0.66423267 0.53182578 0.13595101
-45.482899 -41.813461 29.387598 -2 0.98348725 0.10412008 0.14802669 0.005843373
-45.482899 -41.335819 28.957035 -2 0.98466641 0.09658882 0.14526744 0.0029243492
-45.482899 -43.038506 29.127647 -2 0.99245203 0.028451398 0.11928764 0.013025039
-45.482899 -40.067055 28.513672 -2 0.99063003 0.11382186 0.075476989 0.0066219149
-33.897099 -33.540039 0.26145089 -2 0.3069303 0.63138062 0.71214622 0.21722014
-40.026215 -45.951408 31.423239 -2 nan nan nan nan
-14.294596 -11.938217 36.294312 -2 0.96765476 -0.062400654 -0.24443898 0.02185219
29.93009 16.378693 -35.913704 -2 -0.037977371 0.88227028 0.46920878 0.042191058
-17.926186 27.762629 0.79132938 -2 0.94356978 0.28120357 -0.17493026 0.049815867
-41.83004 -37.887798 -0.25452629 -2 0.016114237 0.96980226 -0.24335986 0.047203954
-41.045654 -37.887798 -0.069751322 -2 -0.047479242 0.9761551 -0.21181788 0.017794941
55.434898 -21.095001 -8.9238396 -2 nan nan nan nan
26.041483 15.225709 -32.274933 -2 nan nan nan nan
61.954922 17.650761 14.219185 -2 0.80750138 0.58691221 0.05895438 0.010947581
62.034683 17.571003 13.261114 -2 0.772425 0.6342085 0.033753831 0.01138774
-10.367216 31.553364 -2.7331035 -2 0.4833619 0.84123504 -0.24224985 0.052801978
-10.03309 31.524857 -2.7842121 -2 0.49361461 0.83081186 -0.25709206 0.037811756
55.434898 -13.291194 -1.7840705 -2 nan nan nan nan
55.327595 -6.9585371 39.752571 -2 -0.87369967 -0.043979138 -0.48447379 0.075802952
55.434895 -6.3004217 39.640575 -2 -0.88301539 -0.0038762721 -0.4693279 0.064909607
55.22789 -6.2181349 39.752579 -2 -0.85241312 -0.055642579 -0.51989961 0.056347843
55.434898 -5.0319233 39.067448 -2 -0.90163308 -0.0020044828 -0.43249723 0.021005955
55.381233 -5.9192719 39.752579 -2 -0.834665 0.0085456576 -0.55069172 0.044753056
47.760513 17.349436 46.566299 -2 -0.3286072 0.23176257 0.91558915 0.067212842
50.184357 33.942787 7.9928656 -2 -0.15603255 0.87661225 0.45519772 0.091743693
49.957863 33.240131 8.2640514 -2 -0.12661548 0.86014092 0.49409121 0.10235438
50.47871 33.035053 8.629076 -2 -0.045542877 0.85966659 0.50882143 0.11000292
51.039646 33.348457 9.058424 -2 -0.076236457 0.84900635 0.52285385 0.11281296
57.7939 24.442379 0.32520458 -2 -0.95199454 -0.033717405 0.30425236 0.0170167
57.92395 24.516901 0.43862301 -2 -0.94709569 -0.015789932 0.32056257 0.020007649
58.153507 23.705324 0.55625021 -2 -0.94593102 0.0039504631 0.32434371 0.012691651
58.153519 24.429565 0.74852532 -2 -0.92068708 -0.0020822007 0.39029589 0.016455961
-32.164322 -17.494558 11.53599 -2 -0.96203518 0.23295756 -0.1421942 0.0043695606
28.290627 -38.079121 -32.832733 -2 -0.135929 0.91431773 -0.38150534 0.031073801
28.285547 -38.095177 -32.99094 -2 -0.135929 0.91431773 -0.38150534 0.031073801
28.040768 -38.089828 -32.938251 -2 -0.16047314 0.89417231 -0.41797653 0.063575558
28.396757 -38.360752 -32.9953 -2 -0.13775164 0.92048526 -0.36569306 0.030982958
27.943542 -38.0639 -32.607491 -2 -0.15935695 0.8948102 -0.41703719 0.063413292
10.988701 -46.105991 -42.50824 -2 -0.99471605 0.069843695 -0.075245209 0.02029404
-1.2314 1.296062 -31.025127 -2 0.89180583 -0.063450813 0.44794688 0.10363301
-0.94262046 1.609 -31.197369 -2 0.89169401 -0.063389264 0.44817802 0.10358554
-47.124298 -10.185342 11.874157 -2 -0.77296036 0.59922892 -0.20846362 0.093229026
-10.382284 17.233919 46.48838 -2 -0.036987875 -0.14339145 -0.98897463 0.020273011
-56.83408 -45.993073 7.3708 -2 -0.023541503 0.10146327 -0.9945606 0.0082068658
-1.3503778 9.6442537 39.596298 -2 0.082283124 0.12533925 -0.98869586 0.0048495703
-1.6740531 9.3650455 39.596298 -2 0.066599123 0.11748893 -0.99083841 0.0091099767
-1.7743723 9.287178 39.596298 -2 0.066724427 0.11752367 -0.99082601 0.0091043245
-1.8544718 9.9866419 39.596298 -2 0.031420629 0.10540339 -0.99393302 0.0052785892
-1.7354182 10.15898 39.742432 -2 0.066359699 0.11670325 -0.99094743 0.0050191027
-2.2464814 9.9631271 39.596298 -2 0.02008719 0.1340943 -0.99076504 0.0036752457
-2.7946055 9.6771212 39.596298 -2 -0.056949511 0.096574225 -0.9936952 0.011043742
-3.5217862 9.9657116 39.596298 -2 -0.019905329 0.20625588 -0.97829562 0.016097251
-3.0159998 10.910201 39.814529 -2 -0.084696233 0.040236916 -0.99559402 0.014994374
-4.4289193 9.9034672 39.596298 -2 0.025901146 0.27789128 -0.96026325 0.024800388
-4.630631 10.022043 39.596298 -2 -0.019933408 0.33723018 -0.94121116 0.044187289
-4.4449444 10.175104 39.78051 -2 -0.039372105 0.34798703 -0.93667221 0.030028151
32.059685 -15.4064 -37.444809 -2 -0.75119656 0.62863833 0.2012897 0.016255764
32.327621 -15.163871 -37.35688 -2 -0.75213444 0.62755615 0.20116439 0.01545924
24.347603 38.261093 -7.2574458 -2 -0.72216022 0.53486598 -0.43863764 0.11426364
12.394516 15.862291 -35.676342 -2 -0.1587228 0.63454044 0.75641626 0.042118389
54.681862 31.267107 -1.9179872 -2 0.14747722 0.75896531 0.63420981 0.085260816
-32.1497 -23.052319 -10.682078 -2 0.94717175 -0.034247119 -0.31889313 0.013281246
55.401855 31.657572 0.52865195 -2 -0.084663928 0.90832752 0.40960133 0.058784492
-14.419352 -6.3406873 -12.697673 -2 -0.79296523 0.60488921 0.07290519 0.056654133
44.48159 35.121597 2.0480037 -2 0.82680947 0.55085373 -0.11378178 0.10592453
50.200371 -43.104691 -29.322041 -2 nan nan nan nan
-20.014063 16.335327 -22.716793 -2 0.65986252 0.72777766 -0.18687193 0.048934817
-44.4814 -35.421703 6.9134088 -2 0.99254185 -0.01033891 0.12146532 0.070433304
-44.481403 -36.162418 6.8625479 -2 0.98729408 0.031736616 0.15570235 0.097092733
-45.036598 -43.966843 13.849604 -2 -0.92105728 0.29387689 0.25551888 0.10726773
41.077915 -28.478687 39.704102 -2 -0.058824483 -0.072387077 -0.99564046 0.0031860368
40.88562 -28.240543 39.704102 -2 -0.12575833 -0.050400171 -0.99077982 0.0064146537
41.154663 -27.769566 39.704102 -2 -0.12871344 -0.051535551 -0.99034184 0.0060526766
40.65316 -27.773787 39.704102 -2 -0.12536594 -0.052333862 -0.99072927 0.0063007609
40.608219 -28.354433 39.778324 -2 -0.17756389 -0.07352075 -0.98135912 0.0023209325
40.592239 -28.283329 39.810398 -2 -0.17756389 -0.07352075 -0.98135912 0.0023209325
40.042095 -29.090401 39.959 -2 -0.17177683 -0.044082291 -0.9841491 0.0021318488
56.966167 26.633097 16.6534 -2 nan nan nan nan
39.884827 -28.848701 -30.184399 -2 -0.080119878 0.15059392 0.98534369 0.020153228
-7.3213434 15.027208 39.682415 -2 0.10829832 0.47831592 -0.87148458 0.084806263
0.9054172 0.30766732 39.596298 -2 -0.23383227 0.20503496 0.95041215 0.020069448
-48.820477 -32.28352 23.510799 -2 -0.48918203 0.76766312 -0.41399798 0.042774636
-48.876789 -32.111973 23.145271 -2 -0.48878095 0.76676673 -0.4161272 0.042545211
-48.644081 -32.337353 23.133652 -2 -0.53721058 0.73881578 -0.40688565 0.045849815
-14.489288 -0.86944091 -18.085318 -2 0.95976806 0.25596663 -0.11543979 0.037154116
52.31002 33.63208 6.9329219 -2 0.33330947 0.93745589 -0.1004056 0.08437214
52.331974 33.610477 6.9683967 -2 0.33256936 0.93775654 -0.1000517 0.084412068
-35.063301 -10.587195 -1.4586703 -2 0.097141571 0.1013493 0.99009687 0.16415642
61.670013 16.445391 -24.480589 -2 -0.61230254 0.78331214 -0.10727376 0.022804672
41.393574 -2.4144053 -30.232574 -2 -0.03382856 0.11993826 0.99220479 0.0028519761
6.1750555 41.426208 5.1663289 -2 0.10129871 0.99095815 0.087980099 0.0021284143
59.63525 16.357796 44.553795 -2 -0.51681167 0.51963472 -0.68035692 0.080261223
59.619312 16.356636 44.555653 -2 -0.51681167 0.51963472 -0.68035692 0.080261223
59.740967 16.352926 44.390598 -2 -0.51538008 0.5189482 -0.68196487 0.080349684
59.772079 16.222813 44.011227 -2 -0.51708418 0.51616681 -0.68278533 0.076343566
59.582207 15.571516 44.108524 -2 -0.58189493 0.47609067 -0.65934515 0.044487599
-45.577705 -37.887798 25.562647 -2 -0.28795138 0.95574528 -0.060291417 0.050970457
-45.358303 -37.887794 25.506378 -2 -0.22050206 0.97471833 -0.036096171 0.032209311
62.228096 16.943596 34.863327 -2 -0.9869836 -0.15403551 0.046220355 0.03010927
-44.25433 -29.043589 1.8141 -2 0.97978765 -0.10298478 0.17149445 0.015258728
-44.210709 -28.984163 1.8141 -2 0.97978765 -0.10298478 0.17149445 0.015258728
-44.282284 -29.113031 1.8141 -2 0.96701682 -0.15429308 0.20266277 0.016694428
-44.113201 -29.458113 1.7751579 -2 0.96924353 -0.16284274 0.18452458 0.017481705
-44.113201 -29.498657 1.6124927 -2 0.96931094 -0.16222246 0.18471673 0.017593848
-15.93566 21.87336 15.273397 -2 -0.49206129 0.86868477 -0.057116386 0.046876475
-15.632336 22.351421 14.222822 -2 -0.5323478 0.84652287 0.0022111742 0.19331957
-15.798821 22.007826 13.382683 -2 -0.51982647 0.85230982 0.057866156 0.083512679
-16.119638 21.906013 13.224049 -2 -0.49277321 0.86789644 -0.06269262 0.1367849
20.265503 -16.985094 -29.978001 -2 0.024219112 -0.12891021 0.99136049 0.0083623258
20.157711 -16.944521 -29.978001 -2 0.023201445 -0.12848015 0.99144065 0.0083823418
-14.298639 14.4594 25.379604 -2 0.9840191 0.1774722 -0.014496703 0.0053087226
-14.298433 14.527966 25.954418 -2 0.97271538 0.23021504 -0.028734626 0.0024392593
-14.298248 14.330418 26.468136 -2 0.98934376 0.14463858 0.016692083 0.0018416314
58.24855 15.50825 -35.675346 -2 -0.56302392 0.56282943 0.60516709 0.074028939
58.814919 15.234669 -34.780201 -2 -0.58843672 0.49328753 0.64063227 0.050802309
58.755241 15.26221 -35.128349 -2 -0.6536141 0.4759402 0.58844674 0.03887308
59.679008 15.843367 -34.275993 -2 -0.61177975 0.45727715 0.64546359 0.042251345
59.727745 15.952632 -34.242153 -2 -0.64123785 0.44271263 0.62675315 0.063024193
58.655434 15.700834 -35.291077 -2 -0.68209851 0.42413241 0.59569561 0.022366567
59.019623 15.788033 -34.935066 -2 -0.6767962 0.42014703 0.60450256 0.012867205
58.461266 15.78195 -35.498936 -2 -0.6763646 0.42542115 0.6012885 0.02289224
60.094307 15.978498 -33.875069 -2 -0.63076627 0.40252271 0.6634075 0.049761634
59.947269 15.554266 -33.96431 -2 -0.68703002 0.47237337 0.55213505 0.063769482
-44.467247 -26.793024 -0.3522 -2 -0.24585605 0.092765465 0.96485716 0.036043279
-44.356644 -26.720585 -0.35220003 -2 -0.24575917 0.092850223 0.96487373 0.036048442
-11.649277 33.22464 0.39492536 -2 -0.11066008 0.96187365 -0.25010678 0.14549913
-21.075054 17.06422 23.090265 -2 0.969154 0.18504876 0.16278055 0.031656433
-57.031815 -45.148998 17.6992 -2 -0 1 -0 0
-56.940971 -45.149002 17.007589 -2 0.0048595192 0.99998778 -0.00085847045 0
-56.865135 -45.148998 16.968027 -2 0.0048595192 0.99998778 -0.00085847045 0
-31.933598 -44.032127 12.498034 -2 0.99200785 0.12600099 0.0066458764 0.042512838
54.942116 32.05772 1.4846447 -2 0.82294899 0.39594048 -0.40741393 0.081787668
-2.3037915 10.625959 -30.079632 -2 0.48275709 -0.072654538 0.87273526 0.014960267
-2.1960623 10.879893 -30.070255 -2 0.4733631 -0.077044517 0.87749165 0.012342987
18.620958 32.680271 -11.2872 -2 0.19390088 0.19288744 0.9618715 0.096901029
18.668552 32.798119 -11.160118 -2 0.14419469 0.18541031 0.97202414 0.17629255
19.680841 33.067005 -11.287201 -2 0.23654325 0.2158182 0.94734883 0.19837174
-32.026016 -37.887798 20.914734 -2 0.49093631 0.86744952 -0.080702595 0.12918626
-5.3158455 -22.851299 39.857292 -2 -0.14102632 -0.079725578 -0.98679042 0.0022777175
42.584522 16.337574 45.485508 -2 0.040814541 0.5755524 -0.81674576 0.067606762
41.998398 16.023422 45.427101 -2 0.060073845 0.58281386 -0.81038213 0.038683377
-31.933599 -46.267345 29.691591 -2 -0.96621275 0.25774065 -0.0016330759 0.041703667
-31.651901 -46.292858 29.778557 -2 -0.95246953 0.29832345 -0.061684724 0.042041246
-31.933598 -46.487682 29.44116 -2 -0.96013325 0.2794385 0.0076306872 0.047728475
-31.933599 -46.668804 29.51005 -2 -0.94442827 0.32820365 0.018373638 0.05288849
-31.933599 -46.016926 28.766752 -2 -0.95300901 0.3008469 -0.035566449 0.024930015
-31.651899 -46.565857 29.623102 -2 -0.94014227 0.330504 -0.083064303 0.038915008
-14.520649 29.735737 -6.0266008 -2 0.15021688 0.96236622 -0.22646464 0.10273302
-14.51248 29.306318 -5.9193478 -2 0.15021801 0.9623673 -0.22645907 0.10273253
-14.330095 29.221825 -6.0522103 -2 0.18903551 0.95830292 -0.21429197 0.10895254
-15.335545 29.860426 -5.8070769 -2 0.08822272 0.97371072 -0.21001011 0.068855524
-15.614514 29.758034 -5.8209143 -2 0.1434357 0.96909368 -0.20070787 0.063460067
-14.734388 29.745007 -6.0129142 -2 0.071429707 0.98084104 -0.18124206 0.1064596
16.920563 11.529901 39.752499 -2 nan nan nan nan
19.737764 -13.242382 -35.959484 -2 0.086918652 0.82517236 -0.55815393 0.14831673
55.161098 -1.1488568 39.752602 -2 -0.59632659 -0.040585525 -0.80171525 0.062952124
-8.3242683 27.835297 -18.997602 -2 nan nan nan nan
-32.535007 -42.633888 31.935499 -2 -0.037365921 0.43690118 0.89873308 0.069698438
13.530999 -43.858799 -42.739819 -2 0.17821068 0.91607088 -0.35924226 0.086115025
58.726097 20.879093 5.0023851 -2 0.54821485 0.83564603 -0.034003209 0.010365044
-14.245754 31.202597 5.0757747 -2 -0.47624117 0.84762514 0.23393606 0.10337983
37.666378 17.441475 46.459633 -2 0.092960298 0.43157247 0.89727569 0.097965293
-14.284841 -6.594698 9.833478 -2 -0.72807276 0.47655925 -0.4927488 0.058084715
-31.933598 -42.209431 22.230402 -2 0.98224932 -0.034992587 -0.18428737 0.050037846
23.332041 -40.312149 -36.195274 -2 0.11628138 0.2242205 0.96757632 0.01125048
43.691971 -17.361475 39.752575 -2 -0.13215494 -0.055018812 -0.98970097 0.00031575703
-16.026463 26.7665 15.636651 -2 -0.077721745 0.99582183 0.047938973 0.0040100222
47.978058 17.048031 -36.751427 -2 -0.12009718 0.27669597 -0.95342332 0.072522201
-14.318401 -12.59033 -29.805489 -2 -0.15503566 0.23094234 -0.96053612 0.026601337
-14.315443 -12.785933 -30.070168 -2 -0.11208317 0.18874834 -0.97560829 0.019267341
-13.467624 -12.571037 -30.060888 -2 -0.15050465 0.16932918 -0.97400004 0.019496754
24.347601 41.283409 -10.387301 -2 -0.99175173 -0.08913783 0.092102505 0.0054355101
24.347601 41.534401 -10.37499 -2 -0.98418868 -0.13051967 0.11973783 0.0060578897
44.100819 -45.674576 39.074974 -2 nan nan nan nan
7.5215273 -38.21785 -29.705839 -2 -0.032478575 0.66829455 0.74318731 0.0021427404
7.3594723 -38.159893 -29.783344 -2 -0.032478575 0.66829455 0.74318731 0.0021427404
62.2281 17.113049 1.4783876 -2 -0.81266427 0.033191416 0.58178616 0.10787641
14.582949 -38.0639 -30.630695 -2 -0.11072229 0.98076028 -0.1607786 0.053981066
-35.579105 -36.430206 -0.18080001 -2 0.038310625 0.51064974 -0.85893488 0.03859774
-35.554192 -36.402519 -0.18080002 -2 0.037873905 0.50996453 -0.85936129 0.038618654
-35.693066 -36.47504 -0.18079999 -2 0.038309608 0.51064646 -0.85893691 0.03859809
-35.547691 -36.433472 0.077100009 -2 0.019290842 0.47347283 -0.88059717 0.027149556
33.402107 -38.23568 -29.665176 -2 -0.0040185428 0.52541327 0.85083765 0.012002241
33.463573 -38.106739 -29.836916 -2 -0.035520148 0.55526608 0.8309139 0.012171
33.266781 -38.060436 -29.8986 -2 -0.074200012 0.59276533 0.80194992 0.018360699
33.222912 -37.957226 -29.977646 -2 -0.075281031 0.59233367 0.80216807 0.018308455
32.923889 -38.154888 -29.772808 -2 -0.075477205 0.59183931 0.80251437 0.016905069
-17.183418 27.575642 -4.5788326 -2 -0.14027782 0.6208514 0.7712754 0.22907232
-46.1898 -11.69241 29.159315 -2 -0.86722171 0.37743822 0.3247565 0.17064369
-14.29357 -7.5033927 39.204422 -2 0.83320957 0.20630705 -0.51302946 0.058288261
17.979513 48.375092 -7.7242708 -2 -0.89452791 0.44325474 -0.05783749 0.058309995
-32.1133 -25.470549 18.877768 -2 0.97595143 -0.072672598 0.20551774 0.007212162
-32.1133 -25.447853 19.048931 -2 0.97595143 -0.072672598 0.20551774 0.007212162
-32.1133 -25.814186 19.071041 -2 0.97592932 -0.072860159 0.20555605 0.0072128214
-14.516346 -15.797115 -23.303244 -2 -0.93044752 0.10286792 -0.35168967 0.017274458
-8.0824099 31.021166 -2.7623706 -2 -0.2555286 0.91335195 -0.31700695 0.048846453
-7.4273901 31.720257 -2.4338818 -2 -0.19739316 0.90705389 -0.37187248 0.092326336
-7.923161 30.801365 -3.0610232 -2 -0.24961495 0.87523234 -0.4143196 0.13949373
-8.5062132 30.933928 -2.9297097 -2 -0.14175583 0.91263586 -0.38340718 0.044852581
-7.448328 30.351625 -3.9041634 -2 -0.21717821 0.88620585 -0.40923449 0.19831996
-44.830219 -30.874273 30.7346 -2 0.64682883 0.54399329 -0.53449392 0.139375
59.210873 26.691692 -2.718128 -2 -0.92874211 0.36809158 -0.044119887 0.027514411
59.210838 26.687408 -2.7307494 -2 -0.9287467 0.36808401 -0.044087298 0.02751665
-44.157768 -24.703522 1.8141 -2 0.98541152 -0.14345163 0.091573708 0.045280281
17.625042 -42.633865 -39.468498 -2 0.022072868 -0.017331176 0.99960613 0.0096570393
17.628279 -42.424015 -39.468498 -2 0.089102849 -0.059410226 0.99424905 0.012091459
17.702053 -42.240646 -39.61908 -2 0.088913679 -0.059708741 0.99424809 0.012117322
16.248121 -43.223961 -39.468498 -2 0.041399591 -0.049632553 0.99790919 0.010664096
-31.651897 -42.494614 19.304205 -2 -0.97354478 0.21107328 -0.087513529 0.012537821
-31.651897 -42.54562 19.394209 -2 -0.97353566 0.21103841 -0.087698892 0.012510771
-31.651897 -42.698128 20.266111 -2 -0.98808312 0.13171086 -0.079648763 0.028587207
-31.651901 -41.629635 20.157789 -2 -0.98964119 0.13561547 -0.047104388 0.065979913
-31.933599 -41.589699 20.093567 -2 -0.9889909 0.14003029 -0.047838449 0.065906435
-31.933601 -40.263634 20.196817 -2 -0.97866184 0.17632228 -0.10550632 0.026686108
-31.651901 -39.93644 20.379114 -2 -0.97094864 0.19641885 -0.1366688 0.018615065
-12.525705 30.426563 13.62344 -2 0.60210711 0.53264499 0.59477431 0.084195092
28.962257 -39.175148 -32.6828 -2 0.074352264 0.16647337 -0.9832387 0.0063906666
23.662788 -12.893843 -34.031933 -2 0.022105722 0.28054956 -0.95958489 0.045061201
-21.074278 17.364878 18.547903 -2 -0.8598699 0.50647599 -0.064076379 0.016557464
-21.043978 17.405231 18.138603 -2 -0.83963954 0.53578895 -0.089082561 0.015843609
-20.539825 17.866028 17.812269 -2 -0.79606819 0.60039562 -0.076160803 0.007321212
-44.752434 -37.825584 6.8983998 -2 -0.20972687 0.97587246 -0.060725503 0.12096028
57.7939 23.268114 13.391264 -2 -0.83913118 -0.29421759 -0.45748764 0.0071482686
-31.651899 -46.424023 -13.540474 -2 nan nan nan nan
-46.745602 -10.631497 32.827339 -2 0.73776847 0.44518653 -0.50745106 0.17556858
-45.995201 -39.085258 14.71861 -2 -0.94243932 0.33434001 0.0049969866 0.11473501
-45.995201 -38.403988 15.526888 -2 -0.92707455 0.37456197 0.015370831 0.097543359
60.241253 15.232735 -27.435581 -2 -0.15432449 0.98701531 -0.044551365 0.016870998
-6.3287649 31.94442 11.233488 -2 0.029153915 0.71302515 0.70053208 0.12708139
-6.8300714 31.577974 11.721404 -2 0.042251494 0.71439499 0.69846588 0.12509306
-6.1796751 32.689613 10.889924 -2 0.040437467 0.72429532 0.68830317 0.072841294
-6.5750237 31.281414 12.181805 -2 -0.034910887 0.72084641 0.69221503 0.12177633
-13.605475 3.3700175 39.665184 -2 -0.61382806 0.46480352 0.63810086 0.031505018
-33.724495 -34.28336 1.1485 -2 -0.22488928 0.1683148 0.95973694 0.11111075
-8.6444416 34.339275 2.2616897 -2 -0.3306255 0.94201493 -0.057398438 0.14653112
-44.4814 -33.800179 6.3129373 -2 0.97296619 -0.079675697 0.21676849 0.059053011
-44.4814 -33.4487 6.2586756 -2 0.97679067 -0.11160212 0.18282494 0.051193226
-47.967476 -41.990383 7.3707995 -2 -0.056128707 0.44915968 -0.89168662 0.040634707
-5.0805659 32.826355 0.5432595 -2 0.27034798 0.40887544 -0.87162656 0.12311973
55.434898 -5.3657646 39.087822 -2 -0.927513 -0.10976776 -0.35731035 0.020455994
55.434898 -5.4747705 39.454327 -2 -0.90000564 -0.097252257 -0.42489046 0.033123914
-4.8951063 15.233038 -34.896015 -2 -0.026223766 0.99312019 0.11412534 0.013752579
52.883045 32.043415 10.445493 -2 0.18122825 0.75339258 0.63210446 0.05237437
52.027233 32.142483 11.220583 -2 0.19052163 0.800093 0.56881696 0.094783962
52.811726 31.851904 10.773089 -2 0.1138023 0.81937742 0.561845 0.073984921
52.63921 32.131096 10.274128 -2 0.19359936 0.83662117 0.51242977 0.093622014
53.320221 32.195759 10.214296 -2 0.081489012 0.7943871 0.60192084 0.082011111
52.872116 32.655483 10.310753 -2 0.10706605 0.8368656 0.53683591 0.10355356
60.778297 15.234238 14.724129 -2 -0.60261261 0.76038426 0.24222699 0.055325918
-40.15979 -37.887798 25.526344 -2 nan nan nan nan
-7.4134254 35.430008 6.5380583 -2 -0.10342067 0.53439367 0.83888471 0.047768619
-7.2994666 34.815624 6.6950397 -2 -0.080944389 0.58247226 0.80881029 0.0510897
-21.02746 16.557589 33.219887 -2 0.67764425 0.68395573 0.27019027 0.040506307
-21.07679 16.72547 33.23341 -2 0.67764425 0.68395573 0.27019027 0.040506307
-21.076824 16.719 33.445782 -2 0.67821634 0.68370765 0.26938161 0.040759511
55.588314 10.666374 -17.952866 -2 -0.97520483 -0.219045 -0.031538628 0.0084389495
56.145416 30.870045 -3.8478515 -2 0.4377709 0.8334226 -0.33728832 0.020741332
-11.172554 31.347565 -2.1106105 -2 0.10753912 0.58192641 -0.80609983 0.044202268
-14.318211 1.9102802 -29.205141 -2 0.99205613 0.0089540388 0.12547678 0.026302099
-14.31823 1.6130099 -29.262503 -2 0.99187279 -0.062445745 0.11085545 0.022685571
-19.13694 15.232798 -26.113289 -2 0.15608948 0.98675883 0.044080429 0.018736424
-21.015549 17.398626 44.407413 -2 0.7838431 0.43229178 -0.44577321 0
55.434898 14.620472 4.3340874 -2 -0.93659979 0.33599737 -0.099431381 0.096014917
61.218357 16.346186 -31.174557 -2 -0.46828657 0.8811956 -0.064823538 0.031967252
-31.651901 -45.992836 15.873406 -2 -0.9911173 0.13017723 -0.027209476 0.032943163
-31.651897 -45.739536 15.770126 -2 -0.97678137 0.21355657 -0.017077591 0.026136022
-14.312317 23.336773 -25.315699 -2 -0.44425428 0.835024 -0.32461205 0.0054295445
-19.9683 16.202389 37.968903 -2 0.62033951 0.78431684 0.0051044142 0.051106129
-20.017542 16.335936 37.494118 -2 0.65671456 0.75382996 -0.021596111 0.089944191
-46.745602 -11.387245 22.773209 -2 -0.82489061 0.5034619 -0.25706336 0.081974648
-46.745605 -11.369661 22.618681 -2 -0.82444763 0.50419086 -0.25705582 0.082554609
-13.666784 30.616295 4.1928568 -2 -0.58943421 0.15639786 -0.79253203 0.06074436
-13.818874 31.57427 4.1322899 -2 -0.55365032 0.16196841 -0.81684607 0.13532887
48.90218 30.571941 -4.6751127 -2 0.39278916 0.81073856 -0.43407327 0.19181362
58.14782 24.104565 -5.3100076 -2 -0.97186357 -0.097624592 -0.21436074 0.015604092
58.153519 24.596514 -5.3855057 -2 -0.9712429 -0.14343199 -0.1900378 0.0084674265
58.153549 26.01948 -5.1286612 -2 -0.97794276 -0.087299682 -0.18975456 0.13910566
33.148857 16.996922 46.566299 -2 0.11517271 0.24210982 -0.9633888 0.10920334
22.886377 48.106201 -10.032585 -2 -0.47311255 0.87047666 0.13577487 0.023738313
23.120338 48.729309 -10.513698 -2 -0.53846526 0.83671969 0.099775992 0.036430232
-19.968307 15.743686 -5.937458 -2 0.76773942 0.63660544 -0.072866671 0.023512371
-43.897999 -34.518124 29.836927 -2 0.94608998 -0.053604648 -0.31943727 0.062722504
-43.897999 -34.835556 29.760387 -2 0.93060327 -0.088764906 -0.35510319 0.068592571
25.425476 -39.995602 -35.864174 -2 -0.08127775 0.66311097 -0.74409539 0.16888732
-14.94827 -29.995295 -22.639139 -2 0.33519834 0.20328508 0.91995507 0.0014559092
31.59342 -43.623669 -29.34708 -2 -0.098193958 -0.056114674 0.99358392 0.10416429
31.634781 -43.59623 -29.347027 -2 -0.098622434 -0.05614474 0.99353993 0.10417757
-10.945913 15.39881 45.427002 -2 0.091655299 0.47759584 -0.87378579 0.136261
5.7724876 -24.851871 -30.179356 -2 -0.14225657 0.22056167 0.96494335 0.0087205023
-3.3121171 17.56052 -36.505234 -2 -0.075446352 0.59971207 -0.79665124 0.058415852
-31.933601 -42.937561 15.340017 -2 0.98873609 0.12684484 -0.079443827 0.066331998
-57.863205 -46.867874 13.536593 -2 -0.052939955 0.9924618 0.11053009 0
61.833771 16.48163 -7.7490382 -2 -0.54404765 0.83550262 -0.077119648 0.041663915
-11.012792 29.080103 -6.1246977 -2 0.24123357 0.69971877 -0.67245811 0.057068452
-10.89649 29.511532 -6.3938498 -2 0.25518018 0.70734966 -0.6591962 0.064649694
-3.4426303 16.139553 -35.676563 -2 0.062881336 0.68149817 0.72911322 0.075593986
-19.823244 16.269341 42.721436 -2 0.60436314 0.78981209 -0.10460399 0.082274973
-14.657192 15.220261 -21.001251 -2 0.41878703 0.9024933 -0.10061437 0.017585726
-14.882666 15.220894 -21.855556 -2 0.37050888 0.92200851 -0.1123537 0.034012675
-10.305748 33.336361 9.0370264 -2 -0.28614941 0.55648512 0.78002757 0.066179164
54.773415 -46.195255 37.521584 -2 -0.98511356 0.09828449 -0.14103693 0.0087935925
-45.036598 -45.607586 20.139107 -2 0.98865068 -0.15006097 -0.0071748621 0.083192483
-46.494881 -11.8008 22.305441 -2 0.42223147 0.90134919 -0.096385807 0.059223861
-46.745602 -11.758989 22.505859 -2 0.39763266 0.91731018 -0.020743383 0.037432928
-33.622501 -11.333193 -6.8886228 -2 -0.79743093 0.5988524 -0.074025385 0.023309615
-15.030951 30.519878 6.3962169 -2 0.39004481 0.78193063 0.48626077 0.071183488
27.754438 17.65621 -36.291283 -2 -0.075573109 0.76207274 -0.64306587 0.0084241759
26.414257 17.728891 -36.170654 -2 -0.0013008994 0.77868861 -0.62740928 0.0027023018
8.73318 15.219557 39.82642 -2 -0.067114867 0.49620348 -0.86560827 0.10282563
7.8423214 15.003649 39.733959 -2 -0.083947659 0.47992513 -0.8732838 0.062007517
49.73222 16.530333 46.388058 -2 -0.045412268 0.19739969 -0.97927064 0.0030636359
49.630646 16.546885 46.465553 -2 -0.089159504 0.17055207 -0.98130649 0.0018803345
4.7308531 39.286903 -0.39827681 -2 -0.073956132 0.88927513 -0.45135379 0.0035248203
4.9212747 39.318764 -0.34478927 -2 -0.091317765 0.86381972 -0.49545586 0.0025683658
4.8214264 39.463867 -0.10410905 -2 -0.11037114 0.87895644 -0.46395463 0.003751199
4.5390511 39.127285 -0.66396832 -2 -0.075640485 0.8871811 -0.45517921 0.0054594339
42.474491 10.869067 -30.081074 -2 0.00082682353 0.18890354 -0.98199534 0.0051271566
