13.3147 -40.0964 -33.7514 -0.540917 0 -0.841076 
57.6689 17.0625 -5.34804 0.998749 0 -0.0499975 
-28.326 -37.1803 -19.2683 -0.672824 0 -0.739803 
-15.322 22.5989 -5.35447 -0.992594 0 -0.12148 
30.3678 -8.82782 39.7534 -0.000191714 0 1 
11.8694 15.5933 -31.4629 0.0978141 0 -0.995205 
-16.4597 -11.4549 34.8154 -0.525681 0 0.850682 
22.2343 38.488 -5.81512 0.396771 0 -0.917917 
53.1073 -36.4241 33.0717 0.944478 0 0.328574 
7.84167 32.0181 22.0412 -0.0182487 0 0.999833 
55.4477 -12.6501 -1.57785 1 0 -0.000328484 
-12.0977 15.8245 37.2956 -0.669826 0 0.742518 
-33.3251 -40.7858 2.71692 -0.997751 0 0.0670365 
3.37268 -5.95601 -30.0913 0.00246405 0 -0.999997 
33.0036 17.2525 -29.4004 -0.0454038 0 -0.998969 
53.2748 -12.0951 32.6199 0.945908 0 0.324436 
-44.1472 -37.9782 26.4394 -0.961935 0 0.273278 
33.1988 -35.0643 39.5015 -0.000780691 0 1 
-37.1529 -11.1249 1.67851 -0.468844 0 -0.883281 
47.0674 32.5657 -3.70185 0.788305 0 -0.615285 
-29.9328 -14.0075 -18.4431 -0.93161 0 -0.36346 
-4.60245 34.1029 4.47253 -0.998333 0 -0.0577147 
56.756 8.60031 15.9732 0.999937 0 -0.0112135 
54.3541 16.1568 36.7968 0.833013 0 0.553253 
53.785 16.5408 -27.1858 0.821738 0 -0.569866 
-54.822 -44.6482 16.0286 -0.999855 0 -0.017048 
-45.0484 -38.673 5.80056 -0.997123 0 -0.0757965 
11.8347 16.1428 40.7901 0.0643969 0 0.997924 
23.2656 -13.822 -32.179 0.0716595 0 -0.997429 
4.7584 -7.95128 39.747 -0.000924843 0 1 
-16.5291 -1.03151 -5.29101 -0.999844 0 -0.0176352 
-8.959 -34.9614 -27.9806 -0.32395 0 -0.946074 
34.5672 16.9729 40.2584 0.00319674 0 0.999995 
-37.6274 -10.4372 16.6746 -0.995319 0 -0.0966491 
-10.9147 -35.9639 37.0517 -0.421497 0 0.90683 
-30.9932 -36.5475 27.3675 -0.938647 0 0.344879 
-14.5146 -10.515 -25.5394 -0.706595 0 -0.707619 
29.6251 -40.1614 -33.4318 0.503061 0 -0.864251 
-12.1798 15.7947 -27.9763 -0.706757 0 -0.707457 
4.73841 29.5025 -16.4959 -0.0297044 0 -0.999559 
32.5783 33.4564 19.6612 0.0113123 0 0.999936 
50.1262 -8.22859 -26.5787 0.576729 0 -0.816936 
55.1735 -36.2077 5.10434 0.999998 0 0.00186577 
-16.6742 -1.82741 16.9384 -0.99992 0 -0.0126248 
-15.2089 22.5913 14.8102 -0.989486 0 0.144627 
-37.4887 -12.4791 30.6251 -0.00632447 0 0.99998 
53.8978 28.2512 12.342 0.966672 0 0.25602 
11.2032 -34.1535 39.51 0.00112452 0 0.999999 
-34.3536 -26.2587 1.69472 -0.942686 0 0.333682 
51.7117 -34.7871 -24.6135 0.832801 0 -0.553573 
