# .PCD v0.7 - Point Cloud Data file format
VERSION 0.7
FIELDS x y z intensity normal_x normal_y normal_z curvature
SIZE 4 4 4 4 4 4 4 4
TYPE F F F F F F F F
COUNT 1 1 1 1 1 1 1 1
WIDTH 633
HEIGHT 1
VIEWPOINT 0 0 0 1 0 0 0
POINTS 633
DATA ascii
-0.022910833 12.196932 -29.986649 3 -0.0044918354 0.010734888 0.99993235 0.00016994261
55.434898 -16.285313 2.0523701 5 -0.99999976 -0.00054788555 5.5920922e-05 0
-44.080193 -9.0016003 12.212734 42 -0.31949499 0.94758797 7.7270095e-05 2.4384479e-05
55.434898 0.046981186 -0.78000724 5 -1 -2.9690549e-05 -4.8910708e-05 0
-17.000246 -36.431572 32.638767 35 0.00055676408 0.00072126224 -0.99999958 0.00035878277
55.434895 -8.1817427 0.43090528 5 -0.99999988 -0.00044705102 9.3324394e-05 0
-1.2665219 22.594248 -28.139145 9 0.0014568286 0.85676628 -0.51570302 0.00024777686
55.434898 -1.308917 -0.38809323 5 -1 0.00022325257 -1.7386074e-05 0
-17.193266 -40.295235 32.150501 35 -0.0094298832 0.0060092392 -0.99993747 0
55.434895 -12.166574 0.112046 5 -0.99999982 0.00037923787 -0.000149306 0
8.8748932 36.164242 -5.5730262 9 0.0001293681 0.85652333 -0.51610839 0
-16.182234 28.139776 0.6546607 41 -0.70342195 0.71076959 0.0020352397 0
54.78199 -40.610306 -24.195606 5 -0.99999988 0.00021252327 -0.00033764093 0.00054985646
55.435692 8.9998722 -20.408602 5 -1 0 0 0
9.0570631 -40.18544 39.027866 2 0.0026069125 0.0032027776 -0.99999154 0.00053381809
55.434898 0.64133173 -8.0445089 5 -1 -5.9480267e-06 -0.00022320866 0
-44.013096 -8.9789715 4.0659094 42 -0.31954017 0.94757271 -2.9978994e-05 0
55.434898 -4.3760686 -0.12341807 5 -0.99999994 0.0003753819 -1.204494e-05 0
-45.482899 -42.455551 11.02934 83 0.99474597 -0.099281378 0.024972571 0.08775349
55.434898 -28.159889 -5.6311388 5 -1 -6.788996e-05 0.00016384543 0
55.434898 -20.022552 -4.3406506 5 -1 0 0 0
-1.2895999 19.883383 -32.641296 9 0.0022845191 0.85702652 -0.51526731 0.00030267704
55.434898 -12.249599 -0.13127589 5 -0.9999997 0.00075628533 -0.00029182178 0
-1.3190379 20.20166 -32.112808 9 0.0015911408 0.85651243 -0.51612395 0
55.434898 -8.1146832 -0.51196265 5 -1 0.00017565886 -0.00010111051 0
-44.23645 -37.887798 8.9917002 25 -0.0021657741 0.99999696 -0.0011240587 0
55.434898 -24.01306 -7.3124609 5 -1 1.3664956e-05 0.00013564827 0
55.434898 -0.97198176 -4.284873 5 -1 0 0 0
8.6019516 40.046669 0.87070084 9 0.00011479144 0.85651875 -0.5161159 0
55.438721 -36.205425 -17.14938 5 -0.99999607 -0.0022778388 -0.0016167653 0.0010802272
55.434898 -4.053093 -4.8963966 5 -0.99999994 -8.3177147e-06 0.00023015408 0
55.436989 4.6374907 -24.165998 5 -0.99999976 -0.00014159321 -0.00075146579 0
55.441219 -36.275299 -24.24752 5 -0.99999934 -0.00083373737 -0.00077228114 0.00052509928
55.434898 -8.1390676 -4.7862973 5 -1 0.00018408569 6.7827423e-05 0
8.5769939 -44.032902 39.027222 2 0.0013690061 -0.0030318357 -0.99999446 0.00068283762
55.434898 -1.7261684 -8.039258 5 -1 -8.2317085e-05 0.00013551049 0
55.434898 -16.040388 -6.2997103 5 -1 0 0 0
55.434898 -12.003658 -4.1568317 5 -1 1.1853893e-05 -0.00013213191 0
55.434898 -5.2483587 -8.0727501 5 -1 0.00010671843 0.00021415569 0
55.436974 0.90997267 -24.119711 5 -1 -3.3583539e-05 7.0249703e-06 0
-44.453979 -36.235001 4.321279 84 0.99990141 0.0053075715 0.013007974 0.011717144
55.434898 -24.191601 -9.0159206 5 -0.99999952 0.00077937247 0.00064744975 0
-44.4814 -32.448658 4.1681471 84 1 -2.3820841e-05 7.5536649e-05 0.0013267841
55.414101 -20.357069 -11.52391 5 -1 -0 -0 0
55.434898 -8.39645 -8.3718119 5 -1 9.8524661e-06 0.0001118858 0
-44.535095 -30.6313 4.6565819 84 0.98799032 0.14282778 0.058952529 0.033595417
55.434898 -16.956308 -8.8881226 5 -1 0 0 0
36.200344 39.855503 0.55175877 9 -0.00015431974 0.85652989 -0.51609737 0
55.439159 -32.214764 -24.081642 5 -0.99999964 -0.00057674985 -0.00069869857 0
55.434895 -12.239134 -9.0883226 5 -1 0 0 0
24.247454 15.228416 -33.244831 17 -0.00013899774 0.99999511 0.0031137739 6.6378845e-05
55.278599 -0.2296892 -16.214575 5 -1 -0 -0 0.0018517125
55.436947 -2.8690135 -24.037115 5 -0.99999809 6.7438865e-05 -0.0019162353 0.0014776408
36.11124 40.516003 1.6479771 9 0.00015009874 0.85654277 -0.51607603 0
55.438133 -28.020187 -24.255756 5 -0.99999785 -0.0011378438 -0.0017676305 0.00052752119
55.434898 -4.0799155 -16.403631 5 -0.99999988 0.00012671754 0.00041117633 0
55.436947 -5.096694 -24.035217 5 -0.99999994 -0.00034986655 0.00018711889 0
55.437122 -24.234795 -24.289246 5 -0.99999917 -0.0011940785 -0.00050989119 0.0009767483
55.434898 -8.0509834 -16.419037 5 -1 5.9349306e-05 -0.00034110484 0
55.434898 -12.773861 -16.371044 5 -0.99999976 0.0001856804 0.00068829197 0
-44.868858 -31.622463 -0.3522 45 0.067553736 0.053687196 -0.99627012 0.12993866
36.110657 21.273878 40.059868 1 0.00057871558 0.85762846 0.51426947 0
55.434898 -16.054848 -16.7318 5 -0.99999982 0.00049971708 -0.00035940553 0
55.437004 -8.4638739 -24.195972 5 -0.99999917 0.00038865075 -0.0011976237 0.00050765829
-3.7132597 15.225055 -32.099144 17 -9.1221416e-05 0.99999505 0.0031368136 5.7722147e-05
55.434898 -16.141466 -2.909153 5 -0.99999994 0.00019151531 0.00015811039 0
-45.036598 -41.057411 13.887672 83 0.98684359 -0.15542415 -0.044530716 0.062185127
55.434898 -28.228424 -2.5373211 5 -0.9999997 0.00065170595 0.00033393464 0
55.4534 -20.517614 -0.23029651 5 -0.99859589 0.0041048345 -0.052815199 0.0021561268
-44.357609 -37.887798 12.162698 25 0.00010015303 1 0.00020260554 0.00057787151
55.434898 -24.027269 -2.1442938 5 -1 -2.2157426e-05 0.00018546142 0
-44.456097 -37.887794 16.876476 25 -0 1 -0 0.00019215239
-0.36611307 4.3990445 -29.821699 66 -1.6133179e-06 6.6658396e-07 1 0
55.4534 -24.126553 1.4210564 5 -1 -2.7265491e-05 8.0142105e-05 0.0014575231
-44.715588 -9.9591465 36.227196 14 -0.0014165966 0.92625827 0.3768867 0.0098448368
-3.9020395 32.227127 -11.426408 9 -0.30267107 0.8906976 -0.33918738 0
55.278599 0.20809285 20.724192 5 -0.99999881 0.00021759288 -0.0015072224 0.00087841897
-28.306084 -7.3870268 28.118008 14 -6.4099462e-05 0.95320946 0.30231065 0
-13.555969 -46.444206 -28.165932 38 0.99585903 0.028988987 0.086165562 0.00022834848
-28.806829 -44.392822 -22.4179 32 -0.0024111585 -0.0011801987 0.99999636 0
55.278603 4.9305763 21.440132 5 -0.99999994 -0.00041785359 4.9182887e-05 0
-13.559809 -43.202625 -28.154427 38 0.99663657 0.027658798 0.077139899 0.0017174267
-28.466845 -40.49437 -22.4179 32 -3.8428232e-05 -0.0010721029 0.9999994 0.00035522503
55.278599 8.618063 21.304047 5 -1 -0.00031717989 1.8639618e-06 0.00085219578
-14.317863 -36.134579 -28.553154 12 0.99999982 0.00031481154 -0.00057731522 4.7714348e-05
-28.581503 -36.677334 -22.643717 32 0.010116206 -0.007385904 0.9999215 0
55.434898 12.515477 20.194437 5 -0.99999857 4.9521695e-05 -0.0017081521 0
43.896515 35.707306 -2.671715 10 0.70695215 0.70726132 0.00013590533 0.00083503843
-12.74549 -32.164265 -30.052927 3 -0.0098021822 0.001896292 0.99995023 0
40.040653 38.2257 -2.071408 9 0.2402972 0.88254946 -0.40418264 0.0048689302
-14.317878 -28.059254 -28.48621 12 1 0 0 0
60.331856 19.273718 28.442764 10 0.70658702 0.7076245 0.0015574801 4.7815356e-05
32.59465 35.724365 15.928996 1 -0.0011725429 0.85778278 0.51401103 0.00036692037
-8.4560728 12.614956 39.715565 2 0.007894001 -0.016693076 -0.99982953 0
4.6336946 40.455803 7.2474089 91 -0.29983369 0.88943988 0.3449586 0.00024583243
-20.477934 17.924206 28.087782 11 -0.67444837 0.73832178 -0.00065799057 0.00054844958
-4.1996784 -20.306187 -29.929546 3 -0.12736471 0.058123235 0.99015152 0.0044750683
-16.837114 15.226419 20.724449 17 0.0035245393 0.99999356 0.00073476898 0
8.0502262 -1.7720263 39.752499 2 -0 -0 -1 0
12.234815 -36.248333 -29.977999 3 -0 -0 1 0.00026435516
0.17225182 -0.42324913 39.596298 2 0 0 -1 0.00043199889
5.7597322 -36.124889 -29.987778 3 -0.0031058432 -0.010885462 0.99993593 5.4830321e-05
4.2324114 -1.3163239 39.752499 2 -0.00010615031 -3.6682311e-05 -1 0
8.010108 -36.166592 -29.981293 3 -0.018667316 -0.04492991 0.99881572 0.00032319775
4.4160399 37.17292 -3.9100523 9 0.0014819318 0.8564437 -0.51623833 0.0005496323
16.075123 1.7785051 39.752499 2 -0.00031133182 8.4446678e-05 -0.99999994 0.00031762378
20.812801 -32.553486 -29.996498 3 -0.00026892434 0.00033911632 0.99999988 0
-24.746622 -24.448685 -22.642464 32 -0.00037994073 -0.00027008829 0.99999988 0
28.410017 40.477188 7.9926043 1 0.0019744521 0.85593814 0.51707453 0.00059005385
13.225358 12.061968 39.752499 2 -0.00056281901 -3.7634738e-05 -0.99999982 0
17.471798 -20.617802 -29.996498 3 -0.0034107685 -0.00014790648 0.99999422 0.00010888361
24.040213 -0.78224838 39.752499 2 -0 -0 -1 0
28.910364 -36.260548 -29.978001 3 0 0 1 0
-8.9997168 8.4456072 39.719967 2 0.012238166 -0.00081094913 -0.99992478 0
-6.3394938 -24.232569 -29.982868 3 0.15347888 0.025849054 0.98781383 0.00092760299
55.434898 -36.115982 24.61721 5 -1 -0 -0 0
-28.102776 -45.11512 32.150501 35 -0.00015546462 0.00060458441 -0.99999988 0
-14.317951 12.076498 -28.331221 12 1 -0.00017016234 -0.00012636991 0
28.350525 37.392677 -3.5352502 9 0.00026187859 0.85650867 -0.51613241 0
56.317638 23.28767 12.040701 67 0.7062552 0.70795685 -0.00091456849 0.0015063898
0.039866924 36.677261 -1.0290346 11 -0.67475247 0.73804414 -3.4794724e-05 9.2941576e-05
12.392318 0.25801492 39.752499 2 2.0953016e-06 4.0003056e-06 -1 0
18.242313 -32.532871 -29.996502 3 -0 -0 1 0
0.27803797 4.6967287 39.596298 2 1.6797469e-05 9.9868106e-05 -1 0.00037448932
4.8152823 -28.438293 -29.9296 3 2.3401348e-05 -0.00023136346 1 0
28.043423 -2.6211855 39.752495 2 0.00024148636 0.00042291862 -0.99999988 0
32.198238 -36.380768 -29.977873 3 -0.00033366794 0.0010557272 0.99999934 0
20.879074 40.011051 -11.287199 62 4.9958668e-05 8.7266293e-05 1 0
51.624565 27.979595 4.6019726 10 0.70765609 0.7065568 -0.00042643768 0
32.07473 -1.129969 39.752499 2 -0.0012638059 -0.00017865968 -0.99999923 0
36.495529 -36.045456 -29.977648 3 -0.00021421874 0.00056232419 0.99999976 0
-28.362829 -28.145292 -22.643669 32 -0.00052688515 -0.00039583637 0.99999976 0
55.879578 23.7257 21.328953 10 0.70667684 0.70753556 -0.0011275437 0
-12.030549 -24.130741 -30.045143 3 -0.01130122 -0.00057002372 0.99993593 0
-24.38608 -28.068336 -22.642328 32 -0.0023729766 -0.0087947994 0.99995852 0.00037848821
56.128128 23.477167 20.83836 10 0.70660651 0.70760411 -0.0019358881 0.00032561162
-14.29476 9.4315214 36.081467 12 0.99999994 2.2762742e-05 -0.00030478623 4.3459029e-05
-8.5166006 -24.053734 -30.006697 3 -0.011026778 -0.00040646852 0.99993902 0
-24.91843 -44.01936 32.150501 35 0.00043510908 -0.0023936043 -0.99999708 0
-8.2517357 12.775564 -30.023249 3 -0.0052052243 0.0056304932 0.99997061 0
16.259125 4.2979383 39.752502 2 3.5410958e-05 0.00016352993 -1 0
20.272144 -28.096611 -29.9965 3 -0 -0 1 0
8.947834 37.175804 -3.8941026 9 8.5674954e-05 0.85652542 -0.51610482 8.1340768e-05
-16.062376 28.248474 4.5963125 41 -0.67523408 0.73758233 0.0055794418 0.0028532299
36.120697 -1.8167106 39.648968 2 -0.080605611 -0.017128982 -0.99659884 0.057792529
54.781853 -40.103626 -23.228428 5 -0.99999869 -0.0015812969 -0.00040765305 0.0010781869
20.178442 3.2415671 39.752499 2 -0.00030547165 -5.1496547e-05 -0.99999988 0
-17.740196 20.424782 12.30846 11 -0.67353261 0.7391575 -4.4033117e-05 0
25.151402 -32.257622 -29.9965 3 0.00056724629 -0.00039637039 0.9999997 0
-20.233225 -24.315729 -22.64094 32 -0.00019546335 -0.00036598119 0.99999994 0.00019435193
32.338776 40.487358 7.9753828 1 0.00060883578 0.85802811 0.5136022 0
-9.3124676 28.129265 20.160583 11 -0.67490953 0.73790044 3.163677e-05 8.6423766e-05
16.358303 12.327128 39.752499 2 0.00051984336 -1.5950533e-05 -0.99999988 0
20.367043 -20.078445 -29.996502 3 -0.00042328305 -6.143473e-05 0.99999994 0
-18.327744 19.88842 20.003445 11 -0.6746676 0.73812169 4.2674772e-05 0
8.3406448 1.8124642 39.752499 2 -0.00029443478 -0.00068463711 -0.9999997 0
13.350609 -32.220413 -29.978001 3 0.00036588812 0.00028428793 0.99999988 0.00041969289
0.14431477 2.4356856 39.596298 2 4.6721607e-06 1.9187434e-07 -1 0
4.9989719 -32.004578 -29.978001 3 0.00030340307 0.0022707426 0.99999738 0
-11.841787 25.817211 20.061474 11 -0.67497212 0.73784322 -0.00032166168 0.00023632828
16.692593 8.0106249 39.752499 2 -0 -0 -1 0
20.395844 -24.403152 -29.996502 3 0.00069034728 0.0017230208 0.99999821 0
-20.300861 -44.685162 32.150501 35 0.00076248246 -0.0013915093 -0.99999875 0
-4.4583106 12.643272 -30.006153 3 -0.0033519841 0.012842137 0.9999119 8.471615e-05
54.775146 -40.091278 25.085737 5 -0.99999583 -0.0022833401 -0.0017829734 0.0008101865
-14.317816 8.9316769 -28.009792 12 0.99999994 -7.5528874e-06 -0.00035869423 0
-12.329856 25.371096 20.216526 11 -0.67460787 0.73817617 0.00044834192 0
12.009481 8.1483784 39.752499 2 -0.00026606797 0.00067048188 -0.9999997 0
18.325788 -24.34623 -29.9965 3 -0 -0 1 0
-20.211123 18.166924 20.589664 11 -0.67470038 0.73809171 -0.00021532152 0.00012134977
4.2746577 0.36589217 39.752499 2 0 0 -1 0
9.7497606 -32.066376 -29.978001 3 -0.0006172827 -0.00099617394 0.99999934 0
12.04151 37.262718 -3.7499459 9 0.00012234553 0.85663927 -0.51591581 0
24.123241 3.337172 39.752499 2 -0 -0 -1 0
-15.6365 22.16733 12.240923 11 -0.68803543 0.72542787 0.019016365 0.0090386402
28.2113 -32.566753 -29.978001 3 -0 -0 1 0
36.704288 0.31318027 39.596298 2 0.0015308841 -0.0012546547 -0.99999803 0
55.43998 -36.435398 -20.265799 5 -0.99999899 -0.001344148 0.00032355814 0
20.074951 4.3396316 39.752499 2 -0 -0 -1 0
-16.554527 27.738155 14.356407 41 -0.6621595 0.74149364 0.10831363 0.0081961928
54.780708 -44.228699 -14.98305 5 -0.9999997 5.3330721e-05 -0.00073867763 0.001354316
25.191227 -28.392075 -29.9965 3 -0 -0 1 0
22.931297 44.107986 -11.474174 62 -0.028912092 0.16106704 0.98651987 0.0035474519
48.359619 31.244064 4.0672994 10 0.70690709 0.70730644 -7.963753e-06 5.9147507e-05
21.35062 37.340397 -3.6215954 9 -0.00032979765 0.85658246 -0.51600999 8.2966915e-05
32.074219 2.548182 39.752499 2 0 0 -1 0
36.310413 -32.377567 -29.978001 3 -0.0037657677 -0.00037852794 0.99999279 0
-28.308659 -24.36507 -22.643667 32 0.00044921262 0.00052930298 0.99999982 0
24.617163 40.490124 7.971241 1 0.00013316584 0.85792863 0.51376885 0
52.94809 26.656998 20.549362 10 0.70673805 0.70747524 0.00015272819 0.00016285943
27.790016 35.978085 15.505613 1 0.00092133961 0.85764414 0.51424289 0
-14.317965 -20.335068 -28.624361 12 1 0.00011987858 6.8909132e-05 0
-15.616008 22.367273 20.43182 11 -0.67492604 0.73788542 -0.00017177254 0.00020459718
12.076549 4.4180083 39.752499 2 0.00012445559 -0.00014959161 -1 0
17.14609 -28.440239 -29.996498 3 -6.5853215e-05 0.000411505 0.99999994 0
18.063473 44.715729 -9.8001223 26 -0.99487031 -0.10111361 0.0030161717 0.0012700846
47.745026 31.858566 4.0606885 10 0.7067678 0.70744556 -0.00018287849 0.00077037013
16.657749 38.311028 -2.0103784 9 5.1740506e-05 0.85644233 -0.51624274 0.00020994399
28.096539 0.35868192 39.752499 2 -2.9341793e-06 -5.1859229e-06 -1 0
32.119637 -32.027802 -29.978001 3 5.2427429e-05 -0.00054272095 0.99999982 0
59.835281 19.770262 28.305582 10 0.70652437 0.70768327 0.0027878166 0
29.139303 35.921368 15.600241 1 -0.0037722166 0.85769135 0.5141511 0
-14.294803 12.115461 36.002239 12 0.99999309 0.0025252192 -0.0027209357 0
-9.2500391 -20.234545 -30.014725 3 -0.010919897 6.6154489e-06 0.99994034 0
54.775246 -44.551296 24.38393 5 -1 0 0 0
-14.317875 4.9385796 -28.233677 12 0.99999994 3.0962514e-05 -0.0004146604 0
-8.2598219 8.6755095 -30.023308 3 -0.0076737944 -6.5809552e-05 0.99997061 0
-4.3943896 8.0223255 -29.993391 3 -0.0076610427 4.1260679e-05 0.99997067 0.00017514224
52.043777 27.561249 14.052981 10 0.70527041 0.70893788 -0.00080269959 0.00017014606
-16.076187 21.946596 20.252354 11 -0.67509335 0.73773217 0.00052110478 0.00012545811
8.2218218 4.9606361 39.752499 2 0.00010622522 0.0001880053 -1 0
12.356482 -28.500916 -29.978001 3 0.0020883756 0.0082629155 0.99996364 0
51.923935 27.68108 12.911215 10 0.70715243 0.70706075 -0.00067953195 0
4.1336966 4.45012 39.752502 2 -0.00014234141 -0.00010596988 -1 0
9.017107 -28.247255 -29.978001 3 6.6006425e-05 0.00025481512 0.99999988 0.0004159433
-15.185952 -32.059113 -22.639212 32 0.0004011433 0.00036092717 0.99999988 0
43.986977 35.179874 4.1190052 10 0.73487604 0.66938514 0.10899898 0.078770407
24.04171 4.564281 39.752499 2 -7.019843e-06 0.00012323119 -1 0.00033335155
-13.510971 24.25597 12.003427 11 -0.70422584 0.70997572 0.00061586313 0.00031033286
29.363104 -28.022257 -29.978001 3 0.00014839362 0.0002513064 0.99999994 0
-16.082865 -28.281645 -22.639526 32 -0.00030642975 9.4613119e-05 0.99999994 0.00011368903
39.781952 39.820484 4.4293642 10 0.70755118 0.706662 -0.00046313161 0
36.53231 6.482563 39.596298 2 -0.10206592 -0.066818699 -0.992531 0.0027275267
55.436932 -32.301414 -20.651503 5 -1 -0 -0 0.00068266969
20.066154 9.6733942 39.752499 2 0.00030825811 -0.00017333156 -0.99999994 0
-16.293224 28.00024 12.768005 41 -0.70335919 0.71083266 0.0016751052 0
54.780334 -40.123722 -12.279963 5 -0.99999988 3.6454257e-05 -0.00048369903 0
25.19495 -24.089487 -29.996498 3 0.0014423714 0.00017720231 0.99999899 0.00030271319
-14.317897 0.311764 -28.362694 12 0.99999976 -5.8238835e-05 -0.00063351018 6.8510875e-05
-8.0607014 4.3978596 -30.021767 3 -0.0078302352 -2.0549425e-05 0.99996936 0
32.230549 6.0904675 39.752499 2 0.00059202401 5.2169005e-05 -0.99999982 0
36.848141 -28.003094 -29.978001 3 -0.0030337467 -0.00082593318 0.99999499 0
45.504562 34.098705 4.0902905 10 0.70863533 0.70557457 0.00076256058 0
28.178944 5.1119766 39.752499 2 -0.0006279982 0.00011244334 -0.99999982 0
-11.962018 25.706236 13.187427 11 -0.71480751 0.69750041 -0.05043231 0.0010478451
32.178864 -28.452782 -29.978001 3 0 0 1 0
47.987534 31.617216 15.136703 10 0.70645159 0.70776045 -0.0011458637 0.0015930517
0.075736284 8.69277 39.596298 2 1.7486168e-06 -5.5202145e-07 -1 0.00032803495
4.6607733 -24.9858 -29.935432 3 0.0014764174 0.0077231657 0.99996907 0.00038960628
-58.088699 -46.974602 17.185875 57 -0.073404051 0.99662656 -0.036707509 0.0071549583
-14.317799 -0.46615589 -28.101803 12 1 0 0 0
24.38913 5.3963957 -29.978001 3 0.00039734639 -0.00017610264 1 0.00037971101
55.434898 -8.8047791 -12.054276 5 -0.99999994 -0.00016194957 0.00023232787 0
-4.148386 4.0864959 -29.991489 3 -0.0077242963 -8.4452775e-05 0.99997014 0
-15.192204 -28.543682 -22.639227 32 0.00086681574 0.00091767224 0.99999923 0
40.853127 38.749462 4.0548172 10 0.70710677 0.70710677 -0 0
24.164242 9.0113449 39.752499 2 -0.00086298864 0.00064749579 -0.99999934 0
-15.599435 28.686966 12.254927 41 -0.70257109 0.71161169 0.0016286675 6.7553723e-05
28.134617 -25.339499 -29.978001 3 -2.7852902e-05 -0.00034508834 0.99999994 0.00053922483
52.062809 1.5942068 -29.976089 3 -0.0025233363 -0.00050367322 0.99999666 0
-52.499676 -43.323399 16.049299 65 0.023720944 0.99969202 0.0072921305 0
-8.0970526 1.2710234 -30.022049 3 -0.0076968605 8.5650254e-06 0.99997038 0
54.779198 -44.064934 -4.120966 5 -0.99999934 -0.0010919638 -0.00032674175 0.0013180114
8.9974585 8.9616985 39.752499 2 -0.00056736049 0.0045839539 -0.99998939 0
12.425181 -24.161133 -29.978001 3 0.00026034124 -0.00058882858 0.99999982 0.00043609709
48.76218 31.120895 12.036091 64 0.0084896069 0.71600521 0.69804323 0.18503074
5.0119905 9.6136112 39.752499 2 8.2225903e-05 0.00027385098 -0.99999994 0.00028855322
9.4187317 -24.095629 -29.978001 3 -1.0875407e-05 -0.00036669787 0.99999994 0
21.8603 -13.31249 -36.081356 27 -0.001968923 0.85308349 -0.52177083 0.00023298884
32.791485 9.7994957 39.752499 2 0.0043291193 0.0019247317 -0.99998873 0.00039661373
-7.7480316 29.558176 12.913633 11 -0.67523015 0.73760694 -0.0006205868 0
36.513657 -24.188988 -29.977999 3 0 0 1 0.00015427006
28.289482 10.7208 39.752499 2 -0.00075046078 -0.00036192438 -0.9999997 0
-9.2319441 28.201654 12.385526 11 -0.67474562 0.73805034 -0.00029313314 7.9308593e-05
33.101311 -24.430788 -29.978001 3 0.00099397264 0.00017612378 0.99999946 0.00041912144
52.165436 4.5625653 -29.976048 3 -0.0037845746 -0.00035505785 0.99999279 0.00027769781
40.679237 35.690514 15.985408 1 -0.0036887066 0.85742801 0.51459074 0
12.426464 40.883385 7.3152971 1 -0.00021242791 0.85799736 0.51365411 0
-3.6106231 12.00693 39.729237 2 0.001636708 -0.019969704 -0.99979925 0.0018074334
3.0226903 -20.237068 -29.9296 3 -0.0015422559 -0.0019984609 0.99999678 0.00017016372
52.829952 12.342205 -29.975775 3 -0.0032034724 -0.00014445549 0.99999493 0.00016857841
55.435581 1.1248865 -20.09235 5 -0.99999589 -0.0016548218 -0.0023314424 0.0010081241
24.051439 17.815321 -36.027203 9 0.00023014605 0.85691953 -0.5154503 0.00011098484
52.102249 8.6011124 -29.976074 3 -0.00052294019 0.00016481888 0.99999982 0.0001512929
52.031116 -0.91021669 -29.976103 3 0.0011329101 -0.00027165294 0.99999934 0.00035560777
48.025791 2.293925 -29.977751 3 -0.067940615 0.012457444 0.99761158 0.0052042981
-8.3482418 -1.2724092 -30.023993 3 -0.0078147054 -7.1570619e-05 0.99996942 0
-48.243198 -41.427353 16.250914 68 -0.042992938 0.99875075 -0.025467465 0.0025665874
-4.108964 0.57441568 -29.991184 3 -0.0077641769 -1.878934e-05 0.9999699 0
48.070496 6.9276733 -29.977734 3 -0.0011284868 -3.1186893e-05 0.99999934 0
4.064651 31.399166 23.135677 1 -0.0018006412 0.85776263 0.51404274 0
32.130474 12.395784 39.752502 2 -0.00064935209 0.00014834209 -0.99999976 0
-4.591608 32.443367 12.399254 11 -0.68033797 0.72771555 -0.087007701 0.0009386281
36.379341 -20.78619 -29.978003 3 -0.00011422099 -0.00026159134 1 0.00062223431
0.82371283 18.693718 44.329758 1 -0.0013325331 0.85743427 0.51459169 0
-8.0454721 -4.379755 -30.018543 3 -0.0078348927 0.001775973 0.99996769 0
24.194824 1.0239367 -29.978001 3 0 0 1 0
55.434898 -12.693483 -12.742866 5 -0.99999899 -0.0010304733 0.00093990733 0
54.779518 -40.352955 -6.38866 5 -1 -1.9609512e-05 -0.00017045334 0
8.0189066 12.168442 39.752499 2 -0.00027688377 1.5635497e-06 -0.99999988 0
12.864226 -20.127558 -29.978001 3 -6.1532679e-05 -0.00029007214 0.99999994 0
44.264114 35.340393 12.021061 10 0.70701629 0.70719725 0.00035093114 0
16.548164 40.477848 7.9922457 1 -0.00072857912 0.85744077 0.51458216 0.00086102844
0.68621373 12.060325 39.737568 2 0.0035582501 -0.011235942 -0.9999305 0.00029718946
5.842288 -20.030636 -29.9296 3 0.00036479835 -0.00094940135 0.99999946 0.00051920145
-32.102974 -24.099756 -20.091055 19 0.99999857 0.00046678638 0.0016404417 0
51.784164 27.820839 20.806364 10 0.70824897 0.70595586 0.0031090979 0.0014115359
20.195084 40.509636 7.9389424 1 -0.00062705617 0.85763019 0.51426649 2.9730814e-05
4.7753887 12.271249 39.749409 2 0.0019367965 -0.0064588748 -0.99997729 0.00089049496
8.0846786 -20.215385 -30.062151 3 -0.10410505 0.0075358255 0.99453783 0.0066420236
24.179024 -14.535825 -36.417328 27 -0.0023740414 0.8233512 -0.56752723 0
36.636299 9.0766516 39.596298 2 0.00029899066 -0.001640972 -0.99999863 0
55.435658 -28.586399 -20.22463 5 -0.99999988 0.00050386839 -3.2670567e-05 0.00091924518
-16.964342 -24.253693 -22.639837 32 -0.00052879407 -0.00010915154 0.99999988 0
36.117016 41.419914 4.1838059 24 0.00075188588 0.99999928 0.00087173306 0
-7.4663286 29.816839 20.330029 11 -0.67655772 0.73638898 0.00093846134 5.8462392e-05
20.160395 12.716706 39.752502 2 -0.00011688525 -0.00032226459 -0.99999994 0
55.437038 -36.069183 -12.579072 5 -0.99999815 -0.0019303937 -0.0001374183 0.00099697546
24.245852 -21.333155 -29.9965 3 -0 -0 1 0
0.58625329 31.945984 22.211281 1 -0.0016926242 0.85755813 0.51438427 0
28.177147 12.052066 39.752499 2 -0.00080540619 -0.00036140022 -0.99999958 0
32.276577 -20.066326 -29.978001 3 0.0015274544 -0.00028281228 0.99999875 0.00082410115
4.2568865 -5.0692029 -29.978001 3 0.00011483347 -0.00048299588 0.99999988 0.00056697545
16.361336 18.611296 44.506237 1 0.00055852678 0.85763073 0.51426584 0
6.5827541 15.231537 44.097725 17 -0.0007068729 0.99998337 -0.005725638 0
-5.1618834 -9.8655186 -29.986191 3 -0.0077299317 0.0021631981 0.99996775 0
-4.1897469 -1.4640992 -29.991806 3 -0.0077788159 -4.3197097e-06 0.99996984 0
48.154739 -2.100208 -29.977697 3 -0.00091231772 0.00018676238 0.99999958 0
-40.226517 -36.094093 0.081799999 45 -0.040074285 0.2402115 -0.96989298 0.031660318
41.223183 15.23195 44.266968 17 -0.0042417296 0.99997455 -0.0057476396 2.276345e-05
28.536018 -8.3133984 -29.978001 3 -0 -0 1 0.00024482125
12.439577 28.453234 28.071878 1 -8.1239677e-06 0.85802871 0.51360178 9.0274334e-06
40.224304 23.519232 36.310337 1 0.00082773308 0.85600919 0.51695997 0
28.490913 27.909767 28.978708 1 -0.0003833462 0.85813445 0.51342493 0.00029617254
44.248302 -12.256285 -29.978001 3 0.00099857314 -0.00053928338 0.99999928 0.00073431717
-45.482899 -40.312878 1.925863 77 0.99999982 -0.00061445666 2.5446641e-05 0.00082716887
8.1676254 27.839411 29.090715 1 -0.0021255522 0.85855013 0.51272523 0.00039844765
24.012117 -12.230609 -29.978001 3 0.043527499 0.098127037 0.99422151 0.0066358624
55.414101 -28.562389 -12.595037 5 -0.99999756 0.0020950751 -0.00071926555 0
-60.241135 -46.974606 10.642724 57 0.014029525 0.9998005 -0.014211577 0
-4.1561575 23.597372 36.128826 1 0.0019093831 0.85554063 0.51773208 0
54.778259 -44.069527 2.6646166 5 -0.99999821 -0.0015994132 0.0009632025 0.0019063655
-2.6989195 -12.341995 -29.978001 3 -0.00010486889 -1.4044989e-05 1 0.00049242715
4.6041026 18.730434 44.281284 1 -0.001466384 0.85750657 0.51447093 0
-4.2622557 -4.2366204 -29.98951 3 -0.0079744104 0.0026209457 0.99996483 0
-0.66874635 31.981649 22.147503 1 -0.0014263401 0.85770768 0.51413584 0
24.691536 12.503437 39.752499 2 -0.00085818104 -0.00036749168 -0.99999958 0
28.215355 -20.063192 -29.978001 3 0.00021113234 -0.00010598262 0.99999994 0.00037134427
20.284698 17.667629 -36.272331 9 0.011261246 0.79044133 -0.61243433 0.0018491612
48.147812 10.571477 -29.977701 3 -0.0010877704 -0.00015118415 0.9999994 0
48.452011 12.045732 -29.977165 3 -0.0016199278 0.00045604608 0.99999863 0
20.101547 -12.912653 -29.8647 3 -0.028223008 -0.0061594956 0.99958271 0.0097040143
4.0397611 27.689011 29.327747 1 -0.0020449969 0.85804337 0.51357329 0.00054078636
36.448357 -17.175968 -29.978001 3 0.001593514 -0.0015047633 0.99999762 0.00061557477
40.023163 36.00631 15.458063 1 -0.0035870846 0.8569501 0.51538688 1.7853768e-05
-15.117905 22.823839 28.462317 11 -0.67529541 0.73754591 0.0014573457 0
0.06008172 -16.207674 -29.978001 3 -1.2826984e-05 -5.3209378e-06 1 0
0.66866058 0.2466715 -29.646799 3 0.097146161 0.011926538 0.99519861 0.029269984
16.309967 -12.66054 -29.8647 3 -0.1257048 0.14083929 0.9820196 0.044672076
1.497086 27.822292 29.096693 1 -0.0018943901 0.85792285 0.51377493 0
32.425083 -16.22027 -29.978001 3 -0.056180988 0.0059632878 0.99840283 0.017250801
12.404224 -16.603216 -29.978001 3 -0.00055584876 -0.0009629734 0.9999994 0.00043771372
8.4516993 -16.720129 -29.978001 3 -0 -0 1 0
4.5041962 -16.737061 -29.978001 3 2.6625854e-05 -0.00032889098 1 0.00044053412
44.042572 6.2588654 -29.821699 3 0.00054835121 -3.3158187e-05 0.99999982 0
-45.482899 -40.775932 25.457874 49 0.99999988 0.00018983254 0.00034169859 0
55.4534 -28.656792 8.4299812 5 -0.99791151 -0.045071192 0.046271827 0.0035957622
40.739143 6.5731635 -29.821699 3 -0 -0 1 0
55.435703 -16.691753 -20.367104 5 -0.99999911 0.00064928539 -0.0011583411 0
36.095818 23.682394 36.037872 1 0.00044869553 0.85773939 0.51408458 0
-44.682278 -36.065079 0.081799999 45 0.17565605 0.10317224 -0.97903031 0.11886436
24.231689 -8.011632 -29.978001 3 0.00060045643 0.00021714381 0.99999976 0.00042674501
55.414101 -24.372351 -12.671587 5 -0.99999857 -0.0016675295 1.6452659e-05 0.0015963216
8.3000097 28.024521 28.782219 1 -0.0032090615 0.85832781 0.51309174 0.0014170577
-31.933599 -40.049561 0.50907868 19 0.99490714 0.050880458 0.087011002 0.053028744
24.000919 27.544201 29.589434 1 -0.001082839 0.85825962 0.51321471 0.00044436721
40.319557 -12.027498 -29.978001 3 0.00072647183 0.00017387231 0.99999976 0
-58.767673 -46.974602 9.7662106 57 0.0020507942 0.9999972 -0.0011663422 0
-0.59585428 23.575422 36.177517 1 -0.0017491857 0.85683018 0.51559579 0
-13.119615 24.650414 28.109434 11 -0.67431623 0.73844194 -0.0010220471 0.00043673572
0.98396349 -12.171278 -29.978001 3 -9.3350664e-06 2.8602535e-06 1 0
8.2900143 -4.356338 -29.978001 3 -0.00093557109 -0.00028991987 0.99999952 0.00018210067
20.185982 18.696177 44.364502 1 -0.00046866768 0.85814959 0.51339954 5.5859782e-05
8.4911814 15.231552 44.108746 17 8.4925814e-05 0.99999678 -0.0025510818 0
54.778381 -40.024395 1.7609634 5 -0.99999857 0.001661834 -0.00036124865 0
-0.64916152 -8.0330353 -29.978003 3 2.1059348e-05 3.0977077e-07 1 0
-44.4814 -30.697567 3.6206381 84 0.9999215 0.0054925987 0.011264728 0.001264486
24.122456 -1.1452377 -29.978001 3 0.00058541447 8.0066529e-06 0.99999988 0.00044544137
55.434898 -16.204145 -12.141007 5 -0.99999988 -0.00036702727 0.0002249471 0
4.9433937 -12.247099 -29.978001 3 -0 -0 1 0
-11.968769 25.70245 28.44376 11 -0.67474902 0.7380473 6.7025649e-05 0
20.072945 -16.126789 -29.978001 3 0.037091728 0.042445309 0.99841005 0.0028916684
12.697072 -12.408439 -29.978001 3 0.061231568 -0.044979937 0.99710959 0.014768666
-0.30785036 27.99704 28.798931 1 -0.0018212367 0.85773838 0.51408327 0.00011375538
28.002148 -16.13497 -29.977999 3 -0.047883578 0.11049736 0.99272227 0.056349825
8.8882217 31.493999 22.993738 1 -0.0016007707 0.85781622 0.51395416 0.00069802161
36.542706 12.587385 39.75256 2 -0.0023048024 0.00023119654 -0.99999726 0
55.435627 -24.635586 -20.137394 5 -0.9999994 0.0010628321 0.00017753708 0
8.0139933 -12.225294 -29.978001 3 0.00039863595 -0.00010902892 0.99999988 0.0006410373
-4.1671185 27.753736 29.191929 1 -0.0020973971 0.85758263 0.51434201 0.00067400112
-45.482899 -44.360409 2.7764482 77 0.99999934 0.0011260707 8.1352009e-06 0
55.434898 -32.053879 -12.628958 5 -0.99999642 -0.0019694862 -0.001833329 0
24.169455 -16.345043 -29.978001 3 -9.6526979e-05 0.00083455787 0.99999958 0
44.054577 -0.81743747 -29.821697 3 0 0 1 0.00019380107
44.109203 1.1502167 -29.821697 3 0.00045347144 5.501894e-05 0.99999994 0.0001235283
-44.4814 -32.021801 2.3817346 84 0.99772787 -0.056466863 0.036750287 0.0050472724
24.451672 -4.8782024 -29.978001 3 0.00051772507 0.00050901237 0.99999976 0
36.397278 18.346704 44.947983 1 0.00088115467 0.8588025 0.51230592 3.4024499e-05
55.414101 -20.011303 -13.305992 5 -1 -0 -0 0
16.33712 -16.109127 -29.978001 3 -0.004358991 0.022196056 0.99974412 0.0086864764
18.86256 17.728859 -36.170708 9 0.00071118766 0.85670084 -0.51581311 0.00024422849
44.344711 9.3852911 -29.821697 3 0.0095910449 0.06754379 0.99767017 0.0035347515
44.070892 12.703648 -29.976852 3 -0 -0 1 0.00084184564
32.634995 15.231893 44.246643 17 0.00021463851 0.99999285 -0.0037601488 0
20.907339 -8.3341217 -29.978001 3 -0.00021517 -0.00012287851 1 0
4.0358968 28.102392 28.637814 1 -0.0014077704 0.85794467 0.51374018 0.00025584709
32.301815 23.32696 36.631413 1 0.00033147429 0.85770208 0.51414686 0
20.122339 27.741852 29.259628 1 0.00086858857 0.85853529 0.51275367 0.00058862253
36.062195 -13.361841 -29.978001 3 -0 -0 1 0
0.62470198 23.668865 36.025696 1 -0.0015859253 0.85816103 0.51337814 0
28.023041 23.601585 36.17289 1 -9.1228248e-05 0.85802865 0.51360178 0.00023656613
28.005293 15.231831 44.224541 17 -0.00022256382 0.99999756 -0.002198424 0
16.293413 -8.6323013 -29.978001 3 -0.0010763571 -4.3000942e-05 0.9999994 0.00020079238
0.45909476 28.413422 28.106598 1 -0.001894803 0.85724729 0.5149014 0.00044976547
16.294958 27.796532 29.168459 1 0.00037855591 0.85764748 0.51423788 0
32.184254 -13.108326 -29.978001 3 0.0012957737 0.00029941302 0.99999911 0.00071715104
55.50066 -36.038834 8.8042583 5 -0.9858852 -0.085332856 0.14404398 0.0056096516
40.275757 -3.2420969 -29.978001 3 -0.00050633249 -0.00018009254 0.99999976 0
12.2761 -4.2207255 -29.978001 3 0.00031082268 6.2104955e-06 1 0.00030264267
24.596449 18.792536 44.203598 1 4.5955796e-05 0.85765409 0.51422703 0
12.670694 15.232449 44.443466 17 -0.00014060765 0.99999624 -0.0027179155 0
0.7962389 -8.4096966 -29.977999 3 -5.6402173e-06 1.2531588e-06 1 0
-45.482899 -44.474792 11.573931 83 0.98502612 -0.17150721 0.01757445 0.060905054
55.434902 -32.598309 -4.380754 5 -1 5.3246633e-05 0.00013720465 0
8.384059 23.550243 36.24995 1 -0.0029592265 0.85576683 0.5173533 0
4.0340843 23.341696 36.583282 1 -0.0019239469 0.85753733 0.51441818 0
-45.482899 -44.237823 25.333498 49 0.99999791 -0.0018726554 -0.00072613166 0
55.4534 -32.656761 8.1383457 5 -0.99975204 -0.0008170451 0.022251038 0
40.652927 1.26577 -29.821701 3 -0.05103682 -0.014213894 0.9985956 0.0063812146
12.205095 18.889584 44.041409 1 -0.0012547571 0.8583647 0.51303834 0.00050812366
0.12484872 -4.3111868 -29.978001 3 7.1162052e-05 0.00011066638 1 0.00027822997
0.90331304 -0.73781669 -29.646799 3 0.016537692 0.0046955766 0.99985212 0.017275393
12.230997 23.691753 36.022736 1 -0.00041259005 0.8579967 0.51365501 0.00042311021
-31.933598 -44.096291 8.1711159 19 0.99689847 -0.048453249 0.062013809 0.038133174
24.309395 23.400692 36.508587 1 -0.000357226 0.85855186 0.51272666 0
24.162399 15.231478 44.098236 17 0.00040949893 0.99999577 -0.0028920851 0
12.428116 -8.6371489 -29.978001 3 0.00020285104 -0.00067520165 0.99999982 0.00043813576
-1.1404083 28.437592 28.060839 1 -0.001815984 0.85774922 0.51406515 0.00037968051
12.036348 27.68149 29.360558 1 0.0002829773 0.85738474 0.51467592 0.00059124862
28.081308 -12.682854 -29.87801 3 0.073341049 0.093426928 0.99292123 0.053183664
8.115324 33.055119 20.385656 1 -0.0019558345 0.85734487 0.51473868 0.00014923615
55.435631 -21.002735 -20.153114 5 -0.99999976 -0.00021273571 -0.00056896149 0
20.068495 22.891253 37.359436 1 -1.0877963e-05 0.85767341 0.51419473 0
20.301167 15.231419 44.077545 17 0.00012277406 0.99999541 -0.0030209781 0
8.3812265 -8.0417147 -29.978001 3 0.00090129767 -0.00016692157 0.99999958 0
-4.4153972 28.068144 28.666351 1 -0.00028512953 0.85797083 0.51369828 0.00015919146
16.3358 23.618908 36.144375 1 -0.00096605858 0.85848248 0.51284206 0.00069178315
12.836374 17.763416 -36.11845 9 0.001773291 0.8567552 -0.51572031 0.0002485569
-44.4814 -36.169445 24.009417 73 0.98500174 -0.050551683 -0.16497308 0.058514521
55.4534 -24.960991 8.7060604 5 -0.98891747 0.062810093 0.13452524 0.0029893427
41.047592 9.2182531 -29.821697 3 0.00060578145 0.00040483332 0.9999997 0.00030628033
24.08153 9.2493525 -29.978001 3 0.0002989136 0.0010039528 0.99999946 0.00063147
55.434898 -4.3655643 -12.703419 5 -1 0.00026464043 -0.00016722783 0
24.509354 12.331428 -29.978001 3 -0.00017714157 -0.00014176115 1 0
55.278595 -0.64088964 -12.175298 5 -0.99999988 -0.00013334741 -0.00047491284 0.00061193283
16.381817 -4.4878674 -29.978001 3 0.00091633992 -4.6055549e-05 0.99999958 0.00096502784
28.91111 18.785864 44.214626 1 -0.0014435174 0.85835052 0.51306188 0.00048102965
16.207685 15.231268 44.023777 17 -0.00023430717 0.99999374 -0.0035265051 0.00011884422
5.0396867 -8.1640329 -29.978001 3 -0 -0 1 0.00067878829
-44.4814 -32.247459 24.333988 73 0.98120999 -0.16483799 -0.10027698 0.058912974
55.4534 -20.257267 8.2590103 5 -0.99994785 0.006185791 0.0081272284 0.00080384657
40.330952 13.441034 -29.977051 3 0.0011412959 -0.00066395896 0.99999911 0
0.53474331 8.1970549 -29.821697 66 -0.00011224394 0.00026665113 1 0.00036550686
20.050213 -4.2789488 -29.978001 3 0.0023055077 0.0018939421 0.99999553 0.00064155052
32.3237 18.345558 44.949894 1 0.00022854534 0.85821569 0.51328921 0.00017946404
-32.103642 -28.050556 0.6833092 19 1 0.00038010068 0.00010700178 0
36.09729 -2.7703438 -29.978001 3 -1.0718258e-05 -3.9638067e-05 1 0.00015550059
40.022141 -5.6370983 -29.978001 3 3.7870759e-05 -7.4570446e-05 1 0
52.491722 18.698923 44.35981 1 -0.0039708833 0.85804319 0.51356208 6.3478969e-05
-36.071911 -32.183659 0.081799999 45 -2.473402e-06 -9.046542e-07 -1 0
32.056904 -6.0201831 -29.978001 3 0.00045418777 -9.9261844e-05 0.99999994 0.00056899089
44.287483 18.261217 45.09074 1 -0.0064947507 0.86062616 0.50919586 0.00014491164
-15.805223 -44.199223 32.150501 35 0 0 -1 0
1.95153 12.302911 -29.981947 3 -0.00058221718 0.010092476 0.99994886 0.00035394996
-40.122635 -32.160187 0.081799999 45 -1.5896916e-06 -7.7927075e-07 -1 0
28.115664 -6.8259492 -29.978001 3 2.3586806e-05 -5.9340571e-05 1 0.00032514049
40.260586 18.572451 44.571007 1 -0.00023776402 0.85771841 0.51411974 0
-32.103706 -32.072109 2.3074365 19 1 5.5426972e-06 6.8704845e-05 0
36.035408 -4.5760803 -29.978001 3 0.0018166974 -0.00067271717 0.99999809 0.0007278893
48.682945 18.867489 44.078323 1 0.00051434059 0.85777211 0.51402992 0
-32.103657 -24.030981 1.5852414 19 0.99999958 0.00079012918 0.00036723039 0
36.120399 2.6363392 -29.978001 3 -4.2360432e-05 7.5096337e-05 1 0.00035305895
4.0466909 -0.48730016 -29.821701 3 0.088858761 0.060334399 0.99421525 0.029245535
-32.103573 -12.033979 0.42854548 19 1 0.00017384587 7.1866605e-05 0
36.225712 12.030388 -29.977989 3 0.0017147004 0.00035269794 0.99999845 0.00078026555
-32.103592 -20.244772 0.14995635 19 1 -4.0094192e-06 3.7446964e-05 0
36.40081 4.0149908 -29.978001 3 -0.00037572894 2.4026526e-06 0.99999988 0.00034086371
-32.103874 -24.267225 8.0701056 19 0.99997395 0.0069168969 -0.0020304169 0
8.7171698 17.71294 -36.214985 9 0.0016966127 0.8563711 -0.51635808 0
-32.10358 -16.081959 0.18324399 19 0.99999988 0.00025225873 8.1710888e-05 0
36.22094 8.73456 -29.978001 3 -0.00062490028 0.00050671567 0.9999997 0
-36.121964 -30.240099 0.035984289 96 -0.035940025 0.12932548 0.99095064 0.030207172
32.036568 -2.8015988 -29.978001 3 -9.1374613e-07 -3.2061558e-05 1 0
4.9341774 12.324286 -29.978001 3 -0.0022065293 0.0032604784 0.99999219 0
8.1227455 -0.65814984 -29.978001 3 0.00022885915 0.00042232525 0.99999988 0.00041181428
4.1849995 3.3403525 -29.821701 66 0.00014008218 -5.5647052e-07 1 0
55.435699 -12.004889 -20.387655 5 -1 -0 -0 0
6.9677892 8.0287848 -29.978001 3 4.5608907e-05 9.2179471e-05 1 0.00039034252
-36.00935 -37.887798 17.962992 25 0.00029493557 0.99999964 -0.00085575663 0.00064099318
4.1651459 4.0989962 -29.821701 66 -3.2411914e-05 -7.3469942e-06 1 0
32.103512 12.570033 -29.978001 3 0.00089141849 -0.00031265683 0.99999958 0.00049186905
-40.712975 -30.522432 0.1142 45 0.017085694 0.031062925 -0.99937141 0.0072307386
28.207836 -1.1983224 -29.978001 3 -0.00053475244 0.00022091219 0.99999982 0
32.218414 1.212559 -29.978001 3 1.8906154e-06 7.772258e-06 1 0.00047211433
54.776375 -44.436016 16.19738 5 -0.99999869 0.00042823746 0.0015844785 0
-31.933599 -44.197052 16.213675 19 0.99811715 0.048606414 -0.03741191 0.039605547
12.068008 -2.5918388 -29.978001 3 0.00033827315 -0.00014166627 0.99999994 0.00049060181
32.072124 4.1545191 -29.978001 3 0.00026660928 6.156911e-05 1 0.00047415865
4.1543474 17.71903 -36.218948 9 0.0092712473 0.82531768 -0.5645926 0.00099699222
32.053093 8.288537 -29.978001 3 0.00065475382 -6.8760337e-06 0.99999976 0.00043166216
-32.1133 -28.086073 16.984289 19 0.99999893 -0.00031055004 -0.0014569456 0
8.7424812 12.211182 -29.978001 3 -0 -0 1 0
8.2517242 0.98481715 -29.978001 3 3.9644572e-05 7.1774293e-06 1 0.00033919644
55.435654 -8.5265226 -20.283459 5 -0.99999964 -0.0001718211 -0.00081254175 0
28.124052 2.6082916 -29.978001 3 0.0014416997 0.00072195363 0.99999869 0.00055548077
-16.099312 17.858654 -36.049568 9 0.0021253929 0.85548896 -0.51781672 0
-32.1133 -32.218204 17.609297 19 1 -0 -0 0
8.0396814 9.3858232 -29.977999 3 9.9040539e-05 4.8297934e-06 1 0
20.201675 -2.8171942 -29.978001 3 -0.0012687673 -0.0029866751 0.9999947 0
16.04067 -0.82736731 -29.978001 3 0.00051543018 -0.00016340413 0.99999988 0.00044980962
-32.3218 -36.782547 16.016882 19 0.96639544 0.23758379 0.098152608 0.00061544887
8.1950092 4.3144732 -29.978001 3 1.3877047e-05 8.9906396e-05 1 0.00022351017
54.776299 -40.057251 16.7822 5 -0.99999958 -0.0008458792 0.00015497813 0
-31.651901 -40.430199 16.901924 19 0.99777585 -0.041314512 0.052311059 0.034795403
12.147861 0.28531921 -29.978001 3 -0.010268829 -0.0092666587 0.99990427 0
28.244297 12.00902 -29.978001 3 -0.00025230728 -0.0010177367 0.99999946 0
28.251625 4.6579413 -29.978001 3 -0.00027441015 -5.8296519e-05 0.99999988 0.00050883304
0.89980745 17.764046 -36.154232 9 0.0017589995 0.85644376 -0.51623726 0
28.122696 8.3605938 -29.978001 3 -0 -0 1 0
55.43573 -4.5319386 -20.50428 5 -0.9999994 1.4844381e-05 -0.0010606719 0
55.414101 -28.045471 17.359035 5 -0.99999946 -0.0010044638 0.00034854855 0.00090114906
12.004727 12.161074 -29.978001 3 0.00022304263 0.00010055835 0.99999994 0.0002448085
20.860874 0.84898853 -29.978001 3 -0.0027084213 0.0011199189 0.99999571 0
55.435715 4.3142276 -20.473652 5 -1 -0.00011260659 2.4266343e-05 0
16.095329 1.7144992 -29.978001 3 0.0021785998 9.1307069e-05 0.99999762 0
55.434898 -36.196915 16.474728 5 -0.99999982 -0.00051790464 -0.00029612909 0
-31.933599 -37.976318 16.391701 19 0.94169563 0.33546048 0.025994182 0.010514984
12.690267 4.2517118 -29.978001 3 0 0 1 0.0001919216
55.435619 -2.1629667 -20.189432 5 -1 0.0001576354 0.00010612972 0.0004706172
-31.651899 -40.338631 24.259907 19 0.99391204 0.10772832 0.023095837 0.040138092
-12.276187 17.797148 -36.139915 9 -0.0082093924 0.83017331 -0.55744511 0.0017327839
55.434898 -32.953342 16.547852 5 -1 0 0 0
12.219358 9.1526613 -29.978001 3 -8.6094924e-06 0.00010338296 1 0.00030793302
21.257849 12.292204 -29.978001 3 0.00035392281 -3.4529825e-05 0.99999988 0.00035467849
16.183075 12.049125 -29.978003 3 -0.000915193 0.00035717161 0.99999958 0
16.181257 4.5238714 -29.978001 3 0 0 1 0
20.128693 4.5858436 -29.978001 3 -0.00039480493 0.0082303053 0.99996608 0
-9.4454174 17.624212 -36.418381 9 -0.024091268 0.84355474 -0.53650248 0.0003625782
16.4842 8.3328257 -29.978001 3 1.7062412e-05 7.5977165e-05 1 0.00012701342
-4.4942203 17.749416 -36.195175 9 0.00088238 0.85735363 -0.51472706 0.00037187111
20.23551 8.3588734 -29.978001 3 0.0004420421 -0.00012405479 0.99999994 0.00040783637
-8.307353 20.187378 -32.158089 9 0.0016013627 0.84555525 -0.53388554 0
-13.627765 -41.244362 36.071346 23 1 -9.0100966e-06 0.00017874289 5.5006716e-05
-8.2683258 19.645098 -33.058563 9 0.0016332761 0.85687876 -0.51551533 0.0001998497
-13.628119 -44.09074 36.902672 23 0.99960643 0.01554522 -0.023353742 7.198489e-05
-4.3363709 20.213474 -32.102493 9 0.0015594305 0.85640013 -0.51631039 0
-10.656388 -40.023304 39.001373 2 0.001189925 -0.0018019852 -0.99999774 0.00069491635
-6.0343833 19.765234 -32.85215 9 0.0013849168 0.85660702 -0.51596755 6.719691e-05
-9.0656233 -44.224838 39.00351 2 0.0013491717 0.00023726607 -0.99999911 0
24.767357 19.991861 -32.414745 9 -0.00038629049 0.85615504 -0.51671886 0
55.278599 0.1471902 -16.339674 5 -0.99999934 -7.6338823e-05 -0.0011829224 0.0011440919
-32.104263 -28.028564 21.094498 19 0.99990815 -0.0016624316 -0.013452626 0.00084058126
-5.1933675 -44.033669 39.008713 2 0.0014647736 -0.0011871515 -0.99999821 0.00024033549
26.031246 20.163189 -32.130386 9 1.5173792e-05 0.85655469 -0.51605618 0.00035313869
55.278595 4.8819847 -16.093321 5 -1 -0 -0 0.00074195821
-32.104244 -24.32725 21.13056 19 1 0 0 0
-6.4015789 -40.055813 39.007092 2 0.0015671692 -0.0010005014 -0.99999833 0
0.98518372 20.226353 -32.06469 9 0.0014453596 0.85636538 -0.51636833 0
-2.2926102 -40.054283 39.012611 2 0.0015839805 0.0011894265 -0.99999809 0
1.7596574 19.953911 -32.514755 9 0.0018370703 0.8573792 -0.51468194 2.4331885e-05
-2.862021 -44.191238 39.011845 2 0.0010789161 0.00040235775 -0.99999934 0.00048676811
4.5921721 20.181725 -32.12767 9 0.0015795858 0.85675532 -0.51572073 0
1.1872315 -40.21777 39.017288 2 0.0013955415 0.0016685071 -0.99999762 0
4.1091833 19.891073 -32.611866 9 0.0023768062 0.85585403 -0.51721197 0
1.1178613 -44.071091 39.017197 2 0.0011996131 0.00035323508 -0.99999917 0
-32.1133 -24.041573 12.609436 19 0.99999994 0.00011284229 0.00039285832 0
8.3591785 19.928324 -32.536884 9 0.0014176767 0.85705191 -0.51522803 0.00033995404
5.2566533 -44.174942 39.022758 2 0.0013791308 0.00020348476 -0.99999905 0
-32.1133 -20.393967 12.763471 19 0.99999988 0.00020937993 -0.00038680926 0
8.2776365 20.15662 -32.157993 9 0.0016718482 0.85618591 -0.51666516 0
4.2212319 -40.037498 39.02137 2 0.0010688633 0.002184734 -0.99999708 0.00026539501
12.437905 19.617048 -33.041256 9 0.0012083087 0.85642034 -0.51627791 0
-44.4814 -36.165867 28.116385 73 0.99971229 0.023322586 -0.0056126546 0.021961831
55.434898 -24.504938 12.379508 5 -0.99999994 3.4984329e-05 -0.00036676638 0
12.459977 20.172688 -32.118404 9 -0.0010895405 0.85974956 -0.51071477 0.00010195048
-44.4814 -32.126343 28.035204 73 0.99999917 -0.0011672671 -0.00046630707 0.0024424009
55.434898 -20.196259 12.706917 5 -0.99999934 -0.00021991873 -0.0010838629 0
16.58811 20.042423 -32.330826 9 -0.00021244238 0.85691011 -0.5154658 0.00030307283
16.140343 19.892509 -32.579639 9 5.5679975e-05 0.85670817 -0.51580143 0
14.024125 -44.30444 39.034546 2 0.0015978323 -0.0007512609 -0.99999845 0.00035456609
20.266579 18.914413 -34.203011 9 -4.0633233e-05 0.85633725 -0.51641709 0
16.512608 -44.179672 39.037888 2 0.0014179735 -0.00065541145 -0.99999881 0.00078838679
22.166918 20.003674 -32.395138 9 0.02942786 0.83632928 -0.54743701 0
55.436958 8.5520935 -24.071089 5 -0.99999225 -0.0037550167 0.0012060737 0
-32.103676 -12.448584 4.0841918 19 1 -0.0001925973 2.2967017e-05 0
20.007044 -44.524967 39.042587 2 0.00078657299 -0.00038480066 -0.99999964 0
36.908127 -44.316444 39.065308 2 0.0019684271 0.0031063396 -0.99999332 0
55.437111 12.006936 -24.508757 5 -0.99999899 -0.00015462626 -0.0014083002 0
-40.063721 -10.7692 -0.040729761 20 0.00094512419 0.97139889 -0.23745173 0.021876721
28.273041 19.598343 -33.067982 9 -0.00024784825 0.85660589 -0.51597118 0
24.233891 -44.268059 39.048271 2 0.0014545694 0.00029047704 -0.99999893 0
28.369209 20.067837 -32.28878 9 0.00014836769 0.85700852 -0.51530224 0.00033819256
-28.006903 -8.8682127 4.5742121 20 0.064951114 0.97352183 -0.21917257 0.0018679465
24.50267 -40.262154 39.048634 2 0.0020885644 -0.0050328416 -0.99998522 0.00065979746
28.657194 -44.363922 39.054222 2 0.0029717626 -1.3647324e-05 -0.99999559 0.00062677334
32.95969 20.190088 -32.085552 9 0.003587892 0.85659999 -0.51596868 0
-24.453062 -8.1741381 4.2071261 29 -0.2547949 0.95597899 0.14554608 0
29.081499 -40.153507 39.05479 2 0.0016061474 -0.0026611909 -0.99999517 0.0010468252
32.367027 -45.021084 39.059204 2 0.0011331603 -0.00057028938 -0.99999917 0
36.652603 20.195667 -32.075863 9 -0.00012137208 0.85689694 -0.51548791 0.00052523124
-23.09123 -8.0112543 5.5207257 29 -0.25464636 0.95601755 0.14555326 9.7461707e-06
32.073273 -40.126854 39.058811 2 0.0020918706 -0.0031692625 -0.99999279 0
-28.069275 -8.3177557 -1.1786942 29 -0.25472364 0.95599979 0.14553411 5.9449644e-06
40.352146 19.210335 -33.710693 9 -0.00018520409 0.85678464 -0.51567429 0.00030648598
-44.4814 -31.562225 23.639486 73 0.99634141 0.074181467 -0.042436123 0.072745636
55.434898 -16.012039 5.0166163 5 -0.99999988 -0.0004363445 0.00028125642 0
42.861259 20.066746 -32.289093 9 0.00051652896 0.85606146 -0.51687378 0
55.434898 -12.473721 4.0530295 5 -0.99999994 -1.4012032e-06 -0.0004400257 0
37.491379 -40.024426 39.06609 2 -0.0010769309 0.00046160066 -0.99999934 0
-26.702213 -8.0920467 -0.2686277 29 -0.25482967 0.95597041 0.14554201 0
44.023331 18.992443 -34.071884 9 0.0015625843 0.85680449 -0.51563913 0.00023055183
56.29771 15.221703 -25.753428 17 -0.055206414 0.99800813 0.030529398 0.00081309036
40.354897 -44.266842 39.069939 2 0.0019196423 -0.00087613333 -0.99999779 0.00028215573
-24.016703 -7.3254385 -0.60391974 29 -0.25460631 0.95600986 0.14567357 1.3182214e-05
45.941647 20.160007 -32.133953 9 -5.2523188e-05 0.85649419 -0.51615667 0
59.976955 19.631937 -26.049076 10 0.70586425 0.70834535 0.0016301428 0.00040959186
40.70982 -40.050205 39.070419 2 0.0024732924 -0.00025947834 -0.99999696 0.00026943994
48.059067 18.184902 -35.411613 9 0.00085471786 0.8564418 -0.51624292 3.5644127e-05
60.362274 15.233074 -24.050987 17 -0.16652529 0.98502952 0.044566747 0.026001805
44.172028 -44.637672 39.075073 2 0.0039544813 -0.0067038569 -0.99996972 0.00046023697
56.361557 19.993996 -32.408253 9 0.0030663784 0.85643709 -0.51624233 9.6691641e-05
52.343346 -44.201794 39.08606 2 0.0037755901 -0.00080016162 -0.99999255 0.00050163438
52.040375 19.883263 -32.592533 9 0.00034254498 0.85620332 -0.51663888 0
