58.0679 26.5511 -8.41712 0.671032 0.150201 -0.726055 
43.1935 1.25504 40.0092 -0.0255117 -0.00115825 0.999674 
14.1966 -13.334 -30.3866 -0.383046 0.360661 0.850411 
42.7641 21.5848 -29.7698 7.22474e-05 0.856534 -0.51609 
55.4349 -6.47201 18.8749 0.999996 -0.00270779 -0.000570864 
-39.8561 -7.57707 20.4717 -0.385862 0.921489 -0.0443576 
6.12965 -8.02979 39.7525 -3.9219e-05 4.76615e-05 1 
56.372 23.2333 13.9778 0.807279 0.585023 0.0777787 
27.4284 15.2239 -31.6224 -0.0172354 -0.768679 -0.639403 
40.2547 37.9382 12.1473 0.286692 0.878461 0.382248 
54.8279 24.7773 16.4396 0.704469 0.702011 -0.104425 
33.8348 16.3282 45.4415 -0.0168356 -0.625149 0.780324 
-0.754214 30.035 25.3961 -0.00634282 0.858801 0.51227 
-34.8129 -37.8878 2.54467 0.1873 0.975993 0.111159 
-42.495 -37.8878 29.5366 -0.381659 0.176596 0.907276 
20.4229 -15.9224 -38.1474 -0.0017774 0.762505 -0.64698 
3.40246 20.5037 -31.5966 0.00159683 0.856666 -0.515868 
14.3637 -8.42111 39.7525 -9.45027e-05 5.32954e-05 1 
-12.9323 30.3181 -4.03736 -0.196278 0.85279 -0.483967 
-32.1044 -26.558 26.9786 -0.999314 0.0286371 -0.0234738 
-32.9747 -37.8878 6.77838 -0.956686 -0.290365 0.0209578 
-34.0587 -37.8878 2.37076 0.798711 0.543667 -0.257853 
-18.685 15.2316 1.83909 -0.466225 -0.88423 -0.0277745 
14.2299 39.6523 0.215811 0.00931742 0.872287 -0.488905 
40.1407 -25.3961 39.959 0.00111755 -0.00675314 0.999977 
57.5352 28.4638 4.53578 0.949419 0.31401 0.00131544 
-20.7397 16.4948 -6.90999 -0.951615 -0.307209 -0.00717516 
-29.0875 -8.89965 -22.3079 -0.131441 0.939246 -0.317082 
55.4349 -23.7655 -2.69651 0.999969 0.000980871 -0.00778085 
19.1071 46.0154 -11.4604 -0.684927 0.260806 -0.680334 
-33.0146 -36.2272 -0.0955 -0.88983 -0.109398 -0.442985 
-9.14135 -14.6964 -30.0135 0.0101162 -0.000338862 -0.999949 
9.65388 -36.5056 39.747 -0.00612926 -0.103243 0.994637 
22.2311 -24.8603 -29.9965 -0.00634847 0.000902061 -0.999979 
-14.6053 -8.6733 25.7901 -0.430776 0.899425 0.0739321 
28.5454 -14.639 -36.5821 0.171529 0.953307 -0.248565 
-0.893181 35.8234 6.14981 -0.56931 0.821403 0.0344037 
54.9123 -38.2847 39.3732 0.696196 -0.205516 0.687804 
14.3405 16.1114 45.427 -0.0434268 -0.584606 0.810155 
31.7896 -25.7185 39.7526 -0.00444286 0.000808935 0.99999 
54.2686 24.8031 5.26811 0.576381 0.816093 0.0421639 
55.4141 -21.8589 18.5149 0.999868 -0.0112708 0.0116655 
-23.3205 -10.6719 36.0695 0.00404132 0.947638 -0.319322 
56.9862 28.9911 -1.59921 0.722407 0.691217 -0.0186352 
48.3246 14.3963 39.7526 0.0363754 -0.566015 0.823592 
55.4371 -16.6926 -24.3729 1 1.57553e-05 0.000238203 
14.4437 -13.7042 -36.6954 -0.258076 0.852147 -0.455239 
53.3534 15.2773 45.4271 -0.0127143 -0.782143 0.622969 
-41.1078 -36.235 30.8479 -0.0862057 -0.0170967 0.996131 
-43.898 -21.3295 30.0199 -0.997291 0.0165011 -0.0716887 
56.7358 28.836 -6.45636 0.241173 0.80011 -0.549236 
23.4133 25.1277 33.6248 9.11016e-05 0.857911 0.513798 
37.5492 31.3953 23.158 -5.66949e-05 0.857951 0.513731 
39.7781 -10.9668 39.7525 -0.00027161 8.86066e-05 1 
-14.3121 11.2984 -12.0941 -0.986055 -0.164435 -0.0256163 
-29.2827 -10.7692 34.6224 0.0121915 -0.994476 0.104256 
-2.4484 -12.389 39.7525 -0.000272471 6.16034e-05 1 
59.6488 15.2311 15.6823 0.515795 -0.856692 -0.00587357 
61.9798 17.6259 40.385 0.998113 0.0374786 0.0486463 
-14.3083 7.49863 -1.54444 -1 -5.89517e-06 0.000359135 
55.4534 -24.43 7.93697 0.999991 -0.0042421 -0.00087202 
-3.42086 7.55676 -29.9859 0.0165771 -0.00274208 -0.999859 
24.5672 26.4953 -21.6211 -3.94629e-05 0.856538 -0.516084 
54.7775 -39.9572 7.86504 0.994441 -0.105221 -0.00387601 
-17.6055 27.6645 12.8685 -0.961971 0.271176 0.0327877 
45.4613 13.4498 -29.9764 0.00217442 -0.36553 -0.930797 
-33.1994 -29.5982 29.5177 -0.941255 0.337695 0.000336717 
29.656 27.2427 30.0926 8.62944e-05 0.857914 0.513793 
-22.59 -31.6963 32.6364 -0.000334518 9.93805e-05 1 
-14.3182 -34.4953 -29.5806 -0.710436 -0.0366085 -0.702809 
-11.7345 -14.318 -30.0419 -0.24269 0.00520096 -0.97009 
33.356 -27.4482 39.959 0.000775001 -0.000771452 0.999999 
-44.1132 -29.2917 1.07351 -0.892341 -0.177473 -0.415008 
-4.3618 23.0495 -27.3926 0.00158522 0.856635 -0.51592 
6.05486 34.2402 18.4009 -0.0015397 0.857806 0.513972 
-35.4846 -10.7692 4.63909 0.248385 0.965743 -0.0751351 
39.7374 18.4708 -34.9381 -0.0294739 0.602908 -0.797266 
61.1224 15.7104 2.12671 0.670812 -0.739169 0.0603379 
29.6767 18.1711 -35.4366 -0.00837986 0.550627 -0.834709 
-23.8601 -8.36353 7.68759 -0.0686707 0.994664 -0.0769915 
13.3888 27.7732 29.2075 -0.000101112 0.857904 0.51381 
-33.2383 -37.8878 26.2447 0.952446 0.304318 0.0154157 
-5.02407 25.4392 -23.426 0.00130643 0.856717 -0.515785 
-17.5539 27.0454 -1.47784 -0.997935 0.0630188 0.0124615 
28.4873 -10.1161 39.7525 -0.000269353 8.00124e-05 1 
31.3511 -7.55293 -29.978 0.000142355 -1.60712e-05 -1 
-27.1665 -39.7725 32.1505 -0.0654285 -0.0542598 0.996381 
13.0407 31.2002 23.4849 -2.76243e-05 0.85793 0.513768 
11.5035 -16.2666 -30.2561 0.0954624 -0.272002 -0.95755 
40.0407 38.2257 -2.07141 0.268977 0.88599 -0.377722 
-5.17437 -24.7913 39.7317 0.0012597 -0.000858677 0.999999 
-16.5522 -14.3213 32.639 -0.287653 -0.18294 0.9401 
55.4349 -8.05483 37.3634 0.96417 -0.0375207 0.262619 
-31.9394 -19.5804 -22.6449 -0.665214 0.0261315 -0.746196 
13.0592 33.4237 -10.1217 4.22303e-05 0.856528 -0.516101 
55.6913 26.7665 9.18184 0.54869 -0.826997 -0.122536 
-44.4814 -33.7416 2.53608 -0.984671 -0.00162875 -0.174414 
32.7612 17.0095 -36.7532 -0.0293989 0.221625 -0.974689 
15.9667 -7.05663 39.7525 -0.000153387 3.75239e-05 1 
17.1386 -36.1813 -30.0563 -0.0141445 0.0080875 -0.999867 
24.763 -13.2196 39.7525 -0.000179202 0.000111664 1 
-47.9452 -39.6721 8.28914 -0.788379 0.61224 -0.0601663 
0.781064 -39.556 -29.3885 -0.00715785 -0.0933876 -0.995604 
54.7772 -38.7401 10.105 0.993028 -0.11787 -0.00114884 
17.0574 -17.6541 -30.2051 -0.0656769 -0.0369468 -0.997157 
56.4024 29.5756 1.51145 0.77774 0.626989 -0.0447857 
-0.521541 -25.3659 -29.9296 -0.00681889 -0.0114884 -0.999911 
14.162 -13.3472 -31.1891 0.560993 -0.790173 -0.246806 
17.9731 41.4204 5.64568 0.0178784 0.98719 0.158543 
-15.0903 30.4661 7.4689 -0.765526 0.642757 -0.0288657 
-32.1034 -30.0741 -6.53039 -0.999841 -0.0171064 0.00499331 
-5.00948 -33.7447 39.717 -0.00231085 -0.020868 0.99978 
39.4221 15.2288 43.16 0.0708608 -0.863485 0.499371 
-14.2977 0.761717 27.9241 -0.999836 0.00449442 -0.017519 
30.0114 -27.2455 -29.978 0.014538 -0.00147532 -0.999893 
13.0488 16.3378 -35.7328 0.00518657 -0.548353 -0.836231 
33.7963 22.412 38.1593 3.74154e-05 0.857939 0.513752 
55.4359 -14.3702 -20.9832 0.999999 0.000966893 -0.000468381 
57.2649 26.9318 18.2202 0.473301 0.337185 0.813813 
55.4401 -34.3435 -24.6587 0.999504 -0.0313535 0.00291171 
55.4534 -21.5641 2.78897 0.999936 -0.00652209 0.00919883 
16.6446 -29.3442 -30.0683 -0.00207783 -0.00170363 -0.999996 
20.8585 42.7411 -11.2872 0.128204 0.0395249 0.99096 
15.345 -2.4279 -29.978 4.76448e-05 -1.05047e-05 -1 
9.62962 7.95289 -29.978 0.00703489 0.00146423 -0.999974 
40.977 -1.64141 39.5963 -0.0149171 0.0145615 0.999783 
-32.1034 -35.2585 -5.4852 -0.999287 -0.0377518 -0.000969871 
58.2395 27.6929 18.1502 0.453032 0.273225 0.848593 
40.0923 -5.54065 39.7525 -0.000477376 0.00527653 0.999986 
28.7446 28.1977 28.4979 3.28056e-05 0.857829 0.513936 
19.6234 1.13807 39.7525 -0.000178431 -8.95094e-06 1 
16.0003 -38.8463 39.0372 0.00549042 -0.120614 0.992684 
32.709 35.0817 17.0022 4.7898e-05 0.85791 0.513799 
-43.1307 -36.2965 30.9972 -0.221133 0.0151233 0.975126 
-14.295 -16.1326 35.135 -0.949292 0.0155253 0.314012 
-14.3176 -25.1168 -27.5462 -0.95075 -0.0384491 -0.307565 
-43.898 -32.4642 30.3096 -0.589296 0.0444899 0.806692 
-45.5025 -34.9014 23.1164 -0.832496 -0.117391 0.541452 
-30.9916 -4.84646 20.1083 -0.0612324 0.992902 0.101962 
55.4349 -5.40521 1.54153 1 -2.72958e-05 8.0862e-06 
55.4349 -7.32003 17.0784 1 -6.15277e-05 6.67752e-05 
-14.3018 5.96736 16.3837 -0.999984 0.000158647 0.00565546 
-4.82844 12.9389 -30.0112 0.0174255 -0.350786 -0.936293 
-34.013 -11.8008 -3.11514 -0.707718 -0.693323 -0.135789 
55.4349 -6.16425 -10.2385 0.999983 -0.0057012 0.000668091 
55.4349 -6.29471 -11.9021 0.999987 -0.00515077 0.00013721 
-14.2943 -10.2969 37.3545 -0.823299 -0.062852 0.564117 
44.4816 35.1216 2.048 0.503957 0.85245 -0.139127 
-32.103 -11.6014 -20.8013 -0.951363 -0.163751 -0.260948 
-35.5791 -36.4302 -0.1808 -0.0433421 0.0104547 -0.999006 
28.9623 -39.1751 -32.6828 0.394581 0.876639 -0.275336 
1.15553 8.64529 -29.8217 0.00730236 -0.0236794 -0.999693 
19.8166 -32.5124 -29.9965 0.00979667 0.00800945 -0.99992 
23.0203 28.4572 28.0648 1.5004e-05 0.857914 0.513793 
-7.6298 -27.6564 39.7364 -0.0122197 0.000708698 0.999925 
-17.1156 -33.5672 32.6387 -0.256811 -0.0178434 0.966297 
-34.7489 -37.8878 17.6234 -0.178182 -0.983683 0.0248908 
55.4359 12.3503 -19.7067 0.978897 -0.204271 -0.00579156 
21.3703 38.3505 11.5443 1.3108e-05 0.857884 0.513844 
55.4349 0.145396 -2.89246 1 -1.2194e-09 -4.71644e-06 
5.705 -19.3638 -29.9296 0.00263565 0.00138262 -0.999996 
24.6778 15.2228 -31.235 -0.0545591 -0.829014 -0.55656 
-5.35999 -23.7394 39.9088 0.000804259 0.00125953 0.999999 
37.4782 15.2299 43.5462 0.0726321 -0.867698 0.491757 
18.327 34.6788 -9.79018 -0.0637422 0.732009 -0.678307 
-14.3017 -1.66837 16.7196 -0.999978 -0.00560154 -0.0036729 
55.4349 -12.8939 -13.6195 0.999995 0.00311994 0.000214134 
-14.2609 31.1905 4.6373 -0.790376 0.612457 -0.0142045 
56.1231 18.0619 45.4236 0.0189573 0.426867 0.904116 
-9.24309 27.9238 17.409 -0.4676 0.855761 0.221413 
-37.9093 -10.7692 13.4127 0.0851313 0.995674 0.0372341 
-18.5498 -6.69921 15.853 0.0334974 0.99737 -0.0642804 
-24.0976 -31.4216 32.6358 -0.000424715 -1.17447e-05 1 
55.4349 -1.53677 -3.59208 1 9.24175e-06 -1.5578e-05 
-10.8052 27.9091 17.4172 -0.402394 0.881921 0.245548 
35.038 41.4188 6.22432 0.0537352 0.979233 0.195486 
-44.1132 -23.2899 1.69294 -0.977468 -0.0341579 0.208302 
26.4531 -39.9956 -35.5864 0.00476937 0.865328 -0.501182 
-15.2716 -16.9326 -22.6393 -0.439155 -0.0263488 -0.898025 
-12.7584 31.5166 3.07145 -0.702917 0.710373 -0.0357556 
-47.2533 -39.6721 10.7339 -0.786846 0.614868 0.0530194 
30.096 -5.09889 39.7525 -0.000292744 3.66517e-05 1 
-1.2314 -1.20042 -30.0356 -0.0575267 -0.0277327 -0.997959 
11.0925 21.1525 40.2609 -0.00107063 0.857785 0.514008 
7.14526 13.7275 39.7437 -0.0355016 -0.444265 0.895192 
41.4458 -4.85447 39.7525 -0.00277776 0.00652526 0.999975 
13.9181 32.3381 -11.9234 -0.0117392 0.854312 -0.519628 
2.43045 35.879 -6.0651 -0.102619 0.881994 -0.459952 
-15.7988 22.0078 13.3827 -0.845653 0.531143 0.0525231 
25.749 14.1528 -29.978 0.00606256 -0.638906 -0.769261 
60.7048 15.234 -30.3437 0.563996 -0.824049 -0.0534072 
54.3557 25.2495 18.5605 0.590327 0.752007 0.293256 
-40.1986 -10.7692 33.5084 -0.0507135 0.98019 0.191457 
-1.72332 33.3969 -10.2 -0.212852 0.889862 -0.403535 
27.4101 32.1632 -12.2145 0.0145257 0.847169 -0.531124 
27.799 -17.0828 -29.978 -0.0351244 -0.119368 -0.992229 
15.7766 22.0789 38.7159 -1.8257e-05 0.857944 0.513744 
28.8816 -10.5894 -29.978 0.0774931 0.117152 -0.990086 
41.8094 -7.32128 -29.978 -0.000169921 -0.00307885 -0.999995 
27.9397 37.1816 -3.88556 0.0126828 0.863232 -0.504648 
47.9923 -14.0481 -29.9778 0.0024987 0.00334787 -0.999991 
-31.4929 -9.35345 -0.367789 -0.357767 0.93183 -0.0607923 
-39.2873 -38.2084 -1.0176 -0.0375264 0.0986984 -0.99441 
-40.8453 -37.8878 8.99759 -0.0464321 -0.997486 -0.0535291 
24.2749 -10.5529 -30.4769 0.0631994 0.172713 -0.982943 
31.6214 -15.3928 -31.2604 -0.37707 -0.919147 -0.113962 
-20.5419 16.4514 -24.2048 -0.999688 0.00577814 -0.0242824 
55.4384 -8.18791 -28.3539 0.890109 -0.0248511 -0.45507 
39.5947 -9.10338 -29.978 0.000212519 -1.53114e-05 -1 
54.1535 24.9162 2.9735 0.577956 0.816051 0.00522949 
22.6432 48.1062 -9.53896 0.434833 0.849046 -0.30007 
-0.237211 28.7799 27.4926 -0.0017429 0.857781 0.514012 
18.3594 29.1796 26.8589 1.19293e-05 0.857971 0.513698 
62.2281 16.6616 -0.776155 0.92869 -0.370368 -0.0190165 
55.4349 -24.5673 30.8597 0.999935 0.00027337 0.0114251 
55.4367 -13.8187 -23.2144 1 3.55762e-05 0.000356938 
41.7647 -36.6799 39.7525 0.00571144 -0.098848 0.995086 
10.7228 14.0249 -29.978 0.0562402 -0.493174 -0.868111 
43.75 -16.6405 -29.978 0.00140423 0.00421593 -0.99999 
39.1336 18.5219 44.6554 -0.0449406 0.667354 0.743384 
30.6441 -31.5377 39.7526 -0.00691938 -0.00311859 0.999971 
55.4349 -16.9259 1.64796 0.999967 0.00815754 -0.000489505 
-13.7739 31.6058 7.44067 -0.694333 0.719071 0.0289548 
50.0467 -33.7597 -29.9774 0.00223511 -0.00982985 -0.999949 
-23.8799 -10.7789 -22.6422 0.0301695 0.738161 -0.67395 
-40.6025 -7.82876 24.9191 -0.277557 0.953697 0.115863 
-21.6059 -6.10461 16.7719 -0.160258 -0.985269 0.0596897 
3.94835 40.2487 5.81494 -0.469887 0.877653 0.0945086 
30.9637 15.2215 40.5439 0.0551271 -0.765439 0.641143 
43.0472 -38.0639 39.6686 0.00287075 -0.114857 0.993378 
39.7067 39.8957 3.90477 0.529954 0.84521 -0.0690489 
-45.4829 -39.9137 27.4769 -0.963645 0.245332 0.105834 
16.3479 25.622 -23.0702 4.68557e-06 0.856551 -0.516063 
-32.1036 -29.732 -0.762906 -0.976339 0.191869 -0.0997408 
-32.1045 -15.9313 29.2478 -0.988468 -0.0179822 0.150356 
38.449 15.6887 -35.6764 0.0639397 -0.820021 -0.56875 
39.824 -17.8097 -30.1844 -0.00244694 0.00232687 -0.999994 
37.807 -15.766 -29.978 -0.00517571 0.00691474 -0.999963 
-14.1245 -0.678429 -16.2277 -0.999581 0.0181212 0.0225526 
30.0546 -15.2272 -29.8647 -0.113916 -0.100339 -0.988411 
-14.2945 -7.53011 36.7956 -0.904795 0.193944 0.37912 
53.3935 33.41 6.65207 0.528208 0.838029 0.136761 
26.1452 9.15221 -29.978 8.63837e-05 4.04228e-05 -1 
-21.6176 -6.51985 -13.3665 -0.107675 0.981678 -0.157206 
35.5844 -11.8083 39.7525 -0.000144626 7.66062e-05 1 
54.3403 -25.5079 39.7525 0.533178 -0.0931605 0.840858 
-32.1133 -30.6659 16.963 -0.9999 0.00133285 -0.014078 
19.046 -6.1556 -29.978 -0.00406139 0.0466211 -0.998904 
-30.0942 -6.92671 10.5677 -0.0817026 0.945512 -0.31517 
58.1549 15.2269 22.3451 0.468846 -0.882756 0.0304105 
-12.7784 -15.3392 39.6751 -0.426607 -0.0443233 0.903351 
-40.72 -10.7692 25.948 0.0028918 0.998909 0.0466076 
-32.1032 -33.4825 -12.4345 -0.999961 -0.00808898 -0.00356681 
-14.3152 1.66573 -20.8279 -0.999999 -0.000464923 -0.00143912 
-14.1245 3.91981 21.5797 -0.999505 0.00243817 0.0313562 
-37.3671 -10.7692 21.9232 0.24569 0.957596 0.15049 
58.8356 26.5953 -1.82758 0.976369 -0.215658 0.0140007 
10.3958 -29.3114 -29.978 0.0112442 -0.00183756 -0.999935 
21.3453 -38.0639 -30.4761 -0.0714259 -0.12104 -0.990074 
-32.3218 -36.4323 14.393 -0.9996 0.015314 -0.0237752 
-29.3777 -8.49769 -19.3295 -0.342362 0.915898 -0.20957 
-16.4794 23.8558 0.138117 -0.983669 0.170041 0.0589974 
55.4534 -23.2847 -0.335919 0.999999 -0.000627565 0.00135953 
46.6432 -9.72381 -29.978 0.000308905 -1.44502e-05 -1 
-35.3452 -10.7692 30.1309 0.244952 0.965032 -0.0933412 
16.4143 30.1753 25.1963 -1.52043e-05 0.857892 0.51383 
-44.29 -37.8878 26.0827 -0.965579 0.240066 0.100127 
-17.556 26.5109 -2.2933 -0.999138 -0.0399735 0.0111976 
-14.294 -3.99355 37.9151 -0.919162 0.0098194 0.393758 
55.4898 15.2195 -5.98586 0.688978 -0.724174 0.0296791 
6.20505 37.0761 13.6682 -0.00957258 0.859937 0.510311 
50.6421 30.628 12.9134 0.26166 0.874457 0.408483 
20.3445 16.3534 -35.8017 -0.0498072 -0.557132 -0.828929 
24.5302 26.1035 31.9951 2.87833e-05 0.857954 0.513727 
47.4797 20.274 -31.9446 -8.94877e-05 0.856537 -0.516085 
-32.3218 -19.6837 9.2405 -0.999976 0.00260027 -0.00635529 
16.0476 37.8173 12.4351 -7.38281e-07 0.857934 0.513759 
-16.4515 -16.53 32.639 -0.334225 0.0155979 0.942364 
59.9073 19.6982 36.8589 0.883397 0.468209 0.0197558 
16.1325 16.4942 46.2186 -0.0599046 -0.111678 0.991937 
37.567 -27.7944 39.7041 0.00460385 0.00186619 0.999988 
7.34583 41.4229 5.76056 -0.104508 0.985493 0.133719 
-12.7959 -30.7369 -30.0535 -0.436091 -0.0106806 -0.899839 
36.3426 27.0609 30.3961 7.39205e-06 0.857923 0.513778 
-14.3179 -9.64198 -28.4859 -0.86923 0.0295586 -0.493524 
7.84664 -3.98022 -29.978 0.011998 -0.00829712 -0.999894 
-4.56624 32.2181 10.7276 -0.462157 0.854877 0.235789 
44.786 23.4791 36.3773 -4.81226e-05 0.857986 0.513673 
60.7553 15.2342 20.1107 0.60046 -0.79894 -0.0338039 
-45.623 -12.4951 0.196012 -0.850576 0.131523 -0.509138 
-19.7504 18.5878 18.5985 -0.921839 0.383354 -0.0570353 
-17.8955 15.2294 25.1464 -0.486486 -0.873618 -0.0110709 
-10.4948 16.3976 -36.0067 0.0904795 -0.615457 -0.78296 
2.60706 -4.41567 -29.978 0.0118261 -0.0680028 -0.997615 
-43.2065 -8.70694 23.4038 -0.276877 0.96075 0.0172766 
-30.5456 -39.2852 -22.4179 -0.476329 -0.0654996 -0.876824 
11.5342 -12.3014 -29.978 -0.124034 0.270814 -0.954607 
-11.2986 -30.1919 -30.0371 -0.18494 0.0164051 -0.982613 
-6.76341 -2.01542 -30.0117 0.00625014 -0.000749881 -0.99998 
55.4349 -6.87438 16.3681 1 -4.79335e-05 9.99758e-05 
-7.25659 27.2224 30.0682 -0.094838 0.882414 0.460816 
59.9057 15.2318 23.4595 0.430485 -0.901287 0.048633 
41.4609 -34.5406 -29.9775 -0.00139134 -0.0379554 -0.999278 
-14.3166 -3.9372 -24.68 -1 3.38904e-06 0.000311943 
-4.31409 32.6966 9.21332 -0.40207 0.871874 0.279599 
-32.1037 -16.4691 3.53628 -1 1.62446e-06 -3.15463e-05 
26.0207 -5.09536 -29.978 8.31912e-05 -2.61079e-05 -1 
-19.2119 -7.44143 7.88073 -0.18504 0.978319 0.0930141 
10.9969 26.2818 31.6978 -0.000612342 0.857859 0.513885 
-23.0912 -8.01125 5.52073 -0.178325 0.982463 0.0544606 
-17.1871 -10.7692 -25.2408 -0.291348 -0.395948 -0.870828 
-32.1036 -32.1491 -0.939151 -0.959015 0.0485669 -0.279162 
-4.14839 4.0865 -29.9915 -0.00845341 0.0226117 -0.999709 
-15.1599 22.7835 -5.61174 -0.819013 0.547486 -0.171686 
27.4141 -11.6419 -30.9812 0.164615 0.295308 -0.941114 
-20.164 18.2094 -11.8858 -0.980184 0.194217 0.0389645 
-15.0983 22.8396 -3.70357 -0.818978 0.571009 -0.0567696 
41.4736 31.9598 -12.5515 0.00418248 0.857754 -0.514043 
-31.6519 -39.3099 -7.92095 -0.997448 -0.0713862 -0.00106081 
-35.3035 -37.9696 32.1066 -0.00732636 0.148222 0.988927 
2.11615 18.3607 44.8899 -0.0428535 0.56092 0.82676 
-13.3329 26.7665 -0.695513 0.317383 0.947657 -0.034852 
-41.7731 -39.7066 -0.6541 -0.0583543 0.228718 -0.971742 
-13.7007 26.7665 -3.52178 -0.490164 0.8149 0.309316 
55.4349 -22.0396 -6.33244 0.999936 0.000186791 0.011352 
-1.71669 32.9856 -10.883 -0.184853 0.89109 -0.414472 
-1.83131 28.4434 -18.4268 0.00159296 0.856672 -0.515858 
55.4141 -21.4407 -14.7685 0.999933 -0.0106445 -0.00458568 
-19.4563 -6.80453 3.81744 -0.239159 0.95823 0.156835 
55.437 -15.5067 -24.1028 1 4.04916e-05 0.000199173 
16.364 -15.3943 -30.7479 0.0850948 -0.324294 -0.942121 
20.4439 -12.2817 -33.1323 0.139644 0.886569 -0.441016 
-15.4298 26.5856 18.0791 -0.440157 0.368028 0.819035 
-27.4209 -20.8647 32.6344 -0.0360567 0.00288127 0.999346 
-2.75622 34.1205 2.13373 -0.44412 0.88162 -0.1597 
-38.2754 -37.9369 -0.930637 -0.00430635 0.0790702 -0.99686 
-33.3913 -9.75022 -1.08411 -0.173728 0.976689 -0.126088 
60.7868 15.2343 39.1678 0.664943 -0.745902 0.0384946 
-14.31 0.445362 -6.43401 -0.999999 0.00153352 -0.000568309 
45.6754 -29.0803 -29.9572 -0.00221993 0.00254814 -0.999994 
-8.68437 34.3777 8.23622 -0.0635862 0.888578 0.454296 
21.0715 38.8302 -1.14904 -1.22741e-05 0.856531 -0.516095 
-33.3992 -10.7692 33.0824 0.164647 0.986353 -0.000191827 
23.1649 -10.3108 -29.8647 0.0137362 0.142289 -0.98973 
55.4534 -18.8724 1.89975 0.999993 0.0034511 0.00163563 
19.073 41.4177 4.91915 0.0345033 0.997788 0.0568219 
24.2317 -8.01163 -29.978 -0.00946979 0.132449 -0.991145 
-32.1043 -26.6811 20.9534 -0.99998 0.000993931 0.00621643 
-0.562247 13.9332 39.7156 -0.00594858 -0.397699 0.917497 
17.2361 15.2226 40.9258 -0.0101267 -0.755701 0.654839 
47.9858 -8.95536 39.7526 -0.000452265 5.64231e-05 1 
57.6066 28.4016 7.8738 0.976435 0.21092 0.045681 
55.4349 -34.3657 10.8921 0.999588 -0.0277129 0.00753998 
55.4349 -33.7779 -8.7164 0.999851 -0.017101 0.00238799 
15.566 -15.011 39.7525 -0.000133574 8.03678e-05 1 
-5.51038 34.2973 7.49979 -0.0862559 0.938195 0.335185 
42.8349 19.9801 -32.4329 0.0231172 0.765582 -0.642923 
28.626 -9.81064 39.7525 -0.000199436 5.54255e-05 1 
-8.38875 28.9722 0.599998 -0.757682 0.64417 0.104706 
4.57021 40.4663 2.4482 -0.36407 0.90848 -0.205225 
-15.1439 22.6982 16.6534 -0.852654 0.522431 -0.00691025 
8.11821 34.4909 17.9893 -0.000947344 0.857865 0.513875 
-45.5025 -31.8996 22.6796 -0.571288 0.0184509 0.820542 
33.0285 -36.9143 -29.9778 0.113378 -0.02303 -0.993285 
-31.6519 -38.9105 -8.99907 -0.996908 -0.07857 -0.00035894 
55.9101 16.2478 45.4271 0.0202215 -0.445357 0.895125 
-17.4646 20.6769 -8.15862 -0.712974 0.699664 -0.0462425 
-11.6571 26.0777 -1.07102 -0.435487 0.899786 0.0271436 
49.8497 29.1656 15.5163 0.514862 0.834502 0.196277 
-24.6638 -11.8008 35.8234 -0.00328664 -0.739628 0.673007 
-17.2297 28.1131 18.0797 -0.569664 0.461811 0.679863 
-19.0076 -9.82641 -25.7984 -0.0748833 0.993747 -0.0828253 
32.307 -18.6639 39.7525 -0.00452884 0.000634151 0.99999 
55.4349 -10.2993 -13.542 1 2.55555e-05 1.86725e-05 
-18.9966 19.2765 -24.69 -0.86989 0.493179 -0.00817244 
41.0681 -36.8766 -29.9773 -0.00525759 -0.0916276 -0.995779 
10.5004 1.93913 -29.978 0.0033146 0.000397112 -0.999994 
39.9696 15.2225 -31.1054 -0.0570969 -0.721535 -0.690019 
25.036 -2.42786 39.7525 -0.000225452 4.41592e-05 1 
-14.3316 -16.9593 32.6399 -0.673996 0.0279049 0.738208 
-31.6352 -7.43815 8.29536 -0.161884 0.9358 -0.313166 
46.326 10.7682 39.7526 0.00708443 -0.0588747 0.99824 
18.6089 -4.20668 -29.978 9.56035e-05 -2.23161e-05 -1 
57.758 16.2237 45.4271 0.14868 -0.742165 0.653517 
-20.4372 -11.1925 32.6373 0.0421309 0.501461 0.864154 
8.32618 29.8174 25.79 -0.00121565 0.85781 0.513965 
19.5041 -5.54544 -29.978 -0.000709004 0.0205236 -0.999789 
-7.46202 -4.50104 -30.0138 0.00771717 -0.00138125 -0.999969 
20.9073 -8.33412 -29.978 -0.0318031 0.152492 -0.987793 
50.588 -36.5144 39.7525 0.0174734 -0.106095 0.994202 
-13.0975 24.6683 4.9585 -0.50672 0.858384 0.0800787 
49.4725 -29.2435 -29.9773 0.00883429 -0.000590098 -0.999961 
-43.898 -30.3204 30.6952 -0.475575 -0.0520105 0.878137 
59.0199 26.419 5.91735 0.991018 -0.123397 -0.0515421 
-19.4564 -14.8958 -22.6407 0.00259418 -0.165754 -0.986164 
27.2273 -11.8704 -29.978 0.0262532 0.129162 -0.991276 
-14.2485 -5.34442 22.3517 -0.974423 0.223882 0.0193826 
19.1327 -36.8362 39.7525 0.00790019 -0.102521 0.994699 
15.9801 22.4126 38.1587 2.219e-06 0.857867 0.513871 
18.6646 41.4194 5.39459 0.0358995 0.992422 0.117515 
55.4349 10.6248 18.9791 0.999567 -0.0290718 0.00444953 
-14.1912 -37.9813 35.2427 -0.935077 -0.156771 0.317889 
-32.1037 -12.7406 5.40614 -0.996696 -0.0734339 -0.0346996 
19.8914 -8.94539 -29.978 -0.0296041 0.17647 -0.983861 
-32.5882 -10.7692 -0.211485 -0.208725 0.969568 -0.127952 
-45.9952 -38.7388 5.42027 -0.95703 0.227707 -0.179565 
46.295 -3.30705 -29.978 -1.53545e-05 0.0074027 -0.999973 
-32.1044 -14.2579 25.1609 -0.986628 -0.162826 -0.00725996 
-20.6644 -10.9266 -26.1176 0.00878338 -0.874438 -0.485058 
3.27767 -28.5028 -29.9296 -0.00401729 0.000358851 -0.999992 
-19.4492 18.8627 -10.9148 -0.933453 0.357866 0.0244595 
-17.9443 15.2295 11.0336 -0.518038 -0.854152 0.0454002 
55.4349 -15.0703 34.6918 1 -4.86733e-05 0.000138142 
20.9513 33.8993 -7.99826 0.0333287 0.847147 -0.530313 
51.2235 28.3817 -6.64321 0.578334 0.80682 -0.120711 
-14.2976 0.859083 28.1302 -0.999846 0.00337117 -0.0172435 
19.5787 25.0574 33.7423 2.18815e-05 0.85789 0.513833 
-32.1033 -32.7534 -9.78784 -0.999829 -0.0179654 -0.00435146 
22.9673 -15.8705 -38.5341 0.0136755 0.758244 -0.651828 
55.4349 -0.856532 9.92736 1 -1.04759e-06 4.52538e-05 
56.2205 30.9613 6.13618 0.753662 0.656838 -0.0236128 
-1.91719 34.8874 8.52657 -0.54991 0.827863 0.11064 
-21.5636 -7.29448 3.48629 -0.247552 0.957175 0.150115 
-14.3093 9.38605 -4.28255 -1 1.96641e-06 0.000362391 
-1.43547 35.7046 5.59797 -0.522088 0.852769 0.014442 
-32.3545 -29.4898 -10.3097 -0.99986 -0.0153573 -0.00670966 
23.1023 -38.0639 -29.6548 -0.0168719 -0.121197 -0.992485 
18.7571 -4.41161 39.7525 -0.000151446 3.61879e-05 1 
49.5053 32.3763 9.80167 0.129509 0.914248 0.383898 
54.7772 24.8274 4.82549 0.5823 0.812038 0.0390043 
-28.8958 -8.35721 -17.459 -0.319065 0.946991 -0.037499 
-32.1034 -32.5157 -6.68534 -0.999788 -0.0201669 0.00412737 
6.26349 9.80418 -29.978 -0.00268348 -0.00462465 -0.999986 
-28.0196 -33.2424 -22.6435 -0.0898339 -0.0253703 -0.995634 
8.41555 -9.39721 39.7525 -5.01205e-05 7.29883e-05 1 
-13.5656 24.2432 30.8656 -0.580404 0.807671 0.10392 
50.4787 33.0351 8.62908 0.0672324 0.917139 0.392855 
-43.898 -18.5986 29.2681 -0.998485 0.0234633 -0.0497686 
-9.53329 26.9484 29.8337 -0.33463 0.892034 0.303805 
-14.3183 -5.79265 -29.5212 -0.859673 0.021452 -0.510394 
-16.839 25.4865 3.40834 -0.998232 -0.0594377 -0.000719958 
55.4349 -3.31307 26.5541 0.999926 0.0108024 -0.00564764 
55.4371 -11.0245 -24.4337 1 4.66087e-05 0.000277118 
0.410229 19.7932 42.4933 -0.0200321 0.707355 0.706574 
7.84298 11.1584 -29.978 -0.00231697 -0.102475 -0.994733 
59.1997 27.6278 -7.12087 0.812844 0.411057 -0.412695 
-4.99671 -28.5816 39.7317 -0.00118997 -0.00108074 0.999999 
-32.1044 -25.14 28.0966 0.999437 -0.0177341 -0.0284669 
-12.2181 31.6152 11.7413 -0.256102 0.827867 0.499047 
-5.96817 24.7223 34.2452 -0.0033871 0.858347 0.513058 
38.6982 -21.2477 39.7041 -0.00596324 -0.000236188 0.999982 
-44.6063 -10.7692 16.063 -0.226573 0.973891 -0.0141994 
40.4789 31.7826 22.5113 -0.000132595 0.857966 0.513706 
-16.3773 -27.4698 -22.6396 -0.380176 -0.00386176 -0.924906 
55.4141 -24.4568 24.9297 0.999895 0.000979723 -0.0144476 
-41.922 -30.3712 0.1142 -0.185147 -0.0115169 -0.982643 
5.50873 -26.4381 -29.9296 0.00328746 6.52916e-05 -0.999995 
50.9307 -6.66942 -29.9766 0.0366549 -0.0019885 -0.999326 
11.8939 28.4202 -18.4261 0.000548224 0.856544 -0.516074 
55.1492 -38.2206 -22.5246 0.994092 -0.108483 0.00369896 
15.9451 -26.619 -30.2051 -0.00446295 0.000205851 -0.99999 
-13.4125 -1.69817 -30.0632 -0.561571 -0.00235717 -0.827425 
-14.4549 29.409 16.1117 -0.204646 0.824147 0.528112 
53.4622 28.1389 18.3986 0.25009 0.863794 0.437396 
-20.684 16.4824 31.7019 -0.973372 -0.228457 -0.0188193 
-23.9268 -36.9602 32.6358 -0.00112548 -0.0778439 0.996965 
52.5319 26.5097 5.55231 0.643834 0.764638 0.0284028 
-14.6604 -34.2573 -22.639 -0.688305 -0.0270568 -0.724917 
38.7514 -1.68876 -29.978 0.00071587 0.00577079 -0.999983 
9.37163 40.3031 1.29625 -0.00916019 0.897368 -0.441188 
18.6831 29.246 26.748 -1.46652e-05 0.857954 0.513726 
55.4349 -0.675957 -4.29454 1 1.47541e-06 -1.3372e-05 
-35.213 -37.8878 29.4733 0.334469 0.141827 0.931673 
55.4349 -10.107 -3.41121 1 -9.28932e-05 -2.49614e-05 
43.6744 35.9286 4.37278 0.580504 0.813749 -0.0287506 
58.2584 21.3496 -21.6525 0.705767 0.708441 -0.00218019 
27.0979 -15.7415 -29.978 -0.0556779 -0.0992696 -0.993502 
20.9574 17.487 46.3836 -0.00975333 0.313891 0.949409 
55.4349 -5.21333 -5.27541 1 1.61847e-05 4.92006e-06 
-14.3136 13.0632 -16.2218 -0.938845 -0.344337 0.00136539 
61.9379 16.5045 13.845 0.934415 -0.355235 0.0260328 
-37.2245 -37.8878 12.6299 -0.00033806 1 0.000135976 
-14.3045 9.60357 8.93221 -1 -1.29945e-05 0.000357845 
-8.25567 -17.5311 -30.0038 0.0052695 0.00307933 -0.999981 
62.2281 17.0863 5.03988 0.999631 0.0264663 0.00606516 
-2.21401 15.2235 41.1909 -0.0366643 -0.686963 0.725766 
58.9998 20.6061 -6.43718 0.756351 0.654166 8.75288e-05 
-44.5922 -37.2837 7.63392 0.981363 -0.173289 0.0830539 
12.1294 -5.71111 39.7525 -6.57352e-05 5.40897e-05 1 
-44.3576 -37.8878 12.1627 -0.480935 0.874082 0.0684313 
36.7 -17.13 -29.978 0.0118105 -0.00141152 -0.999929 
-32.3218 -17.7135 13.2823 -0.999979 0.00479781 0.00442442 
55.4349 10.9686 -8.20275 0.997286 -0.0735913 -0.00211749 
36.8641 11.5098 -29.978 -0.0146282 -0.131897 -0.991156 
-32.1045 -20.9876 29.8715 -0.960878 -0.017626 0.27641 
10.5934 12.0314 -29.978 0.0114932 -0.206623 -0.978353 
-25.9899 -7.68134 -17.73 -0.127814 0.980795 -0.147326 
25.0846 15.2238 41.3743 -0.0264445 -0.760861 0.648376 
36.2985 37.4104 13.1133 0.00772967 0.86018 0.509931 
21.5351 -39.9956 -35.5792 -0.0100433 0.866973 -0.498254 
55.4349 13.3973 -8.81224 0.921977 -0.387135 -0.00922284 
25.9835 -34.1562 39.7525 -6.19793e-05 -0.0241464 0.999708 
-13.2185 31.0423 11.044 -0.493244 0.766563 0.411208 
23.0605 46.7339 -6.7612 0.477949 0.290632 0.828914 
3.59279 22.877 37.3574 -0.00173855 0.857817 0.513953 
16.6132 -34.3187 39.7525 0.000198078 -0.0223453 0.99975 
-29.5484 -10.7692 34.2914 0.000455181 -0.976556 0.215261 
43.2498 36.354 -2.86979 0.605499 0.788259 -0.10963 
55.4385 -27.7382 -24.9217 1 0.000111606 0.000709797 
-3.24047 33.6782 10.5915 -0.553379 0.815146 0.171199 
-15.0396 15.2213 -22.3194 -0.503375 -0.864068 0.000290853 
-10.0558 14.0433 -30.0417 -0.0861983 -0.536044 -0.839778 
-33.3694 -5.89289 13.6063 -0.112933 0.963398 -0.243126 
-2.02813 -21.5109 39.7318 -0.0020572 -0.00609621 0.999979 
-14.2946 10.8999 36.5819 -0.97394 -0.0149459 0.226311 
15.0956 35.8644 15.6963 4.34992e-05 0.857927 0.513772 
60.4432 17.7045 -35.6295 0.547269 0.326814 -0.770512 
19.9119 15.2271 -32.7839 -0.00626185 -0.83977 -0.542906 
62.2281 16.7213 16.1045 0.962603 -0.26713 0.0451231 
-32.1133 -26.3515 15.5209 -0.99996 -4.57748e-06 -0.00890845 
23.7865 41.3987 6.45412 -0.00999869 0.970773 0.239793 
-15.2918 15.2221 -13.0088 -0.478191 -0.878255 0.000792062 
22.1929 -10.1398 -30.0312 -0.0130423 0.175774 -0.984344 
-14.1341 26.7082 -8.58 -0.324511 0.594357 -0.735821 
-3.45163 25.2967 33.295 -0.00173579 0.857841 0.513911 
2.289 29.8012 -16.1592 0.00159688 0.856695 -0.515821 
20.4994 38.6547 11.0364 5.37517e-05 0.857938 0.513753 
25.3384 38.9217 -0.997394 -7.82542e-05 0.856628 -0.515935 
24.8515 23.8559 -26.0016 -4.79775e-05 0.856524 -0.516106 
-14.3054 10.9604 6.6327 -0.996332 -0.0837705 -0.0174567 
23.8273 32.1142 -12.2956 0.00831095 0.817309 -0.576139 
-1.88009 21.6573 39.3744 -0.00173274 0.857842 0.51391 
-43.898 -11.6105 30.3 -0.659849 0.729903 0.178441 
25.4509 -15.0387 -29.978 0.0142524 0.112371 0.993564 
56.2371 23.3682 27.0436 0.707043 0.707171 1.18585e-05 
-44.6697 -9.20039 3.42641 -0.32645 0.93929 -0.105667 
55.4141 -22.4056 -11.6834 0.999954 -0.00407274 -0.00873504 
56.0042 23.6011 9.4361 0.684959 0.719413 -0.115224 
-45.2973 -37.8878 28.0004 -0.973976 0.214348 0.0736634 
21.5724 18.7308 44.3067 -0.0126517 0.619807 0.784653 
60.1281 19.4805 -24.0992 0.901956 0.431206 0.0231574 
-14.3272 -4.50091 -11.6433 -0.893234 0.435429 -0.111957 
-6.36581 -2.64038 -30.0086 0.00449292 -0.00146618 -0.999989 
60.0334 19.574 -15.8122 0.896181 0.443621 -0.00778882 
-27.0002 -10.8086 -26.1178 -0.0392749 -0.992296 -0.117501 
-46.0613 -10.7692 -0.382023 -0.704246 0.402972 -0.58451 
-32.1133 -32.2182 17.6093 -0.999914 0.00736027 -0.0108115 
19.6358 19.8017 -32.7304 -0.0491934 0.719423 -0.692828 
50.2073 29.3967 2.72615 0.818048 0.558216 0.138535 
-8.26264 -20.4473 39.7288 -0.0133561 0.000969801 0.99991 
43.1952 -27.5932 -29.9572 -0.0041952 0.00790729 -0.99996 
-32.1037 -31.0034 1.04465 -0.975607 0.12872 0.177828 
55.4349 -13.9464 -11.6866 0.999984 0.00542222 0.00176289 
55.4349 -5.41247 32.1304 1 -4.14042e-05 0.00041814 
16.6992 -38.0639 -30.1609 -0.0290951 -0.235782 -0.97137 
8.00996 9.91023 -29.978 0.0035295 0.000217553 -0.999994 
-27.6357 -7.98099 -2.77927 -0.275493 0.958807 0.0692354 
-43.4538 -8.79035 14.4184 -0.319291 0.947597 0.0106131 
13.2511 15.223 41.0814 -0.0851897 -0.787061 0.610965 
-20.9757 -7.22266 12.9494 0.0811203 0.973199 -0.215182 
-19.6132 17.0265 -36.2694 -0.640907 -0.258098 -0.722927 
10.3534 -35.8523 -29.978 -0.0322797 0.0613534 -0.997594 
-32.1042 -22.1877 20.9769 -0.999978 0.000972278 0.0065431 
35.7872 -3.28201 -29.978 -0.0036088 -0.00229092 -0.999991 
-17.7691 -10.7692 34.8282 -0.116175 -0.866508 0.485456 
35.483 -33.0707 39.7526 -0.000723142 -0.00482593 0.999988 
-32.1037 -18.1164 2.90469 -1 2.1847e-05 -2.93898e-05 
-8.99755 -12.9383 39.7201 -0.0106308 1.41681e-05 0.999943 
-41.8412 -10.7692 2.29617 -0.165072 0.959675 -0.22754 
-16.0347 15.231 43.9093 -0.0534786 -0.873142 0.484523 
-13.5128 0.0793664 -30.064 -0.566212 0.0220402 -0.823965 
-39.6007 -31.5871 0.0818 -0.0264125 0.00657679 -0.999629 
-9.196 14.1495 -30.0404 0.0208006 -0.449906 -0.892834 
15.5628 -2.24744 39.7525 -0.00018124 2.04438e-05 1 
48.0911 5.16907 39.7526 0.00376786 -8.75475e-06 0.999993 
-19.8738 18.4747 -12.9834 -0.97181 0.23538 0.0134603 
4.47346 18.5578 -34.825 -0.0508013 0.60937 -0.791257 
-33.3113 -32.9311 1.1485 -0.774674 0.113062 0.622171 
49.2113 30.3936 21.245 0.63553 0.767655 0.0825104 
-0.0937754 -6.83395 -29.978 0.000204554 -0.00697321 -0.999976 
-14.3035 2.52304 11.6467 -1 -4.6753e-06 0.000356648 
7.95084 -12.5486 -29.978 -0.0612017 0.0413528 -0.997268 
30.6872 -28.1846 -29.978 0.0120522 0.000916763 -0.999927 
-32.3218 -28.357 20.0483 -0.999998 0.000831949 0.00203013 
-17.4396 19.1609 43.1803 -0.349332 0.783156 0.514426 
-17.3247 26.8161 17.6232 -0.73577 0.123335 0.665906 
52.6953 26.5849 -8.3934 0.595268 0.79871 -0.0878525 
-29.9962 -38.9851 -22.4179 -0.372708 -0.0660793 -0.925593 
-15.2264 15.2219 1.1668 -0.515968 -0.855004 0.0524007 
30.8143 37.0282 13.7518 7.74362e-05 0.857928 0.51377 
55.4141 -23.1952 17.2241 0.999939 -0.00574807 0.00942755 
51.2494 28.4809 16.7805 0.486626 0.852018 0.193032 
52.3119 28.0545 17.494 0.415233 0.884052 0.214555 
41.0921 -31.301 39.959 0.00127141 0.00279024 0.999995 
-32.1037 -25.1433 1.87217 -0.999529 0.0290751 0.00977526 
-32.1031 -22.0405 -14.1241 -0.999758 0.00132501 -0.0219614 
36.8309 -5.14579 39.7525 0.00119436 0.00362688 0.999993 
27.6677 1.79157 39.7525 -0.000232386 1.08785e-05 1 
-2.92729 34.6054 2.7389 -0.377968 0.90714 -0.185036 
18.5497 -32.8893 -29.9965 0.00882913 0.00565974 -0.999945 
55.4349 5.41904 -3.2327 1 5.64825e-05 -4.23465e-05 
55.4534 -26.6959 4.98292 0.999992 0.000658975 -0.0039764 
33.7256 -29.5433 39.959 -0.000161543 0.00336147 0.999994 
-14.3167 6.8158 -24.9098 -1 -8.13225e-06 0.00036552 
50.6455 28.9594 8.43407 0.83559 0.539585 -0.103135 
-14.3043 7.53781 9.46519 -1 8.17912e-07 0.000356124 
60.9451 15.2347 7.25276 0.727232 -0.685915 0.0255735 
26.9063 -23.19 39.7525 -0.000185264 0.000159131 1 
20.8406 -39.9956 -34.0957 -0.00885965 0.931683 -0.363164 
16.8674 -32.5394 39.7525 -5.05528e-05 0.000313911 1 
19.9198 15.5818 45.4271 0.00360002 -0.743702 0.668501 
-40.6669 -37.8878 2.30291 -0.129244 -0.991608 -0.00303138 
-17.4435 -7.68817 12.7464 -0.220381 0.974272 -0.0471714 
13.3431 29.2795 -16.9998 0.000148759 0.856555 -0.516056 
20.0276 39.915 0.651466 -0.00994881 0.8833 -0.468703 
-15.328 26.7665 5.50636 -0.910586 -0.409124 -0.0587446 
22.3436 6.28166 -29.978 2.8671e-05 1.22152e-05 -1 
32.7106 26.6663 31.055 -1.32305e-05 0.857908 0.513804 
56.6936 22.9116 -3.30055 0.808577 0.587476 -0.0328089 
12.0996 -21.0303 -29.978 -0.00298427 -0.00581502 -0.999979 
-32.1497 -20.7002 -7.69192 -0.999912 -0.0126031 0.00409642 
51.0773 30.5162 14.1363 0.284622 0.867224 0.408551 
-13.5627 26.7665 0.05762 0.320292 0.947041 -0.022944 
33.8246 29.9363 25.5943 9.72411e-06 0.857905 0.513808 
55.4349 0.978859 30.1664 0.999985 0.00305312 -0.0045657 
46.5506 27.9997 28.8284 0.0231179 0.864635 0.501869 
52.4947 26.5463 -5.0471 0.714126 0.684014 0.148822 
-6.40192 14.1218 -30.0315 0.00332214 -0.518844 -0.854862 
-3.79762 33.1688 9.8685 -0.489318 0.851227 0.189683 
-14.9906 -24.7504 32.6396 -0.723574 0.0148581 0.690087 
52.7191 26.3258 -3.9891 0.763464 0.637684 0.102378 
56.419 29.1844 -5.88241 0.205149 0.862707 -0.462223 
-7.7082 34.7305 3.93253 -0.022941 0.976496 -0.21431 
4.01924 -25.4304 39.7525 0.00897659 0.00304872 0.999955 
13.8286 -15.1779 -29.8647 0.289256 -0.236135 -0.92767 
58.4897 21.1157 31.342 0.706722 0.707491 0.00033876 
-34.3716 -10.6221 -17.2837 -0.934359 0.355104 -0.0295801 
-17.7482 15.229 29.7897 -0.524723 -0.85084 -0.0271531 
-14.2957 -22.6866 33.2725 -0.863579 -0.0295033 0.50335 
49.4114 32.1888 11.1376 0.20238 0.90472 0.374866 
35.3188 9.88371 39.8346 0.00502544 -0.00700371 0.999963 
-16.6549 -10.7692 -23.8115 -0.312018 0.243604 -0.918315 
-46.1898 -10.8 8.82971 -0.324614 0.945842 0.00284064 
-15.5197 -10.8086 32.6394 -0.812627 0.2398 0.531163 
-35.1172 -5.9789 18.3405 -0.323443 0.946247 0.000542688 
55.4369 -12.8243 -23.91 1 -1.3617e-05 0.000297466 
54.7772 -38.9251 10.5821 0.993363 -0.115007 0.00182624 
-2.93336 -0.511811 -29.9821 -0.049251 -0.00136638 -0.998785 
0.668103 -1.12593 -29.6468 -0.0256993 -0.0316572 -0.999168 
55.4483 -27.984 27.5139 0.999996 0.00252881 -0.00110751 
-1.52344 30.4205 -15.1425 -0.0156798 0.861222 -0.507987 
45.41 16.5598 -36.7137 0.0167538 -0.162508 -0.986565 
27.3606 -2.37232 39.7525 -0.000159169 1.86906e-05 1 
51.655 -15.5025 39.7526 0.136283 -0.0158016 0.990544 
14.464 11.0599 39.7525 0.00969287 -0.102731 0.994662 
-2.49169 -22.9387 39.7317 0.000177709 0.000712814 1 
55.4349 -5.91796 23.4955 0.999979 -0.00654096 8.20084e-05 
37.6467 27.8854 -19.3137 -4.31548e-06 0.856537 -0.516086 
55.4534 -20.5176 -0.230297 0.999999 0.00165062 -0.000255274 
14.642 33.3517 19.8922 3.66741e-05 0.857931 0.513765 
43.8523 8.75211 -29.8217 -0.00139798 -0.0244767 -0.999699 
2.21204 -16.3248 39.7525 0.00386496 0.00322857 0.999987 
-10.8305 -37.5844 -30.0549 -0.205452 -0.157265 -0.965949 
39.6325 36.5661 14.5233 0.114184 0.880113 0.460829 
-10.8045 34.1846 3.81525 -0.461501 0.881882 -0.0964361 
-0.836857 15.2279 42.7643 -0.0332483 -0.809459 0.586234 
-14.318 8.28957 -28.4657 -0.870346 -0.033807 -0.49128 
-25.3138 -10.3362 36.2825 0.0145464 0.98543 0.169459 
-14.2946 -17.777 36.4469 -0.955837 0.0078206 0.293795 
0.37191 36.9804 11.6023 -0.529858 0.833191 0.158252 
-14.3179 8.62104 -28.3091 -0.88713 -0.0281989 -0.460658 
21.5224 -15.4212 -38.5291 -0.00313107 0.760009 -0.649905 
3.26434 31.6641 22.6908 -0.00173088 0.857745 0.514073 
57.2933 22.3121 20.6613 0.72872 0.682608 0.0548997 
50.6156 22.7329 37.6235 0.00460737 0.859294 0.511462 
21.7787 -18.0104 -30.205 -0.0452514 -0.143644 -0.988594 
-16.298 -4.71851 -6.02698 -0.571633 0.819689 -0.0366857 
-32.1032 -14.0033 -10.8572 -0.980762 -0.19483 -0.0121545 
3.6632 31.7465 22.5546 -0.00173495 0.857773 0.514026 
-18.4812 17.9337 45.4886 -0.346601 0.642725 0.683208 
-44.3727 -10.7692 35.4142 -0.10691 0.992161 0.0647099 
56.2303 16.76 46.5663 0.00672907 -0.0825548 0.996564 
8.00255 39.3985 9.79512 -0.0242121 0.868686 0.494772 
-8.94834 28.4023 -8.38248 -0.512883 0.845754 -0.147143 
1.67473 -6.25411 -29.978 -0.00228918 -0.0255899 -0.99967 
-17.9105 15.2294 -3.10416 -0.459035 -0.887312 -0.0443095 
-32.103 -34.7051 -19.9809 -0.967694 -0.0254394 -0.250842 
17.1865 -39.5361 -29.29 0.00249378 0.311724 0.950169 
24.3476 38.1619 -9.62038 0.968441 0.044644 -0.245214 
12.9851 27.5526 -19.866 0.000336245 0.856573 -0.516025 
55.4349 -32.2758 13.8225 0.999991 -0.00314471 0.00290532 
55.7206 23.8847 22.424 0.709017 0.705176 0.00458466 
16.0984 18.5011 44.6902 -0.0653714 0.490598 0.86893 
47.5592 20.9753 -30.7808 -4.51196e-05 0.856535 -0.516089 
55.4369 -15.5539 -23.7464 1 -1.83276e-07 0.0002465 
30.5578 6.15668 -29.978 0.000153111 4.20772e-06 -1 
12.7912 19.9202 42.3205 -0.0381282 0.715429 0.697644 
2.92629 2.90599 -29.8217 0.0144339 0.0888946 -0.995937 
-39.4565 -33.6346 30.7346 -0.00722477 -0.0307603 0.999501 
29.8707 23.8476 35.762 -3.27701e-05 0.857927 0.513772 
30.3335 -20.0994 -29.978 -0.0196365 -0.0590548 -0.998062 
-14.295 -22.3081 35.0676 -0.963111 0.00894667 0.268956 
38.5912 -25.6057 39.7041 -0.00672244 -0.00632013 0.999957 
-38.9221 -37.8878 8.97595 0.000315749 -1 -8.05631e-05 
51.7142 1.43388 -29.9762 0.144069 0.0125402 -0.989488 
40.2172 -2.2717 -30.2346 0.00444187 0.00852864 -0.999954 
55.4382 7.52005 -27.6558 0.944422 -0.0112843 -0.328541 
54.0627 -32.3838 39.7525 0.570752 0.0208722 0.820857 
-15.5347 30.076 9.89564 -0.771066 0.635762 0.0355521 
2.97053 0.664291 -31.6709 0.0441445 0.046535 -0.997941 
-19.5856 18.738 13.7999 -0.915806 0.400959 -0.0230328 
26.8222 -36.7232 -30.205 0.020535 0.144452 -0.989299 
55.4349 -16.4452 16.7413 0.99999 0.00454049 -0.000502679 
-6.6457 18.9764 -34.164 0.0502784 0.645875 -0.761786 
55.4366 4.68204 -22.8864 1 -1.03913e-05 0.000348469 
45.0528 34.5518 12.3441 0.67872 0.733277 0.0405336 
31.09 -14.7177 -35.3526 0.309144 0.946884 -0.0885448 
37.0474 41.4196 4.14721 0.239792 0.965583 -0.100747 
-22.2148 -11.5955 36.062 0.0146717 -0.771008 0.636656 
-32.1033 -11.6879 -7.96452 -0.9949 0.0976725 0.0251727 
-17.2276 15.2275 -18.0786 0.539577 0.841024 0.0391924 
19.6597 15.2274 -32.8659 -0.0149957 -0.834713 -0.550481 
-32.1044 -32.9357 23.7042 0.999893 -0.000200597 -0.0146366 
-4.69092 -34.172 -29.9986 -0.000610652 -0.0313879 -0.999507 
55.4141 -24.9607 -12.7886 0.999978 0.000857374 -0.00661691 
57.5331 22.0721 -3.3061 0.885064 0.464589 -0.0286212 
44.5503 31.3977 23.154 0.0814564 0.876669 0.474148 
-41.5568 -11.3715 -1.41333 -0.140003 0.654711 -0.7428 
-13.3356 24.4511 -13.2747 -0.677792 0.735188 -0.00981238 
55.438 -21.3945 -26.8234 0.984703 0.00575432 -0.174148 
39.7492 38.757 -0.965957 0.332261 0.88114 -0.336446 
-13.1366 24.6326 -0.851165 -0.43811 0.898693 0.0202436 
23.0437 -17.1435 39.7525 -0.000152699 0.000136484 1 
2.48862 34.0093 18.7742 -0.0208731 0.862092 0.506321 
-26.7046 -39.0814 32.1505 -0.016693 -0.0753216 0.99702 
9.17968 -12.1441 -29.978 -0.1131 0.133746 -0.984541 
-14.314 -5.19971 -17.502 -0.953398 0.292856 -0.0725779 
23.5687 4.9216 -29.978 7.65872e-05 1.11829e-05 -1 
-32.3335 -10.7692 24.6993 -0.999712 0.0233425 0.00555697 
46.3719 34.8666 5.36913 0.290374 0.950159 0.113491 
-43.3049 -37.8878 18.0073 -0.396118 0.918199 -0.000814083 
21.8262 16.5413 -36.6336 -0.0625749 -0.451346 -0.890153 
17.6025 33.0206 -10.7909 -0.0153811 0.81579 -0.578143 
-14.2941 -33.6162 37.7397 -0.900073 -0.0384368 0.43404 
-31.3704 -13.3081 32.6328 -0.583511 -0.45607 0.671949 
-14.2617 -7.7258 27.7049 -0.833938 0.550064 0.044466 
-29.2732 -8.74368 32.3952 -0.0696766 0.908413 0.412226 
-4.69487 5.27131 39.5963 0.0292537 0.000114281 0.999572 
-38.8153 -37.8878 18.696 -0.000422554 1 0.00018601 
55.4384 -2.04198 -28.3241 0.895345 0.00734541 -0.445312 
-7.27049 -0.728096 -30.0157 0.00776036 -0.000341263 -0.99997 
40.3351 24.3507 -25.1797 0.000104208 0.856496 -0.516153 
55.4349 9.50659 0.688672 1 6.56023e-05 1.05821e-05 
54.1784 30.1248 13.8828 0.147217 0.877346 0.456717 
-31.6519 -38.9847 25.7012 -0.968628 -0.244936 -0.0420347 
-40.3233 -37.8878 1.14254 -0.0965304 0.0660863 -0.993134 
30.1954 4.35432 39.7525 -0.000236149 -2.10314e-05 1 
-33.6225 -11.4854 -20.6839 -0.951016 -0.293676 -0.0965527 
-33.5791 -8.70354 32.2686 0.0478779 0.978759 0.199345 
28.9446 -35.9363 39.7525 -0.00251125 -0.079621 0.996822 
44.0783 -22.7119 39.7041 0.00370895 -0.00315493 0.999988 
-30.9621 -10.7692 33.9403 -0.0863334 -0.961206 0.261971 
-36.0422 -9.57816 0.0108851 0.00157179 0.978818 -0.204727 
60.4833 19.1264 -31.068 0.771068 0.586313 -0.248378 
55.4396 -37.079 -17.6426 0.995481 -0.0945702 -0.00863107 
61.6357 16.4381 5.60208 0.955301 -0.293117 0.0385116 
11.4587 15.2328 -34.8146 0.0176205 0.880626 0.473485 
-13.2433 31.0226 9.09631 -0.708661 0.688819 0.152735 
-9.29906 30.8614 -3.97365 -0.151043 0.869626 -0.47004 
-34.0855 -37.8878 9.0535 0.568075 0.819202 -0.0787311 
20.3819 18.5605 -34.7905 -0.0782606 0.565568 -0.82098 
18.7201 -30.092 -29.9965 0.0083603 -0.00153101 -0.999964 
55.4356 14.9911 -7.29399 0.723801 -0.688913 0.0388658 
-13.3088 -31.1468 -30.0591 -0.539665 0.00677294 -0.841853 
55.4367 -37.5892 -7.97528 0.994553 -0.104191 0.00288771 
-14.3171 -13.9312 -26.0878 -0.935542 -0.139244 -0.324612 
-31.7295 -38.4028 16.0276 -0.982777 -0.184268 -0.01395 
5.61297 -19.3818 39.7525 0.00566169 -0.000609535 0.999984 
53.7282 21.5312 39.6301 0.0448731 0.86658 0.497017 
-30.1686 -10.7692 -24.2748 0.00456429 -0.979819 -0.199835 
55.4634 -1.87269 26.8053 0.999874 0.0124648 -0.00982894 
45.7029 14.5444 -29.9761 0.0276177 -0.574718 -0.817886 
-12.6658 18.1204 45.241 -0.0566872 0.479696 0.875602 
6.32781 15.2243 41.4993 0.00854268 -0.747868 0.663792 
42.9278 15.2309 -34.1166 -0.0185888 -0.87933 -0.47585 
-28.958 -38.1716 32.4459 -0.253605 -0.0455775 0.966234 
-14.3048 7.46484 8.16056 -1 -7.61427e-06 0.000360002 
18.327 40.2062 -7.42222 -0.987507 0.136074 0.0794588 
-21.0758 16.7038 27.2094 -0.989205 -0.143484 0.0297765 
55.4481 -29.9442 -17.9915 0.999996 -0.00109778 -0.00246665 
27.9849 28.2113 28.4752 -1.53862e-05 0.857926 0.513774 
46.0008 28.8979 27.3284 0.0315646 0.866762 0.497723 
44.4115 25.1861 33.5269 -0.000175319 0.857947 0.513739 
59.6565 19.9488 6.24026 0.841442 0.540315 0.00589176 
-3.38562 17.3944 -36.7814 0.00655706 -0.0456565 -0.998936 
22.6015 35.9025 -6.00817 -0.0834259 0.763881 -0.639942 
-9.04399 26.0008 32.101 -0.135221 0.885498 0.444532 
-7.94651 6.45171 -30.0209 0.00772816 -6.7231e-06 -0.99997 
-10.8238 15.2233 -31.4799 -0.00981371 -0.734031 -0.679045 
40.525 15.0845 -29.9765 -0.0464657 -0.641418 -0.765783 
-5.62679 3.84442 -30.0029 -0.00157238 0.00190138 -0.999997 
27.4044 15.2203 40.0917 -0.010275 -0.767753 0.640664 
-0.779135 14.7376 -30.0222 -0.0213967 -0.604 -0.796697 
59.1838 20.4238 -17.9058 0.74145 0.67098 -0.00622983 
19.6393 41.4168 3.77516 0.00512743 0.99517 -0.0980297 
-8.71271 28.6766 14.5312 -0.561774 0.81581 0.137345 
13.716 -7.39991 -29.978 -0.0218507 0.0433217 -0.998822 
-17.9202 27.9912 3.12329 -0.941612 0.336009 0.021566 
55.4534 -25.6386 8.61383 0.999985 -0.00517499 0.00165192 
32.172 36.9433 -4.28133 6.04914e-05 0.85653 -0.516098 
-32.1037 -29.6628 2.49063 -0.973468 0.10325 0.204204 
46.1984 14.5916 39.7526 -0.0087144 -0.516256 0.85639 
-32.1133 -28.5355 11.6333 -0.999979 0.000568571 0.00645119 
42.827 24.2568 35.0786 6.06273e-05 0.857865 0.513875 
29.9931 -35.2821 39.7525 -0.00522913 -0.0596421 0.998206 
54.2008 30.578 14.039 0.119027 0.851315 0.510975 
-0.0923157 26.7713 -21.1985 0.00159007 0.856664 -0.515872 
54.8866 0.522875 39.7526 0.656713 0.00622076 0.754115 
9.28763 38.8051 10.7859 -0.000500412 0.857929 0.513768 
55.435 -0.843325 -18.2572 0.999932 0.00439221 0.01082 
48.5183 32.1549 10.1956 0.294439 0.906365 0.302999 
58.87 26.7282 12.0077 0.994704 -0.102433 -0.00851101 
47.5696 32.0339 5.90386 0.59697 0.789369 0.14326 
55.4368 -19.5963 -23.5172 1 4.72889e-05 0.000447146 
-32.103 -21.6795 -20.7126 -0.929172 0.00420166 -0.369624 
-0.116039 34.1771 18.4853 -0.153604 0.895016 0.418751 
57.2968 22.3089 -6.52868 0.851541 0.524287 -0.000187797 
40.4438 38.0093 11.7699 0.348749 0.872807 0.341441 
-14.3179 5.47852 -28.3585 -0.879396 -0.0230144 -0.475534 
-16.1706 -9.61801 35.1517 -0.478505 0.737684 0.476293 
55.4534 -31.8777 1.20077 0.999977 -0.00064706 0.00675802 
16.029 32.7773 20.8513 5.18455e-05 0.857955 0.513725 
55.4349 -32.7683 -12.2729 0.999986 -0.00532768 0.00030867 
51.5763 16.8455 -36.751 0.0523282 -0.174298 -0.983302 
24.3476 39.5799 -9.8828 0.981089 -0.0407677 -0.189218 
14.151 -5.88987 -29.978 6.06898e-05 -2.69037e-05 -1 
-32.1036 -28.5432 -1.79824 -0.985067 0.136578 -0.104834 
1.86605 -25.4947 -29.9296 0.00334829 -0.013319 -0.999906 
-37.1161 -37.8878 2.81248 -0.0500891 0.995245 0.0835408 
55.4349 -5.97745 37.7827 0.950085 0.00124576 0.311988 
2.00002 -12.8743 39.7525 0.000158392 0.00104361 0.999999 
-36.1328 -37.8878 19.5075 0.00237414 -0.999997 0.00052758 
43.1032 -29.7361 39.7041 0.000999068 0.00759918 0.999971 
-29.4179 -8.50065 -9.82141 -0.457612 0.889124 0.00703862 
52.5102 -7.84189 39.7526 0.204674 -0.0155317 0.978707 
55.4411 -25.453 -29.9108 0.586287 -0.0404352 -0.809094 
-5.14724 33.3095 0.41551 -0.267444 0.902311 -0.338094 
27.0753 23.2468 -27.0127 -1.66134e-05 0.856539 -0.516082 
-16.1876 21.8439 7.67656 -0.764171 0.644687 -0.0205504 
0.899042 14.0758 39.7192 0.0120914 -0.48428 0.87483 
-45.8081 -37.8878 29.4239 -0.968909 0.189365 0.159237 
39.1668 20.5615 41.2495 5.94086e-05 0.85784 0.513917 
19.9205 26.5064 -21.6024 4.63758e-05 0.856559 -0.516048 
-21.0776 17.042 37.8091 -0.999975 -0.00566131 0.0042014 
23.2922 21.3921 -30.0907 -2.50637e-05 0.856583 -0.51601 
-11.2426 31.0265 13.5043 -0.113811 0.832823 0.541713 
48.9253 10.1569 -29.9774 -0.00135947 0.000425833 -0.999999 
61.2195 16.3465 1.47116 0.828957 -0.559293 -0.00459574 
-3.8644 -1.29072 -29.9893 -0.0452148 -0.0182556 -0.99881 
-14.3524 -5.14743 -8.92648 -0.674941 0.717235 -0.173286 
46.5286 10.1437 -29.9317 -0.00929839 -0.0114206 -0.999892 
