# .PCD v0.7 - Point Cloud Data file format
VERSION 0.7
FIELDS x y z rgb
SIZE 4 4 4 4
TYPE F F F U
COUNT 1 1 1 1
WIDTH 1132
HEIGHT 1
VIEWPOINT 0 0 0 1 0 0 0
POINTS 1132
DATA ascii
-45.407799 -18.677395 30.788343 4285747711
-45.407799 -18.629368 30.79055 4285747711
-43.992622 -17.402023 29.2166 4285747711
-44.283371 -17.346546 29.2166 4285747711
-44.695595 -22.085215 29.2166 4285747711
-45.407803 -21.696674 30.351599 4285747711
-44.969692 -16.97076 29.216599 4285747711
-45.224903 -19.180748 29.2166 4285747711
-45.407799 -18.104355 30.790432 4285747711
-45.305405 -18.836655 31.382999 4285747711
-45.186836 -21.702007 31.382999 4285747711
-45.407799 -22.142469 30.61879 4285747711
-45.407799 -22.572069 29.939941 4285747711
-45.407799 -21.935169 31.201084 4285747711
-45.376244 -22.334202 31.382999 4285747711
-45.407799 -22.281073 29.773996 4285747711
-44.409115 -22.292667 31.382999 4285747711
-44.475243 -22.164082 31.382999 4285747711
-44.278332 -22.231266 31.382999 4285747711
-43.897999 -22.192326 31.381361 4285747711
-43.897999 -22.547895 30.741512 4285747711
-44.525806 -17.790945 31.382999 4285747711
-44.12352 -16.560318 29.216602 4285747711
-44.885078 -17.688488 29.216602 4285747711
-43.897999 -16.479187 29.704643 4285747711
-43.898003 -16.744068 30.236271 4285747711
-43.897999 -16.525398 30.262394 4285747711
-44.641605 -21.728443 29.216602 4285747711
-45.283268 -21.681271 29.2166 4285747711
-44.434574 -22.886974 29.2166 4285747711
-45.407799 -21.554771 29.248413 4285747711
-45.407799 -21.975319 29.744022 4285747711
-45.407799 -22.785097 29.625469 4285747711
-45.407799 -21.845608 30.192442 4285747711
-43.897999 -22.046974 30.180687 4285747711
-44.486214 -17.567835 29.2166 4285747711
-45.407799 -17.737362 29.483971 4285747711
-45.407799 -17.061882 30.13242 4285747711
-45.407799 -16.914017 30.527176 4285747711
-45.407799 -23.051853 29.551952 4285747711
-44.584988 -22.982477 29.216599 4285747711
-44.399555 -22.829815 29.216602 4285747711
-44.386024 -16.427139 31.382999 4285747711
-43.897999 -16.346058 31.32159 4285747711
-43.898003 -16.824318 30.585255 4285747711
-43.897999 -16.059401 30.864557 4285747711
-44.074165 -16.915092 31.382999 4285747711
-44.093033 -16.94698 31.382999 4285747711
-44.649494 -16.64027 31.382999 4285747711
-45.200127 -17.272617 31.382999 4285747711
-44.661648 -16.96316 31.382999 4285747711
-43.909561 -15.666519 31.382999 4285747711
-43.892136 -10.769201 31.637972 4285747711
-44.083302 -10.7692 31.983496 4285747711
-44.137199 -10.515378 31.382999 4285747711
-44.12402 -10.803306 31.382999 4285747711
-44.714951 -9.2156668 30.871914 4285747711
-44.03112 -10.7692 31.373991 4285747711
-44.605927 -10.7692 31.730297 4285747711
-44.411503 -10.7692 31.503895 4285747711
-44.552341 -10.591166 31.382999 4285747711
-44.293747 -10.7692 31.046047 4285747711
-44.92115 -10.7692 31.836258 4285747711
-43.897999 -10.809916 30.9074 4285747711
-45.39476 -10.7692 32.861843 4285747711
-45.806622 -9.5838251 31.012182 4285747711
-44.419518 -10.7692 31.03171 4285747711
-44.102909 -10.7692 30.767473 4285747711
-45.842712 -9.5959949 30.864162 4285747711
-44.348698 -11.290753 31.382999 4285747711
-45.026871 -10.7692 31.217085 4285747711
-45.21418 -10.4075 30.472603 4285747711
-30.915649 -6.6858773 25.907478 4285747711
-31.017811 -6.5610518 25.513935 4285747711
-31.334923 -6.4472146 25.155041 4285747711
-31.54908 -6.4800692 25.258621 4285747711
-31.572962 -6.4711728 25.230574 4285747711
-31.682249 -6.4079742 25.031322 4285747711
-31.126635 -6.424552 25.08359 4285747711
-32.650433 -6.1237593 24.135277 4285747711
-32.628258 -6.4622092 25.202314 4285747711
-32.659924 -6.1461768 24.205952 4285747711
-32.901737 -6.19239 24.35165 4285747711
-31.299049 -6.2574992 24.556919 4285747711
-31.64673 -6.1748137 24.296236 4285747711
-32.313068 -6.5796213 25.572483 4285747711
-32.173031 -6.3887925 24.970852 4285747711
-31.92511 -6.518693 25.380394 4285747711
-33.295135 -6.149538 24.216547 4285747711
-30.767208 -6.4399328 25.13208 4285747711
-30.703485 -6.4685812 25.222404 4285747711
-32.792328 -6.5626769 25.519058 4285747711
-33.865345 -6.3950515 24.990583 4285747711
-33.668076 -6.1827216 24.321167 4285747711
-29.637762 -6.8120418 26.305237 4285747711
-33.593391 -6.5829487 25.58297 4285747711
-33.84874 -6.6512122 25.798189 4285747711
-31.770233 -6.719182 26.01248 4285747711
-31.605402 -6.7381186 26.072178 4285747711
-33.895187 -6.3363762 24.805595 4285747711
-33.771111 -6.2441926 24.514969 4285747711
-33.954922 -6.2543893 24.547115 4285747711
-34.115891 -6.2465119 24.52228 4285747711
-29.678564 -6.7561722 26.129097 4285747711
-29.707546 -6.7062855 25.971821 4285747711
-29.475523 -6.9701543 26.803722 4285747711
-33.539062 -6.7555242 26.127056 4285747711
-31.254995 -6.8853483 26.536358 4285747711
-34.725033 -6.3903999 24.975918 4285747711
-46.349178 -9.766798 32.299915 4285747711
-32.104488 -20.823784 29.332888 4285747711
-32.104492 -20.837265 29.527613 4285747711
-41.802185 -8.2333612 26.51977 4285747711
-41.642815 -8.1796141 26.65979 4285747711
-35.95713 -10.769201 24.827887 4285747711
-36.527576 -10.769199 24.927532 4285747711
-23.634689 -9.9967041 36.345604 4285747711
-23.569462 -9.970149 36.261879 4285747711
-23.446793 -9.9512272 36.202225 4285747711
-24.413408 -10.012512 36.395443 4285747711
-22.637463 -9.9156294 36.089996 4285747711
-22.640274 -9.7945557 35.708282 4285747711
-24.796345 -10.371459 36.080376 4285747711
-24.303181 -9.8906002 36.011086 4285747711
-25.98008 -9.9230309 36.113327 4285747711
-21.962183 -9.8698378 35.945629 4285747711
-21.208185 -9.7450771 35.552292 4285747711
-25.313835 -10.336243 36.28249 4285747711
-25.251497 -10.7692 34.693619 4285747711
-26.483952 -9.9473839 36.190109 4285747711
-26.534725 -10.002323 36.363316 4285747711
-26.805279 -9.9080591 36.066132 4285747711
-22.985882 -10.256701 36.444901 4285747711
-25.068748 -10.7692 34.421398 4285747711
-23.991236 -10.7692 34.3549 4285747711
-26.145767 -9.8637276 35.926365 4285747711
-23.235947 -10.213176 36.444901 4285747711
-23.232077 -10.18158 36.444901 4285747711
-22.121532 -9.9433594 36.177422 4285747711
-22.014038 -10.027924 36.444031 4285747711
-26.47155 -9.7878704 35.687206 4285747711
-26.9384 -9.7717323 35.63633 4285747711
-27.54884 -9.7746687 35.645588 4285747711
-24.0448 -10.336813 36.333233 4285747711
-27.444918 -9.7731142 35.640686 4285747711
-24.256283 -10.446372 36.076347 4285747711
-25.249222 -10.420501 36.083874 4285747711
-16.745975 -8.2280016 25.84359 4285747711
-16.885376 -8.1596098 25.521526 4285747711
-16.803295 -8.2800083 26.373327 4285747711
-16.941561 -8.2476454 26.347013 4285747711
-17.145149 -8.2705193 26.891098 4285747711
-16.703703 -8.4203777 27.359623 4285747711
-16.714056 -8.4322872 27.476089 4285747711
-16.603844 -8.4776611 27.658842 4285747711
-16.38496 -8.3135099 25.920616 4285747711
-16.441366 -8.3714428 26.497719 4285747711
-40.804611 -10.7692 25.177448 4285747711
-40.412701 -10.7692 24.768492 4285747711
-40.120163 -10.769201 26.600193 4285747711
-40.719994 -10.769201 25.94796 4285747711
-40.419266 -10.7692 26.731241 4285747711
-40.08617 -10.7692 27.270653 4285747711
-38.833542 -7.2322097 26.733212 4285747711
-28.927212 -10.7692 33.642643 4285747711
-32.104496 -12.325438 29.546204 4285747711
-32.104504 -12.677739 29.773825 4285747711
-32.104507 -13.003369 29.913317 4285747711
-14.240952 -3.9142363 39.657627 4285747711
-30.970591 -17.746315 32.632954 4285747711
-46.745602 -11.60674 34.236378 4285747711
-33.764534 -10.769199 35.479145 4285747711
-33.072987 -10.492516 36.143433 4285747711
-14.294326 -3.3839149 37.145626 4285747711
-14.294535 -3.0492761 36.572601 4285747711
-14.294465 -3.3582449 36.765446 4285747711
-14.294499 -3.8109522 36.674686 4285747711
-14.294483 -3.8720644 36.718674 4285747711
-14.294556 -3.917989 36.524467 4285747711
-14.294706 -4.0059099 36.113953 4285747711
-14.294758 -4.0991116 35.973766 4285747711
-14.294771 -3.9740481 35.938931 4285747711
-14.294841 -3.5408983 35.745411 4285747711
-14.29469 -4.7398186 36.165421 4285747711
-14.294803 -5.0070982 35.859573 4285747711
-31.385036 -13.70603 32.632793 4285747711
-31.37039 -13.30809 32.632797 4285747711
-22.410807 -10.7692 34.55904 4285747711
-22.502174 -10.866167 35.511299 4285747711
-22.324909 -10.7692 35.458233 4285747711
-24.970606 -10.7692 33.448143 4285747711
-25.206593 -10.769199 33.357719 4285747711
-25.526424 -10.7692 33.519188 4285747711
-23.935722 -10.7692 32.838921 4285747711
-24.937914 -10.769199 33.176987 4285747711
-25.481901 -10.7692 33.521469 4285747711
-24.096508 -10.888844 32.63583 4285747711
-39.133415 -7.3333402 26.632252 4285747711
-38.966782 -7.2771435 26.563063 4285747711
-32.104488 -11.484373 29.1397 4285747711
-32.104481 -11.667636 29.029501 4285747711
-32.543457 -10.7692 29.305014 4285747711
-32.104443 -13.851048 27.992847 4285747711
-47.035583 -10.326599 29.625607 4285747711
-32.104542 -13.759764 30.947195 4285747711
-32.758736 -10.7692 24.518923 4285747711
-25.520643 -9.0076237 33.227303 4285747711
-25.964403 -9.050993 33.364037 4285747711
-25.756018 -8.878232 32.81937 4285747711
-26.052885 -9.0994682 33.516865 4285747711
-25.767408 -8.8128376 32.613201 4285747711
-26.283224 -8.9438667 33.026299 4285747711
-26.685081 -8.6749344 32.178429 4285747711
-27.162268 -8.998127 33.197365 4285747711
-26.484442 -8.5852757 31.895756 4285747711
-26.780569 -8.6374588 32.060276 4285747711
-24.663189 -8.8644257 32.775841 4285747711
-26.002781 -8.4851322 31.580032 4285747711
-26.656549 -8.4999342 31.626698 4285747711
-27.295589 -8.9227962 32.959869 4285747711
-27.234997 -8.6541719 32.112968 4285747711
-26.855379 -9.2741928 34.067726 4285747711
-26.955269 -8.3727913 31.225853 4285747711
-27.369349 -8.3765116 31.237583 4285747711
-25.912838 -8.3572607 31.176891 4285747711
-28.199636 -8.6353626 32.053673 4285747711
-25.227619 -8.4833946 31.574554 4285747711
-28.34251 -8.8879595 32.850037 4285747711
-25.328976 -8.3303013 31.091894 4285747711
-24.123974 -8.7893295 32.539082 4285747711
-24.396631 -9.1480598 33.670059 4285747711
-24.614666 -8.5675583 31.839899 4285747711
-23.83503 -8.4643078 31.51438 4285747711
-27.247665 -8.3564386 31.174297 4285747711
-25.700596 -8.2135677 30.723864 4285747711
-27.311651 -8.1078949 30.390707 4285747711
-25.209751 -8.2647047 30.885084 4285747711
-24.184505 -8.1863995 30.63821 4285747711
-23.850332 -8.3031464 31.006283 4285747711
-23.636887 -8.749197 32.41256 4285747711
-22.961987 -8.8608913 32.764702 4285747711
-22.967213 -8.5840836 31.891998 4285747711
-23.584225 -9.1721115 33.745888 4285747711
-23.203518 -9.1331415 33.623024 4285747711
-23.51248 -9.1966915 33.82338 4285747711
-23.109108 -9.1336908 33.62476 4285747711
-22.890896 -9.1550331 33.692043 4285747711
-22.886612 -9.20047 33.835297 4285747711
-23.23226 -8.5166731 31.679474 4285747711
-22.495823 -8.4907494 31.59774 4285747711
-22.405144 -8.4914875 31.600067 4285747711
-23.145245 -8.0762682 30.290997 4285747711
-23.238016 -8.0567579 30.229488 4285747711
-27.435028 -8.2314548 30.780256 4285747711
-27.783642 -8.3620005 31.19183 4285747711
-22.858685 -8.4396858 31.436749 4285747711
-22.352608 -8.8332386 32.677513 4285747711
-23.913452 -9.1387215 33.640617 4285747711
-22.591295 -9.0207376 33.26865 4285747711
-22.630669 -8.3812895 31.252644 4285747711
-22.109806 -9.0702477 33.42474 4285747711
-22.057076 -9.053545 33.372078 4285747711
-22.260862 -9.1656322 33.725464 4285747711
-21.710527 -9.0080557 33.228668 4285747711
-22.982307 -8.2308474 30.778343 4285747711
-21.676365 -8.4055662 31.329184 4285747711
-21.64024 -8.2772484 30.924631 4285747711
-22.682632 -8.0819263 30.308838 4285747711
-22.57959 -9.2409029 33.962769 4285747711
-20.665188 -8.9373627 33.005791 4285747711
-20.414543 -8.76861 32.473763 4285747711
-20.617111 -8.3776608 31.241205 4285747711
-20.522942 -9.1843786 33.784565 4285747711
-19.365168 -8.7841988 32.522911 4285747711
-20.862591 -8.615365 31.990622 4285747711
-19.736588 -8.6264114 32.025448 4285747711
-19.067089 -8.3688488 31.055477 4285747711
-20.122208 -8.3245916 31.073891 4285747711
-19.316055 -8.4681549 31.526506 4285747711
-20.191721 -8.2578249 30.863396 4285747711
-20.392483 -8.185421 30.635126 4285747711
-19.199854 -8.313343 30.828331 4285747711
-19.965092 -8.1796913 30.617062 4285747711
-21.439674 -7.9729295 29.965199 4285747711
-21.848818 -7.9450603 29.877333 4285747711
-20.593868 -7.9411836 29.865112 4285747711
-22.240074 -7.8967819 29.725126 4285747711
-20.454565 -7.9132967 29.710625 4285747711
-21.783119 -7.7837343 29.368717 4285747711
-30.924652 -11.707945 35.511299 4285747711
-43.116173 -11.393704 35.511299 4285747711
-42.962044 -11.623234 35.511299 4285747711
-44.619293 -11.114519 35.511299 4285747711
-45.613243 -10.7692 35.162308 4285747711
-45.429207 -11.8008 35.964149 4285747711
-45.841167 -10.7692 34.795731 4285747711
-46.745602 -10.570917 35.015526 4285747711
-46.745602 -10.731934 34.872616 4285747711
-45.834446 -10.7692 35.101643 4285747711
-25.096258 -11.147502 32.635414 4285747711
-46.745602 -10.998446 34.710209 4285747711
-45.66814 -11.459167 35.511299 4285747711
-45.207985 -11.516309 35.511299 4285747711
-44.536304 -11.423271 35.511299 4285747711
-45.295967 -10.7692 34.691887 4285747711
-43.987408 -11.8008 35.783783 4285747711
-43.981152 -11.8008 35.85891 4285747711
-43.571743 -11.8008 35.648998 4285747711
-45.29937 -10.7692 34.499382 4285747711
-43.093311 -11.723228 35.511299 4285747711
-45.708191 -10.7692 33.923588 4285747711
-29.863281 -19.51413 32.633415 4285747711
-29.87977 -18.651611 32.633408 4285747711
-29.773951 -18.795717 32.633453 4285747711
-30.612011 -19.479109 32.633095 4285747711
-32.104465 -13.668232 28.651217 4285747711
-32.104465 -13.577984 28.611574 4285747711
-32.104389 -10.922239 26.145536 4285747711
-32.365776 -10.7692 26.901209 4285747711
-32.129997 -10.769199 27.79229 4285747711
-32.414093 -10.7692 26.932354 4285747711
-46.745602 -10.953666 32.903912 4285747711
-46.745602 -10.927547 32.877304 4285747711
-43.138092 -10.7692 25.46089 4285747711
-43.654873 -10.7692 25.711994 4285747711
-43.691422 -10.7692 25.897102 4285747711
-42.100239 -10.7692 26.757206 4285747711
-14.293639 -3.5806658 39.011478 4285747711
-14.293703 -3.8841527 38.839958 4285747711
-14.293631 -4.3792896 39.041218 4285747711
-14.293746 -3.6177437 38.720135 4285747711
-14.293788 -3.3228106 38.607475 4285747711
-46.1898 -11.743492 26.616074 4285747711
-46.189804 -11.616027 26.569345 4285747711
-31.358166 -10.526373 36.130428 4285747711
-31.379671 -10.651428 36.13073 4285747711
-30.119419 -10.390259 36.120865 4285747711
-36.204567 -10.7692 32.356915 4285747711
-26.61731 -10.7692 32.823475 4285747711
-26.646032 -10.769199 32.905312 4285747711
-25.962957 -10.7692 33.012642 4285747711
-27.574554 -10.7692 32.834286 4285747711
-32.104576 -14.113503 32.001873 4285747711
-32.10458 -14.217101 32.130131 4285747711
-32.104584 -14.412427 32.137074 4285747711
-32.104595 -14.536907 32.484116 4285747711
-32.104576 -13.760136 31.903765 4285747711
-32.104568 -13.517696 31.758326 4285747711
-31.267763 -8.3994789 31.30999 4285747711
-31.260393 -8.4010859 31.31506 4285747711
-31.21162 -8.4428625 31.446768 4285747711
-31.516998 -8.4485159 31.464592 4285747711
-31.395891 -8.5254097 31.707016 4285747711
-32.400352 -8.1245155 30.443108 4285747711
-30.659603 -8.6432552 32.078552 4285747711
-33.115154 -7.8768525 29.662296 4285747711
-33.330761 -7.8986378 29.73098 4285747711
-33.141232 -7.8477974 29.570692 4285747711
-33.427395 -7.9099131 29.766523 4285747711
-33.275814 -10.7692 26.30422 4285747711
-32.26181 -8.3344421 31.104946 4285747711
-33.483418 -8.2142925 30.726147 4285747711
-44.218792 -10.005762 36.374161 4285747711
-28.29917 -13.136576 32.634079 4285747711
-28.494089 -12.045142 32.633999 4285747711
-28.633163 -11.557081 32.633942 4285747711
-28.73419 -11.95502 32.6339 4285747711
-28.866009 -17.711718 32.633839 4285747711
-29.06119 -17.71526 32.633759 4285747711
-29.005178 -16.997635 32.633781 4285747711
-29.030195 -16.013454 32.633774 4285747711
-31.540354 -5.2213297 21.290163 4285747711
-33.710899 -5.5432677 22.305143 4285747711
-31.729378 -5.295897 21.525253 4285747711
-31.378801 -5.3628082 21.736206 4285747711
-31.884014 -5.3942451 21.835316 4285747711
-33.279163 -5.5636578 22.369429 4285747711
-34.200657 -5.6698084 22.556747 4285747711
-34.44223 -5.8285232 23.204473 4285747711
-34.595108 -5.8028326 22.526155 4285747711
-32.365696 -5.4891376 22.134487 4285747711
-32.440281 -5.4728436 22.083117 4285747711
-30.730339 -5.2408237 21.351622 4285747711
-30.743599 -5.2412577 21.352991 4285747711
-30.54723 -5.2807093 21.477371 4285747711
-30.383379 -5.3072042 21.560902 4285747711
-35.238506 -10.769199 29.078808 4285747711
-34.959728 -10.7692 30.272062 4285747711
-45.888676 -9.611496 28.890415 4285747711
-45.827766 -9.5909557 28.585993 4285747711
-45.336933 -9.4254265 29.472914 4285747711
-45.605099 -9.5158615 29.748074 4285747711
-45.846893 -9.5974064 29.645208 4285747711
-45.844082 -9.5964565 30.005123 4285747711
-45.715233 -9.5530052 29.143564 4285747711
-44.863823 -10.4075 30.335176 4285747711
-46.187328 -9.7122154 29.139376 4285747711
-46.653061 -9.8692799 28.46019 4285747711
-44.880669 -10.679027 29.2166 4285747711
-45.310802 -10.4075 29.50238 4285747711
-43.897999 -11.34488 30.199621 4285747711
-45.257248 -10.407501 29.721172 4285747711
-46.728123 -9.8945932 28.904587 4285747711
-45.407799 -10.426051 29.941633 4285747711
-46.745602 -10.443069 28.020071 4285747711
-46.217171 -9.7222786 29.943615 4285747711
-31.041981 -10.7692 34.821484 4285747711
-31.259224 -10.7692 34.988167 4285747711
-30.86755 -10.7692 35.224869 4285747711
-30.962128 -10.7692 33.940304 4285747711
-32.838177 -11.056777 35.511299 4285747711
-31.753004 -10.800919 35.511299 4285747711
-32.012829 -10.7692 34.980839 4285747711
-33.413269 -11.511187 36.147106 4285747711
-31.575851 -11.120831 36.132729 4285747711
-32.2169 -10.802744 35.511299 4285747711
-31.714489 -10.853283 35.511299 4285747711
-30.206161 -10.7692 34.76202 4285747711
-26.799688 -10.673923 36.095932 4285747711
-27.146656 -10.601987 36.098495 4285747711
-27.367653 -10.335318 36.242302 4285747711
-26.387224 -10.7692 35.268738 4285747711
-25.447496 -10.692869 36.085674 4285747711
-26.961132 -10.505733 36.096977 4285747711
-26.494902 -10.335711 36.267128 4285747711
-27.561462 -10.7692 34.784729 4285747711
-27.635227 -10.7692 34.744957 4285747711
-46.308178 -11.8008 29.179777 4285747711
-46.578789 -11.8008 29.287535 4285747711
-46.491188 -11.8008 28.881779 4285747711
-46.745602 -11.599404 29.663517 4285747711
-46.533157 -11.8008 30.397659 4285747711
-45.218685 -12.583546 29.2166 4285747711
-46.745602 -11.599544 30.780949 4285747711
-46.582317 -11.8008 30.486809 4285747711
-46.610325 -11.8008 30.812525 4285747711
-46.745598 -11.455961 31.787889 4285747711
-45.407799 -12.737391 30.325974 4285747711
-44.836777 -12.901635 29.2166 4285747711
-46.745602 -11.267838 32.135311 4285747711
-45.407799 -13.193105 30.264721 4285747711
-43.898003 -13.67622 30.198441 4285747711
-45.407799 -13.297691 30.642782 4285747711
-45.407799 -14.007377 30.509666 4285747711
-45.407799 -14.398479 30.288872 4285747711
-45.407799 -14.619734 29.972509 4285747711
-44.692146 -13.950484 29.216599 4285747711
-44.241501 -13.317997 29.2166 4285747711
-45.407799 -13.876621 30.887606 4285747711
-45.407799 -13.431904 30.39661 4285747711
-46.189804 -11.29043 34.104965 4285747711
-32.104519 -13.06735 30.231627 4285747711
-32.104507 -11.900476 29.814644 4285747711
-14.293915 -3.9212232 38.266682 4285747711
-35.199387 -7.6189899 28.849321 4285747711
-34.259151 -7.6805782 29.043495 4285747711
-47.124298 -10.297614 31.719662 4285747711
-21.567663 -10.7692 33.928993 4285747711
-43.897999 -13.722267 31.018093 4285747711
-41.865051 -10.769201 30.226479 4285747711
-41.847622 -10.7692 29.642187 4285747711
-42.167824 -10.769199 30.766661 4285747711
-41.57555 -10.7692 29.579889 4285747711
-41.7938 -10.7692 31.18786 4285747711
-42.513767 -10.769199 30.955526 4285747711
-42.789272 -10.7692 31.500345 4285747711
-33.003185 -10.769199 29.768051 4285747711
-32.914551 -10.769201 29.96245 4285747711
-24.386116 -13.934956 32.635708 4285747711
-24.136715 -13.378299 32.635811 4285747711
-23.218626 -13.892822 32.636192 4285747711
-24.346603 -12.725803 32.635723 4285747711
-22.992558 -14.094158 32.636288 4285747711
-24.241381 -14.296801 32.635765 4285747711
-23.256844 -14.171495 32.636177 4285747711
-23.070333 -14.230042 32.636253 4285747711
-22.762966 -14.2598 32.636379 4285747711
-22.765417 -12.444485 32.636379 4285747711
-22.480522 -13.647097 32.636497 4285747711
-22.449478 -13.300674 32.636513 4285747711
-23.677399 -13.46427 32.636002 4285747711
-21.973238 -13.988145 32.636707 4285747711
-23.103806 -14.519163 32.636238 4285747711
-25.451111 -14.493668 32.635265 4285747711
-21.761253 -13.389609 32.636799 4285747711
-21.139475 -13.170132 32.637058 4285747711
-26.770117 -14.217041 32.63472 4285747711
-26.806805 -14.443216 32.634701 4285747711
-26.970297 -14.530231 32.634632 4285747711
-32.104538 -20.898256 30.849941 4285747711
-32.104546 -19.90262 31.08902 4285747711
-31.478477 -15.438784 32.632744 4285747711
-25.98226 -12.332279 32.635044 4285747711
-27.240154 -12.128141 32.634521 4285747711
-27.359671 -11.831167 32.634472 4285747711
-44.701992 -10.769201 33.878227 4285747711
-44.139648 -10.7692 33.8731 4285747711
-43.333115 -10.7692 32.874485 4285747711
-44.142185 -10.7692 34.053719 4285747711
-44.020103 -10.769199 34.22607 4285747711
-43.812267 -10.7692 34.060589 4285747711
-42.959919 -10.769199 33.189888 4285747711
-44.194084 -10.769201 34.334381 4285747711
-44.769115 -10.7692 34.518604 4285747711
-42.434372 -10.7692 33.441395 4285747711
-42.59391 -10.7692 33.932289 4285747711
-41.992725 -10.7692 32.851025 4285747711
-41.740337 -10.769199 32.80537 4285747711
-41.520786 -10.7692 32.474022 4285747711
-42.495052 -10.769201 34.192661 4285747711
-41.219345 -10.769201 31.760078 4285747711
-40.770897 -10.7692 31.14978 4285747711
-42.13002 -10.7692 34.50127 4285747711
-41.500313 -10.7692 32.016903 4285747711
-41.10817 -10.7692 30.219414 4285747711
-35.95858 -10.769201 26.157114 4285747711
-36.210033 -10.7692 26.196026 4285747711
-36.78421 -10.7692 26.553602 4285747711
-36.639698 -10.7692 27.231466 4285747711
-36.154442 -10.7692 26.802416 4285747711
-37.025074 -10.7692 26.854721 4285747711
-23.866554 -10.769199 35.082184 4285747711
-32.104244 -11.259816 21.610878 4285747711
-32.10429 -11.210008 23.074997 4285747711
-32.104305 -11.320618 23.496187 4285747711
-32.104271 -11.217482 22.511564 4285747711
-32.104282 -11.40185 22.814018 4285747711
-32.104282 -11.341347 22.86392 4285747711
-33.208191 -10.7692 28.262291 4285747711
-33.157188 -10.7692 28.752802 4285747711
-38.696754 -7.7930498 29.398087 4285747711
-38.699535 -8.0032549 30.060806 4285747711
-38.024109 -7.9280238 29.823624 4285747711
-39.473972 -7.9628406 29.93339 4285747711
-38.822796 -7.9317312 29.83531 4285747711
-37.77549 -7.7631969 29.303968 4285747711
-28.888273 -7.992795 30.02783 4285747711
-29.044016 -7.9956799 30.036924 4285747711
-28.705572 -8.1331387 30.470295 4285747711
-29.418877 -7.9635606 29.935661 4285747711
-29.276136 -8.35285 31.162985 4285747711
-24.521816 -11.084351 36.079041 4285747711
-26.09407 -11.084719 36.091 4285747711
-31.999352 -7.9650345 29.94031 4285747711
-35.376442 -10.7692 26.211042 4285747711
-35.385075 -10.7692 27.029615 4285747711
-37.891068 -10.7692 27.743561 4285747711
-38.486164 -10.769201 27.432226 4285747711
-38.142471 -10.7692 28.621277 4285747711
-38.788967 -10.769199 28.63172 4285747711
-38.979259 -10.769199 27.040154 4285747711
-39.271915 -10.7692 27.861517 4285747711
-38.483101 -10.7692 27.375875 4285747711
-38.594868 -10.7692 27.332552 4285747711
-38.737122 -10.7692 27.0277 4285747711
-37.951637 -10.769201 27.2925 4285747711
-38.862415 -10.7692 27.017416 4285747711
-38.90134 -10.7692 26.635845 4285747711
-38.228455 -10.7692 28.493364 4285747711
-37.569153 -10.7692 29.251087 4285747711
-38.610542 -10.7692 29.500875 4285747711
-36.968311 -10.7692 29.675987 4285747711
-39.50349 -10.7692 27.095409 4285747711
-37.660439 -10.7692 29.900419 4285747711
-37.588139 -10.769201 29.981817 4285747711
-37.983906 -10.7692 30.295816 4285747711
-21.343256 -11.804344 32.636971 4285747711
-18.021969 -9.0451403 33.345585 4285747711
-31.759415 -11.413147 35.511299 4285747711
-30.958429 -7.8278742 29.507879 4285747711
-30.846378 -7.7409277 29.233761 4285747711
-31.130783 -7.3509336 28.004217 4285747711
-32.434502 -7.6439619 28.928055 4285747711
-30.959188 -7.5504503 28.63324 4285747711
-32.033684 -7.4697261 28.378736 4285747711
-31.116816 -7.1769047 27.455551 4285747711
-32.649052 -7.6474538 28.939064 4285747711
-32.932819 -7.3727846 28.073109 4285747711
-31.290234 -7.0966549 27.202545 4285747711
-21.116896 -11.087765 35.511299 4285747711
-21.489328 -11.305603 35.511299 4285747711
-21.230762 -11.469672 36.054409 4285747711
-22.334194 -11.8008 35.775627 4285747711
-21.199982 -11.8008 35.916328 4285747711
-20.626114 -11.019742 35.511299 4285747711
-22.969276 -11.8008 35.547424 4285747711
-23.054979 -11.681927 35.511299 4285747711
-24.563578 -11.8008 35.900455 4285747711
-24.663837 -11.8008 35.823433 4285747711
-24.686913 -11.8008 35.862518 4285747711
-23.284534 -11.8008 36.004597 4285747711
-22.981642 -11.8008 36.018074 4285747711
-22.214836 -11.595493 36.062023 4285747711
-39.509441 -7.4601517 25.406527 4285747711
-42.725552 -10.7692 25.329233 4285747711
-41.75341 -10.7692 25.808895 4285747711
-42.243305 -10.7692 25.18663 4285747711
-45.065178 -14.617176 31.382999 4285747711
-30.436745 -11.670354 32.633194 4285747711
-18.394037 -8.3356524 29.607368 4285747711
-36.061718 -6.5269651 25.406473 4285747711
-14.294036 -2.7431216 37.930855 4285747711
-32.438812 -10.606272 36.138733 4285747711
-44.095608 -15.455872 29.216602 4285747711
-30.139221 -11.703962 35.511299 4285747711
-20.436935 -10.769199 33.935841 4285747711
-19.602943 -10.769199 33.878723 4285747711
-21.215485 -10.7692 34.316151 4285747711
-20.90765 -10.7692 34.929131 4285747711
-20.756269 -10.769199 35.296165 4285747711
-20.479778 -10.7692 35.336166 4285747711
-20.489639 -11.140453 36.048435 4285747711
-20.522163 -11.200416 36.048744 4285747711
-20.507721 -10.814483 36.048241 4285747711
-21.558125 -11.203197 36.056625 4285747711
-19.1434 -10.923507 36.037971 4285747711
-26.775877 -13.268874 32.634712 4285747711
-27.256699 -13.583177 32.634514 4285747711
-27.342102 -13.449811 32.634476 4285747711
-46.745602 -10.502419 28.499672 4285747711
-46.745605 -10.331644 28.954975 4285747711
-46.044849 -10.7692 29.160709 4285747711
-46.854343 -10.326601 30.118444 4285747711
-46.863293 -10.3266 30.493254 4285747711
-34.535294 -10.7692 32.598026 4285747711
-34.593067 -10.769201 32.63987 4285747711
-34.444382 -10.7692 32.77459 4285747711
-34.902367 -10.7692 32.295174 4285747711
-33.984497 -10.7692 32.508465 4285747711
-34.214767 -10.7692 32.647507 4285747711
-46.521118 -11.8008 32.234997 4285747711
-22.68045 -10.952171 36.064903 4285747711
-19.353281 -10.769199 34.102959 4285747711
-34.84869 -10.7692 23.752247 4285747711
-25.36504 -10.7692 34.758224 4285747711
-42.947083 -10.7692 26.616495 4285747711
-45.689728 -10.7692 30.17053 4285747711
-45.854252 -9.5998869 30.604326 4285747711
-45.826241 -9.5904408 30.644188 4285747711
-29.726089 -11.39414 32.633488 4285747711
-29.481976 -11.140486 32.633591 4285747711
-43.849758 -10.7692 28.108395 4285747711
-44.089512 -10.769201 27.842697 4285747711
-42.981277 -10.7692 29.102951 4285747711
-43.583584 -10.7692 28.164635 4285747711
-42.799686 -10.7692 28.686365 4285747711
-23.320545 -10.671884 36.069477 4285747711
-46.1898 -11.273171 29.01265 4285747711
-46.745602 -10.708604 29.006365 4285747711
-46.745605 -11.189168 28.022373 4285747711
-29.829235 -10.7692 33.192299 4285747711
-18.602026 -8.4063892 30.554653 4285747711
-18.525307 -8.4279337 30.598888 4285747711
-18.796749 -8.3914509 30.770798 4285747711
-18.742208 -9.8744411 35.96014 4285747711
-18.915142 -9.9056711 36.058598 4285747711
-18.970203 -9.8452396 35.868076 4285747711
-19.528225 -10.211313 36.444901 4285747711
-19.980141 -10.173654 36.444901 4285747711
-20.738792 -10.262425 36.444901 4285747711
-20.123327 -10.120352 36.444901 4285747711
-21.024731 -9.9053345 36.057541 4285747711
-19.33247 -9.8057518 35.743584 4285747711
-22.518248 -10.147627 36.444901 4285747711
-24.407915 -9.5074368 34.803078 4285747711
-24.253626 -9.5457153 34.923759 4285747711
-24.467369 -9.5755787 35.01791 4285747711
-24.543943 -9.3589582 34.334965 4285747711
-25.258327 -9.5918102 35.069084 4285747711
-23.030388 -9.5100937 34.811455 4285747711
-23.904413 -10.7692 33.905994 4285747711
-25.145428 -10.7692 33.989483 4285747711
-24.965057 -9.7403994 35.537544 4285747711
-23.284775 -9.5939445 35.075813 4285747711
-25.82452 -10.7692 34.035774 4285747711
-22.380543 -9.5170345 34.833336 4285747711
-21.76832 -9.3904018 34.434097 4285747711
-25.670017 -10.769199 33.735191 4285747711
-25.251072 -9.7095947 35.440422 4285747711
-26.159626 -9.5851059 35.047943 4285747711
-26.394402 -9.6312227 35.19334 4285747711
-23.145733 -9.5922127 35.070351 4285747711
-25.045071 -10.7692 34.018494 4285747711
-26.623543 -10.7692 34.135891 4285747711
-26.773716 -10.7692 33.769535 4285747711
-25.904425 -9.6412773 35.22504 4285747711
-27.009441 -9.3918114 34.438541 4285747711
-29.404142 -10.7692 32.892014 4285747711
-30.528456 -10.784258 32.633156 4285747711
-40.154896 -10.7692 33.128574 4285747711
-40.198597 -10.7692 33.508354 4285747711
-38.234314 -7.1690183 27.430687 4285747711
-38.643833 -7.168232 26.684404 4285747711
-40.046619 -7.6413107 27.330917 4285747711
-40.075058 -7.6509008 28.063076 4285747711
-29.282717 -10.7692 34.622398 4285747711
-29.032902 -10.7692 34.948265 4285747711
-31.312252 -11.675288 35.511299 4285747711
-30.278877 -11.223591 35.511299 4285747711
-29.834396 -11.545086 36.119919 4285747711
-31.442053 -11.654917 36.132263 4285747711
-30.409616 -11.222346 35.511299 4285747711
-31.519983 -11.561493 36.132755 4285747711
-31.764191 -11.594961 35.511299 4285747711
-32.474606 -11.738716 35.511299 4285747711
-29.15885 -11.653238 36.114891 4285747711
-29.312851 -11.528206 36.115936 4285747711
-32.594643 -8.368824 31.213345 4285747711
-32.61713 -8.4122257 31.350178 4285747711
-32.299641 -8.5081835 31.652708 4285747711
-31.633488 -8.7069435 32.279343 4285747711
-30.344917 -11.709793 35.511299 4285747711
-29.480515 -11.8008 35.837029 4285747711
-29.041311 -11.8008 35.827282 4285747711
-28.219416 -11.8008 35.751087 4285747711
-26.851788 -11.8008 35.9823 4285747711
-26.577412 -11.8008 35.568756 4285747711
-34.062775 -7.4636564 28.3596 4285747711
-43.897999 -14.125231 31.260778 4285747711
-44.6516 -12.670034 31.382999 4285747711
-18.098789 -8.4639034 30.152302 4285747711
-43.092022 -10.7692 29.804474 4285747711
-43.295307 -10.7692 29.943155 4285747711
-43.03376 -10.7692 30.055962 4285747711
-33.535313 -10.769199 22.662634 4285747711
-45.031097 -10.7692 32.955669 4285747711
-44.100136 -10.7692 32.44022 4285747711
-25.502445 -7.9362974 29.849709 4285747711
-25.138401 -7.8620577 29.61565 4285747711
-25.947609 -7.8677301 29.633533 4285747711
-27.065641 -7.8519325 29.583729 4285747711
-26.603512 -7.8247633 29.49807 4285747711
-27.654367 -7.690731 29.075506 4285747711
-36.945137 -6.5953608 23.600178 4285747711
-37.115952 -6.6529675 23.55019 4285747711
-31.335709 -10.789083 32.632816 4285747711
-28.200947 -10.7692 34.923927 4285747711
-29.548388 -10.7692 34.29142 4285747711
-29.973557 -10.769201 34.337379 4285747711
-25.362394 -10.825893 35.511299 4285747711
-25.872345 -10.849159 35.511299 4285747711
-27.199883 -11.099733 36.099426 4285747711
-34.915653 -10.769199 22.61837 4285747711
-34.848991 -10.7692 22.734642 4285747711
-37.589661 -10.769199 25.966867 4285747711
-37.564079 -10.769201 26.01993 4285747711
-37.659889 -10.7692 26.013298 4285747711
-23.700432 -10.7692 35.366638 4285747711
-43.940777 -13.526744 31.382999 4285747711
-32.10434 -11.822252 24.634827 4285747711
-32.104343 -11.59753 24.802208 4285747711
-32.104321 -11.954834 24.03545 4285747711
-32.104317 -11.801916 24.003988 4285747711
-46.876209 -10.3266 34.338242 4285747711
-18.370842 -9.4311447 34.562546 4285747711
-31.166916 -16.531925 32.632874 4285747711
-28.901417 -10.430645 36.111649 4285747711
-28.621517 -10.46198 36.109554 4285747711
-43.897999 -11.673155 29.737421 4285747711
-43.897999 -11.610542 30.299967 4285747711
-27.937157 -11.069886 35.511299 4285747711
-29.06716 -11.176378 36.113705 4285747711
-29.253506 -10.975597 35.511299 4285747711
-38.791134 -7.2179079 24.030535 4285747711
-25.374214 -11.657058 32.635296 4285747711
-41.967789 -8.2892094 25.472485 4285747711
-34.745449 -6.1307268 24.15724 4285747711
-20.5809 -10.944533 32.637287 4285747711
-20.592163 -10.949035 32.637287 4285747711
-20.35557 -12.449537 32.637383 4285747711
-28.373028 -17.394419 32.634048 4285747711
-36.863789 -6.985631 26.85252 4285747711
-36.990128 -6.841013 26.39658 4285747711
-36.971245 -7.111865 27.2505 4285747711
-36.170853 -6.7963204 26.255672 4285747711
-36.300842 -6.6219187 25.705833 4285747711
-20.564526 -10.82121 32.637295 4285747711
-20.084398 -10.7692 33.025314 4285747711
-34.635998 -6.1285887 24.150501 4285747711
-35.410965 -6.1955643 24.361654 4285747711
-35.74498 -10.7692 30.908052 4285747711
-32.864918 -7.5049562 28.489809 4285747711
-33.594189 -7.438818 28.28129 4285747711
-26.80238 -10.891344 35.511299 4285747711
-45.407799 -13.267938 29.897589 4285747711
-45.407799 -13.23379 30.027786 4285747711
-19.174 -10.769199 34.624115 4285747711
-46.1898 -11.69241 29.159315 4285747711
-46.1898 -11.620323 30.072538 4285747711
-46.1898 -11.743477 30.700832 4285747711
-46.745605 -11.173237 31.283554 4285747711
-46.745602 -10.631497 32.827339 4285747711
-42.192932 -10.7692 27.838436 4285747711
-42.468002 -10.7692 27.996616 4285747711
-41.842709 -10.7692 28.236622 4285747711
-42.114967 -10.7692 28.260717 4285747711
-43.293495 -10.7692 27.589169 4285747711
-43.535309 -10.769199 26.898916 4285747711
-41.290524 -10.769199 28.395813 4285747711
-44.015579 -10.7692 26.699409 4285747711
-41.307823 -10.769201 28.119253 4285747711
-41.176762 -10.7692 28.711632 4285747711
-40.717148 -10.769201 28.960289 4285747711
-40.18605 -10.7692 25.593433 4285747711
-39.910095 -10.7692 25.485973 4285747711
-39.601906 -10.7692 25.087057 4285747711
-39.658638 -10.7692 25.527763 4285747711
-39.381985 -10.7692 25.610754 4285747711
-39.540783 -10.7692 24.762131 4285747711
-40.101223 -10.7692 24.463411 4285747711
-39.177155 -10.7692 25.25905 4285747711
-40.007912 -10.7692 24.728092 4285747711
-30.355448 -7.2470822 27.676802 4285747711
-30.791416 -6.9725685 26.811337 4285747711
-30.545355 -7.2134461 27.570755 4285747711
-30.967896 -17.138222 32.632957 4285747711
-31.503334 -20.281719 32.632721 4285747711
-24.532211 -10.7692 35.083172 4285747711
-24.014973 -10.7692 35.185791 4285747711
-25.078922 -10.7692 35.047882 4285747711
-25.281076 -10.769199 35.077938 4285747711
-23.362104 -10.7692 34.941845 4285747711
-33.193817 -10.769199 31.644308 4285747711
-47.124298 -10.270636 34.950916 4285747711
-47.05743 -10.00565 34.548359 4285747711
-28.660156 -10.7692 34.412308 4285747711
-28.672745 -10.7692 34.696629 4285747711
-25.717438 -10.336061 36.340275 4285747711
-43.676987 -10.7692 34.650845 4285747711
-43.218525 -10.769201 34.787376 4285747711
-43.821087 -10.899236 35.511299 4285747711
-44.372669 -10.769201 35.414207 4285747711
-46.1898 -11.263323 31.188486 4285747711
-46.745602 -10.627064 30.467806 4285747711
-47.124302 -10.303108 31.16543 4285747711
-47.124298 -10.22098 31.036758 4285747711
-20.60603 -11.8008 35.840588 4285747711
-20.859474 -11.670327 35.511299 4285747711
-43.950184 -11.999104 31.382999 4285747711
-44.256432 -13.727723 31.383001 4285747711
-32.104565 -12.383895 31.689629 4285747711
-43.897999 -12.330126 29.688799 4285747711
-16.220232 -8.4410315 26.687141 4285747711
-35.889904 -10.769199 30.454296 4285747711
-36.637039 -10.7692 29.315353 4285747711
-36.207672 -10.769199 29.386091 4285747711
-32.478355 -10.7692 23.148779 4285747711
-33.236897 -10.7692 24.667213 4285747711
-29.928596 -7.3945646 28.141773 4285747711
-30.301544 -7.4038019 28.170895 4285747711
-30.273224 -7.4400644 28.285221 4285747711
-30.197702 -7.4857006 28.429098 4285747711
-29.955608 -7.6401029 28.915886 4285747711
-46.745602 -10.789541 30.552462 4285747711
-24.687414 -11.831781 32.635582 4285747711
-34.939995 -11.8008 36.12603 4285747711
-47.124298 -10.215964 26.198359 4285747711
-47.124298 -10.187399 26.167658 4285747711
-47.086044 -10.015301 25.884192 4285747711
-32.357182 -7.8562489 29.597336 4285747711
-32.308792 -7.9261565 29.817738 4285747711
-32.383518 -10.7692 21.668612 4285747711
-34.786697 -10.7692 29.669706 4285747711
-46.483688 -11.8008 36.119236 4285747711
-14.296061 -5.2237816 32.44574 4285747711
-14.295675 -5.2686486 33.489059 4285747711
-14.296135 -5.2637153 32.240562 4285747711
-14.295341 -5.1182876 34.395767 4285747711
-32.104576 -12.841948 31.980888 4285747711
-32.104538 -14.262655 30.730478 4285747711
-46.745602 -11.667992 26.957579 4285747711
-46.745605 -11.506294 26.660751 4285747711
-46.592079 -9.8487148 30.141703 4285747711
-32.104435 -13.941641 27.587194 4285747711
-32.104427 -13.725461 27.51503 4285747711
-32.10442 -14.174665 27.165947 4285747711
-14.294083 -4.3885031 37.813778 4285747711
-14.294014 -4.7315774 38.000275 4285747711
-14.293934 -4.6139207 38.218201 4285747711
-14.294044 -3.9935498 37.915123 4285747711
-30.028015 -11.702015 32.633362 4285747711
-42.036068 -8.3122368 26.423349 4285747711
-32.104595 -11.425983 32.523815 4285747711
-35.345219 -10.7692 30.130928 4285747711
-30.371445 -10.871464 36.123302 4285747711
-29.851128 -11.012018 36.119495 4285747711
-20.40106 -10.357059 36.04694 4285747711
-17.94589 -8.3213816 28.707884 4285747711
-46.639122 -9.8645782 33.491608 4285747711
-30.260918 -13.028024 32.633263 4285747711
-19.540699 -11.026881 32.637722 4285747711
-20.437183 -11.192478 32.637348 4285747711
-31.746925 -12.893671 32.632641 4285747711
-32.995865 -10.769199 35.409504 4285747711
-33.040016 -6.0119615 23.782808 4285747711
-32.863266 -6.0360689 23.858814 4285747711
-32.535442 -5.9949493 23.729172 4285747711
-31.180161 -11.8008 35.902267 4285747711
-22.254368 -11.236826 32.636593 4285747711
-22.452789 -11.295 32.636513 4285747711
-45.863594 -10.7692 32.74218 4285747711
-43.898003 -15.633448 30.078239 4285747711
-36.11618 -7.2627821 27.726299 4285747711
-35.743267 -7.2490206 27.682913 4285747711
-45.407799 -15.022174 30.419395 4285747711
-45.804661 -10.7692 30.367743 4285747711
-45.79871 -10.769201 30.583223 4285747711
-28.500687 -12.501046 32.633999 4285747711
-28.173071 -12.42698 32.634136 4285747711
-29.915588 -10.629231 36.119576 4285747711
-30.825905 -10.713051 36.126587 4285747711
-29.051994 -10.769199 35.178207 4285747711
-28.843821 -10.7692 34.227844 4285747711
-30.682831 -12.181753 32.633091 4285747711
-32.085224 -16.291576 32.632488 4285747711
-31.862728 -16.382275 32.632584 4285747711
-31.894909 -15.749673 32.632568 4285747711
-43.171043 -11.800801 36.091099 4285747711
-43.306293 -11.773047 36.222614 4285747711
-43.845497 -11.469231 36.226391 4285747711
-43.860561 -11.462652 36.226498 4285747711
-43.970367 -11.135868 36.226978 4285747711
-42.118294 -11.75246 35.511299 4285747711
-41.529308 -10.7692 34.43206 4285747711
-32.104431 -11.009595 27.334475 4285747711
-32.104431 -11.029848 27.508564 4285747711
-31.192574 -13.128899 32.632874 4285747711
-32.104404 -11.857367 26.751549 4285747711
-32.104404 -11.96373 26.763823 4285747711
-33.272156 -10.7692 27.184238 4285747711
-32.104324 -11.263259 24.155045 4285747711
-32.104584 -17.371412 32.171261 4285747711
-32.104576 -17.136063 31.890291 4285747711
-34.747276 -10.7692 27.953356 4285747711
-32.104473 -14.877221 28.83399 4285747711
-32.104473 -14.821315 28.832275 4285747711
-32.653282 -10.7692 32.062984 4285747711
-16.74892 -8.6512394 29.346273 4285747711
-16.771421 -8.6488934 29.366127 4285747711
-25.370024 -11.532333 32.635296 4285747711
-35.034126 -10.769199 33.227402 4285747711
-34.927368 -10.7692 33.489357 4285747711
-34.461784 -10.7692 33.383907 4285747711
-33.963673 -10.7692 33.301613 4285747711
-33.888287 -10.769199 33.462212 4285747711
-34.245705 -10.7692 34.790295 4285747711
-33.854866 -10.769199 33.124893 4285747711
-33.617683 -10.7692 33.050163 4285747711
-33.548073 -10.7692 33.061829 4285747711
-33.399216 -10.769199 33.082371 4285747711
-30.298141 -17.607416 32.633236 4285747711
-30.227936 -17.742062 32.633266 4285747711
-30.289612 -17.774681 32.63324 4285747711
-30.657211 -10.934928 32.633102 4285747711
-26.492966 -14.802832 32.634834 4285747711
-27.94796 -12.598997 32.634228 4285747711
-43.897999 -13.685184 31.241453 4285747711
-45.407799 -15.177547 31.099091 4285747711
-45.407799 -15.420972 31.031891 4285747711
-44.701313 -15.267091 31.382999 4285747711
-44.989079 -15.449631 31.382999 4285747711
-44.86681 -15.335597 31.382999 4285747711
-33.06076 -10.769201 25.13756 4285747711
-33.076328 -10.769199 25.271461 4285747711
-32.104351 -10.996788 25.030621 4285747711
-33.12606 -10.7692 26.889582 4285747711
-32.845688 -10.7692 27.036688 4285747711
-32.861561 -10.7692 27.280577 4285747711
-44.90517 -10.232484 36.444901 4285747711
-44.805908 -10.105626 36.444901 4285747711
-27.667824 -10.7692 34.477917 4285747711
-28.957727 -10.7692 33.647873 4285747711
-18.363827 -9.9007149 36.042973 4285747711
-36.143692 -6.3250799 23.950512 4285747711
-35.470135 -6.115468 24.109135 4285747711
-34.69561 -10.7692 28.757526 4285747711
-36.805946 -10.7692 28.561201 4285747711
-20.83264 -11.296196 32.637184 4285747711
-18.98325 -10.7692 34.333008 4285747711
-18.912079 -10.769199 34.022301 4285747711
-32.104427 -11.590592 27.40962 4285747711
-32.104473 -13.634581 28.852392 4285747711
-32.104473 -13.620362 28.914082 4285747711
-32.104591 -19.733082 32.400455 4285747711
-32.104588 -20.377853 32.316883 4285747711
-43.897999 -15.717147 30.728882 4285747711
-45.407799 -16.170677 30.507204 4285747711
-35.825859 -6.2178926 23.173574 4285747711
-35.943733 -6.2576447 23.268122 4285747711
-29.428244 -16.619951 32.633606 4285747711
-29.531702 -17.876379 32.633556 4285747711
-25.122997 -13.316097 32.635403 4285747711
-33.377052 -11.760965 36.147083 4285747711
-39.921238 -10.7692 31.848822 4285747711
-40.20937 -10.7692 32.128662 4285747711
-40.477711 -10.7692 32.595627 4285747711
-40.55064 -10.7692 32.800934 4285747711
-40.392479 -10.7692 32.379627 4285747711
-31.22357 -14.523556 32.632858 4285747711
-33.056011 -10.7692 23.521814 4285747711
-32.10458 -11.824538 32.058399 4285747711
-44.405724 -15.719162 29.216602 4285747711
-18.238476 -9.5213404 34.846909 4285747711
-34.554199 -10.769199 27.000614 4285747711
-18.430969 -9.8326368 35.828346 4285747711
-18.460707 -9.8132296 35.767159 4285747711
-32.104355 -11.520866 25.071875 4285747711
-35.337021 -10.769201 32.022694 4285747711
-32.104351 -14.257899 25.160856 4285747711
-32.104362 -14.186049 25.563875 4285747711
-32.104336 -14.232374 24.649569 4285747711
-32.104366 -14.043459 25.630106 4285747711
-39.825687 -10.7692 31.183413 4285747711
-46.200703 -11.8008 26.457397 4285747711
-46.587749 -11.8008 33.488403 4285747711
-43.897999 -13.312036 29.437048 4285747711
-23.531813 -7.7681694 29.319649 4285747711
-32.104454 -11.419931 28.187071 4285747711
-32.104465 -11.181934 28.576138 4285747711
-26.355824 -11.354104 36.093266 4285747711
-26.262817 -11.349589 35.511299 4285747711
-27.255497 -11.640566 36.100407 4285747711
-26.303925 -11.461283 36.092987 4285747711
-44.011509 -12.47587 31.383001 4285747711
-34.342358 -10.769199 28.00798 4285747711
-25.052969 -10.899667 32.635426 4285747711
-36.464951 -10.7692 30.255999 4285747711
-29.187851 -13.200799 32.633713 4285747711
-28.201063 -10.7692 33.663406 4285747711
-32.104542 -12.727148 30.883999 4285747711
-32.104519 -12.216733 30.129507 4285747711
-32.104527 -12.072548 30.508635 4285747711
-45.407799 -11.91238 31.049908 4285747711
-39.490219 -10.7692 30.357826 4285747711
-30.889967 -13.783731 32.632999 4285747711
-20.037092 -11.357546 32.637516 4285747711
-37.188366 -10.7692 24.646578 4285747711
-45.407799 -13.368627 30.809357 4285747711
-45.407799 -13.650366 31.224228 4285747711
-24.688889 -15.595592 32.635582 4285747711
-30.814266 -15.453296 32.633026 4285747711
-32.104439 -12.898549 27.79509 4285747711
-34.519974 -7.5690475 28.69187 4285747711
-34.521248 -7.5990548 28.786474 4285747711
-32.104507 -20.987614 29.871471 4285747711
-31.061966 -8.1109142 30.400227 4285747711
-32.804977 -10.769201 22.072868 4285747711
-44.014301 -14.253056 29.2166 4285747711
-26.546116 -11.8008 36.01683 4285747711
-26.445015 -11.8008 35.971519 4285747711
-27.635111 -11.8008 36.009823 4285747711
-32.064346 -11.631804 32.632515 4285747711
-32.104599 -11.721343 32.566715 4285747711
-47.041908 -10.3266 31.682037 4285747711
-38.387619 -7.0818253 25.271309 4285747711
-38.740631 -7.2008762 24.811483 4285747711
-38.675262 -7.1788316 24.600464 4285747711
-35.07716 -6.886682 26.540558 4285747711
-34.882992 -7.0474634 27.047459 4285747711
-32.332691 -10.7692 29.249121 4285747711
-44.654991 -10.7692 33.130814 4285747711
-45.696934 -10.7692 33.08289 4285747711
-46.609924 -9.8547316 32.871819 4285747711
-46.745598 -11.454461 28.966635 4285747711
-39.558556 -7.476716 28.197613 4285747711
-39.448879 -7.4397273 27.947554 4285747711
-39.362362 -7.6079488 28.814518 4285747711
-39.304379 -7.6390495 28.912567 4285747711
-38.521488 -7.4967241 28.463854 4285747711
-27.454458 -10.876529 32.634434 4285747711
-46.745602 -10.599173 28.986082 4285747711
-19.494516 -9.6726074 35.323814 4285747711
-19.483488 -10.966129 32.637745 4285747711
-27.783808 -15.587904 32.634296 4285747711
-30.471916 -18.29287 32.63316 4285747711
-30.436531 -18.252312 32.633175 4285747711
-32.254517 -10.7692 29.576794 4285747711
-25.619846 -11.700053 36.088028 4285747711
-45.774158 -10.7692 29.889015 4285747711
-45.492878 -10.7692 29.772854 4285747711
-46.745602 -10.515134 28.732597 4285747711
-47.124298 -10.174144 28.97156 4285747711
-45.535114 -10.769201 29.625561 4285747711
-47.100277 -10.0201 29.09123 4285747711
-29.061642 -11.055397 36.113541 4285747711
-28.64587 -10.800727 35.511299 4285747711
-29.827446 -10.7692 34.765877 4285747711
-38.922806 -10.7692 24.687168 4285747711
-38.684998 -10.7692 24.46174 4285747711
-38.30003 -10.7692 24.266842 4285747711
-38.10257 -10.7692 24.52816 4285747711
-37.888615 -10.7692 23.856787 4285747711
-46.63036 -11.74655 36.247864 4285747711
-34.387432 -7.9057922 29.753532 4285747711
-34.021404 -7.8225584 29.491119 4285747711
-30.56674 -11.143312 32.633141 4285747711
-22.631479 -10.7692 34.155434 4285747711
-23.274725 -10.7692 34.321262 4285747711
-23.421087 -9.6984472 35.405281 4285747711
-46.396927 -11.8008 34.036289 4285747711
-31.8009 -18.313194 32.632599 4285747711
-31.507387 -17.168091 32.632729 4285747711
-32.104507 -13.968411 29.911715 4285747711
-32.104504 -13.905565 29.910358 4285747711
-32.104488 -10.784086 29.180891 4285747711
-35.387516 -10.7692 30.956736 4285747711
-34.296539 -10.7692 25.533083 4285747711
-34.312866 -10.769201 26.842276 4285747711
-35.609947 -10.7692 28.125359 4285747711
-43.897999 -10.701803 30.13081 4285747711
-32.104565 -15.255641 31.545902 4285747711
-19.002016 -9.4990187 34.776539 4285747711
-33.544498 -10.7692 31.6663 4285747711
-39.60487 -10.7692 32.890659 4285747711
-44.826355 -10.7692 30.451674 4285747711
-32.104454 -15.431406 28.259281 4285747711
-32.104462 -15.392963 28.471907 4285747711
-17.023481 -8.7389174 30.549646 4285747711
-33.506454 -7.5792885 28.724159 4285747711
-33.72242 -7.5501528 28.632299 4285747711
-33.709839 -7.6364923 28.904505 4285747711
-18.105955 -8.5846548 31.162663 4285747711
-18.112925 -8.6259851 31.516357 4285747711
-17.667698 -8.6141958 30.642469 4285747711
-46.189796 -11.418967 31.464901 4285747711
-44.918495 -12.376528 31.382999 4285747711
-37.020954 -10.769199 23.734964 4285747711
-21.912767 -10.7692 33.871628 4285747711
-32.397003 -10.769201 34.328068 4285747711
-32.758709 -10.7692 34.024242 4285747711
-33.283237 -10.7692 35.087746 4285747711
-33.349888 -10.784057 35.511299 4285747711
